-0.09127198720575311 -0.20151285588489795 -0.29855506970163925
0.2447088116819675 0.09527766670293734 -0.29855506970163925
0.1306040574701405 0.0933792030671037 -0.29753100218023526
-0.0037693562230140735 0.23956090302629418 -0.29697958120717155
0.013561017216131118 -0.13188414187189562 -0.29697958120717155
-0.23253028561973185 0.08399716908254821 -0.2965857090835546
0.14635894241481803 0.0933792030671037 -0.2959555136857675
-0.009409605033208694 0.2045456712367484 -0.2954040927127038
-0.030521150859076526 -0.20962662163140688 -0.2954040927127038
-0.2348383762641271 0.1037537948031738 -0.2950102205890869
-0.11838614419554319 -0.19963014713400895 -0.29438002519129974
-0.15110116278316602 0.13438916857809935 -0.293828604218236
-0.07502870082779059 -0.17512342360256303 -0.293828604218236
-0.12078876414960645 -0.19712512042780525 -0.29343473209461907
-0.2172953118782287 -0.12450297827531423 -0.292804536696832
-0.035405165191926595 0.1037537948031738 -0.292804536696832
-0.055894393062479716 -0.21648787402481393 -0.2922531157237683
0.32277426658284464 -0.11781502961629858 -0.2922531157237683
0.3796021365782965 0.14525216174745442 -0.2912290482023642
-0.22669310074772883 -0.0928120272090953 -0.2912290482023642
0.010622731173948834 0.13430251671090365 -0.2906776272293005
-0.2540987231089954 -0.062381466938450654 -0.2906776272293005
0.08751444714644747 0.020749183472140307 -0.2902837551056836
0.28623081095366515 -0.16600134521959473 -0.2896535597078965
0.3132189288638978 0.007751403392781302 -0.2891021387348328
-0.2660566807820056 -0.009626234701197925 -0.2891021387348328
-0.19818463644033482 -0.08656521532853072 -0.28870826661121585
0.28623081095366515 -0.16600134521959473 -0.2880780712134287
-0.15454360514357804 -0.15416154918366956 -0.287526650240365
-0.20057937895192585 -0.11565661037887776 -0.287526650240365
0.2550597710906207 0.12153318246324243 -0.287526650240365
0.3276661583581671 -0.12450297827531423 -0.28650258271896095
-0.2545398598874463 -0.021985941940297467 -0.28595116174589724
-0.23055304755917483 0.09179583713016366 -0.28595116174589724
0.320269239876641 0.03305374861393344 -0.28595116174589724
0.09916518456303651 -0.031123775208210407 -0.28492709422449325
-0.22754386453474137 -0.05768651122493672 -0.28437567325142954
-0.19113432542759168 0.10425795112140365 -0.28437567325142954
0.29974062479372604 0.09440327058850771 -0.28437567325142954
0.10681418120367747 0.1414158472634255 -0.28335160573002544
-0.20334436125971672 -0.11813800475766445 -0.2828001847569617
0.08462342575909912 0.13353840479108672 -0.2828001847569617
-0.25327946909187216 0.1037537948031738 -0.28177611723555773
0.2987559444846837 -0.0015597336095230225 -0.28177611723555773
-0.1964279667690033 0.0992872849213579 -0.281224696262494
0.30660187718713316 -0.05476398006769908 -0.281224696262494
-0.035405165191926595 0.14650467510055645 -0.28020062874109
-0.08537178279397141 0.17304377878986574 -0.27964920776802626
0.03764235885407074 -0.11346668137156754 -0.27964920776802626
-0.20766907717703065 0.12518831577040762 -0.2786251402466222
0.3588529531061563 0.1232504649222122 -0.2786251402466222
-0.1633348309427081 -0.15765125619891573 -0.27807371927355845
0.32168717952166187 -0.04587822495890095 -0.27807371927355845
0.2950141593103228 0.02126121723284231 -0.27704965175215446
-0.11048506939578741 0.1586516913929026 -0.27649823077909075
0.00873214498058746 -0.13356203711850373 -0.27649823077909075
-0.2488523464224178 0.08300461133103361 -0.2754741632576867
-0.014655981719786286 -0.05187295868035072 -0.2754741632576867
-0.23699679550154792 -0.07595430031829034 -0.274922742284623
0.3101624811846303 0.050967052796031795 -0.274922742284623
0.5663605427125039 -0.010374591736070098 -0.273898674763219
-0.08290614330012935 0.20760999635848806 -0.2733472537901553
0.3098631383706816 -0.05322787878559307 -0.2733472537901553
0.3191191332756795 -0.03447956570142673 -0.2723231862687512
-0.27714811978305864 -0.03388088007352904 -0.2717717652956875
0.027519845277115453 0.12957605122750043 -0.2717717652956875
0.2740365300064847 -0.12945001214794297 -0.2707476977742834
-0.1740245203776718 -0.14819044778963683 -0.2701962768012197
0.1005358595532235 0.13917865360128134 -0.2701962768012197
0.3288005100741839 -0.12450297827531423 -0.2691722092798157
-0.1420972460372828 0.13757953277939655 -0.268620788306752
0.01328530672959929 -0.11534151267998416 -0.268620788306752
0.3173545861618757 0.14725303213542862 -0.2675967207853479
-0.2247001078022271 -0.09792448737364316 -0.2670452998122842
0.2503805702620514 -0.1278745236534752 -0.2670452998122842
0.5974843179207145 -0.0933792030671037 -0.2660212322908802
-0.29287149495784676 0.016566261519328378 -0.2654698113178165
0.32577557216480574 0.08165756866826362 -0.2654698113178165
-0.035405165191926595 0.062247550416420924 -0.26444574379641245
-0.22816618249005616 0.067131564749271 -0.26389432282334874
-0.2221556938836617 0.11266318223938895 -0.2635004506997318
-0.2122695035808765 0.08090921163339146 -0.2623188343288809
0.03272683475133139 0.10963036688753859 -0.2623188343288809
0.14635894241481803 0.0933792030671037 -0.26129476680747693
-0.19561659019435235 0.13370383108300596 -0.2607433458344132
0.025495342561724352 0.06017578304619579 -0.2607433458344132
0.32772917789794587 0.0 -0.25971927831300917
-0.19704240728184574 0.13609857359459673 -0.25916785733994546
0.3301711850643707 -0.08570657409904572 -0.25916785733994546
0.3386000485097733 0.08300461133103361 -0.25877398521632855
-0.14370424430163997 0.144007525836825 -0.25759236884547776
-0.3051603052146952 -0.031123775208210407 -0.25719849672186074
-0.18945643018098346 -0.09897218722246418 -0.25601688035100995
0.09756606374115172 -0.10504569536863738 -0.25601688035100995
0.5352367675042935 0.11612925692721798 -0.25562300822739303
-0.29606185915914396 -0.012265177929431473 -0.2544413918565422
0.3276188937033331 -0.0831227729681187 -0.2544413918565422
0.3484783613700861 -0.1472530321354285 -0.2540475197329253
-0.19935049792624093 0.09729429197585607 -0.2528659033620745
-0.2903113261543367 0.031123775208210407 -0.2524720312384575
-0.2677897181259202 0.0072472470745516765 -0.25129041486760667
0.3277055455705287 -0.07066853641935109 -0.25129041486760667
0.5871097261846443 -0.0726300195949634 -0.2502663473462027
-0.2883025783238903 -0.00930325955983206 -0.24971492637313897
-0.26742735577219257 -0.06435870499900771 -0.249321054249522
-0.25132586335873214 -0.07447334113349063 -0.24813943787867118
0.03106469438966792 -0.11616864413957977 -0.24813943787867118
0.5974843179207145 -0.020749183472140307 -0.24711537035726713
-0.18307570177838903 0.1122299229034105 -0.24656394938420342
-0.27964526904679 0.0622554278588933 -0.2461700772605865
-0.21168657283792347 -0.11644435462611159 -0.2449884608897357
0.3204898082658665 -0.09285929186392933 -0.2449884608897357
0.2733590699538636 -0.1348775700113843 -0.24459458876611873
0.029835813363983027 -0.10692840411952638 -0.24341297239526793
0.5974843179207145 -0.0726300195949634 -0.243019100271651
0.0037457238955970564 0.09543521555238409 -0.2418374839008002
0.33810376963401584 -0.11412838653924402 -0.24144361177718324
-0.2890982000135965 -0.02780737192735585 -0.24026199540633242
0.33369240184950616 0.0705188650123766 -0.24026199540633242
-0.25685582797431394 0.02408134163793962 -0.23868650691186466
0.3276582809156947 -0.0924417874128954 -0.23868650691186466
-0.014655981719786286 0.0817520979779317 -0.2374103612313458
0.08889299957910675 0.1319707937390912 -0.23711101841739693
-0.20864588004360074 0.1187839550403963 -0.23553552992292917
0.3292889115074688 0.09669560634795837 -0.23553552992292917
-0.302387445464432 -0.004813117350599018 -0.23396004142846144
0.32192350279583204 -0.09232362577581031 -0.23396004142846144
-0.2983778272460116 -0.009492318179168197 -0.23238455293399365
0.29977213456361557 -0.09667197402054137 -0.23238455293399365
0.02973340661184269 0.11672006511264353 -0.2308090644395259
0.5871097261846443 0.041498366944280614 -0.23002919763476437
0.03333339782170146 0.10884262264030477 -0.22923357594505817
0.27419407885593144 0.13487757001138442 -0.2276580874505904
0.031639747690148594 0.08925930065407056 -0.2276580874505904
-0.24111669791458112 0.08626587251458176 -0.22608259895612268
0.32112000366365345 0.09686891008234977 -0.22608259895612268
-0.24584316339798434 -0.08056260416460857 -0.2245071104616549
0.3245624460240656 0.09117351917484884 -0.2245071104616549
0.3233808296532147 -0.11636558020138828 -0.22293162196718713
-0.035405165191926595 -0.031123775208210407 -0.22264803403818298
0.32342021686557637 -0.11639708997127755 -0.2213561334727194
-0.014655981719786286 -0.031123775208210407 -0.22019027198681324
0.3316521442491705 -0.09494681411909911 -0.21978064497825164
-0.004289267426188452 -0.0892514232115982 -0.2182051564837839
0.41073378922897924 0.0622554278588933 -0.21773250993544357
0.3269256787657673 -0.09844439857681754 -0.21662966798931613
-0.009551398997710797 -0.08625799507210949 -0.2152668704416015
0.2717599491319788 0.12608634421225426 -0.21505417949484837
0.3348661407778846 0.08915689390193011 -0.21347869100038064
0.0724842869092251 0.1372486801955583 -0.21190320250591285
0.27397351046670604 0.1360513089397627 -0.21032771401144515
0.2698142208413111 -0.12369160170066326 -0.21032771401144515
0.3216005276544662 -0.0978851001612815 -0.20875222551697736
0.0010201288001678154 0.09543521555238409 -0.2071767370225096
0.07722650727757308 0.11562510060898837 -0.20560124852804187
0.5974843179207145 0.031123775208210407 -0.20542794479365042
0.07283877182048036 -0.11590868853799258 -0.2040257600335741
0.07911709347093433 0.13595677963009462 -0.20245027153910639
0.09605359478646272 0.14076989698069375 -0.2008747830446386
0.5974843179207145 0.0726300195949634 -0.20051242069091102
0.3352363805740845 -0.094292986393895 -0.19929929455017084
0.5974843179207145 -0.11412838653924402 -0.19805465863954136
-0.006022304770102971 0.08925930065407056 -0.19614831756123532
0.10984699655552783 0.15762762387149862 -0.1955890191456993
0.30327759646380625 -0.09421421196917157 -0.19457282906676762
-0.035405165191926595 -0.08300461133103361 -0.19299734057229984
-2.1662966798934288E-4 0.09543521555238409 -0.19142185207783208
0.29660540268973523 -0.031123775208210407 -0.19067349504295988
0.044369694725448036 -0.13078917736824047 -0.18984636358336435
0.10278093065784003 0.14525216174745442 -0.18827087508889656
0.30349816485303166 0.07668690246821787 -0.18827087508889656
0.2619367783689724 0.12231304926800389 -0.18669538659442886
0.005510271009400969 -0.1354841330817544 -0.18511989809996107
0.02974128405431496 -0.11024480740038105 -0.1835444096054933
0.3588529531061563 0.1232504649222122 -0.1832923314463785
0.24313332318749975 0.0984286436918729 -0.18196892111102558
0.006361034796413477 0.1275042838572753 -0.1803934326165578
-0.002902837551056814 -0.11132401701909146 -0.1788179441220901
0.41073378922897924 0.0622554278588933 -0.1783768073436391
0.33228233964695747 0.09282778209404005 -0.1772424556276223
0.029118966099000245 0.11048113067455122 -0.17566696713315455
0.02916623075383428 -0.11357696556618035 -0.17409147863868682
0.5559859509764339 0.031123775208210407 -0.17345340579842736
0.33105345862127283 0.06958932680064067 -0.17251599014421903
-0.002926469878473831 0.13621673523168193 -0.17094050164975133
0.0795818625768023 -0.13491695722374597 -0.16936501315528354
0.29660540268973523 0.042750880297382526 -0.168537881695688
0.3065703674172439 0.09712098824146458 -0.1677895246608158
0.0042577576562990585 0.13918653104375373 -0.16621403616634806
0.0019811767817931435 -0.10923649476392168 -0.16463854767188027
0.11459709436634817 -0.14614231274682882 -0.16361448015047628
0.2444015914255463 -0.12539312927468851 -0.16306305917741257
0.20322619962263153 -0.16600134521959473 -0.1620389916560085
-0.035405165191926595 -0.041498366944280614 -0.1604635031615408
0.10986275144047258 -0.106408492916352 -0.159912082188477
0.4418575644371899 0.1265038486632882 -0.158888014667073
0.23314472613257417 0.10265883029951886 -0.15833659369400924
0.11376996290675256 0.12295899955073585 -0.15676110519954156
0.5871097261846443 -0.031123775208210407 -0.15573703767813746
0.01455357496764584 -0.09783783550644747 -0.1551856167050738
0.5871097261846443 0.11412838653924402 -0.15416154918366967
0.30315943482672103 -0.0976566543295837 -0.15361012821060602
-0.014655981719786286 0.0817520979779317 -0.15258606068920202
0.09539188961878625 -0.13162418627030845 -0.15203463971613823
0.5974843179207145 -0.010374591736070098 -0.15101057219473424
0.0031470382676993622 0.13965917759209406 -0.15045915122167047
0.3313449239927492 -0.039954388219702236 -0.15006527909805356
0.11755901273594747 0.1463471262511096 -0.14943508370026645
0.3335112206726424 0.062854113486791 -0.1488836627272028
0.3476354750255458 0.031123775208210407 -0.1478595952057987
0.09711704952022839 -0.133404488269057 -0.14730817423273504
0.13282549624734002 0.14355851161590155 -0.14691430210911813
0.10984699655552783 0.16600134521959484 -0.1462841067113309
0.2419201970467596 0.10804700095059856 -0.14573268573826725
0.2967550740967097 -0.032825302782235645 -0.14470861821686326
0.30465614889646564 -0.041521999271697634 -0.14415719724379947
0.29660540268973523 0.018086607916489854 -0.14313312972239547
0.09846409218299837 -0.13199442606650835 -0.1425817087493317
0.1398994395875003 0.1037537948031738 -0.1421878366257148
0.33810376963401584 0.007877442472338764 -0.1415576412279277
0.30576686828506533 0.10011441638095338 -0.14100622025486403
0.2058966526207545 0.0933792030671037 -0.13998215273345993
-9.177220480274822E-4 0.1427235027138337 -0.13943073176039628
0.32051344059328335 0.03952112888372355 -0.13943073176039628
0.5974843179207145 -0.041498366944280614 -0.13840666423899214
-0.0025404751973292917 -0.11246624617758055 -0.1378552432659285
0.20322619962263153 0.14525216174745442 -0.13746137114231158
-0.035405165191926595 0.07387465550559294 -0.1368311757445245
0.32545259702343987 0.11870518061567276 -0.1362797547714607
-0.035405165191926595 -0.14525216174745442 -0.1352556872500567
0.13586618904166287 -0.11731875074054122 -0.13470426627699295
0.1513532409422808 -0.09991748031914487 -0.13368019875558892
0.13271521205272732 0.11445136168060988 -0.13312877778252527
0.17248841909556578 0.10199712513184238 -0.13273490565890825
3.0328153518503526E-4 -0.13687056295688604 -0.1315532892880575
0.13793795641188789 0.12674804937993076 -0.1315532892880575
0.23052941523175777 0.1264408291235094 -0.12997780079358973
0.48335593138147026 0.11412838653924402 -0.12895373327218573
0.3340468867607615 -0.052132914281937906 -0.12840231229912194
0.3796021365782965 0.1368784403993584 -0.12737824477771795
0.0869945359432731 -0.1300723301032577 -0.12682682380465418
0.3334718334602807 0.048044521638794156 -0.1252513353101865
0.3421527750647981 0.041498366944280614 -0.1242272677887824
0.0019102797995420922 0.1319550388541467 -0.12367584681571873
0.020288353087508416 0.09230787089086567 -0.12210035832125096
0.3405930414552749 0.05900204411781731 -0.12107629079984696
0.5974843179207145 -0.10375379480317391 -0.11950080230537918
0.32887140705643486 -0.12038307586228097 -0.1189493813323154
0.40035919749290927 -0.05187295868035072 -0.11792531381091141
0.22388873122757616 0.1097957931794576 -0.11737389283784774
0.30128460351830444 0.10312359940538683 -0.11579840434337997
0.338245563598518 -0.04558675958742448 -0.11477433682197585
0.32696506597812897 -0.12547978114188418 -0.1142229158489122
0.2217933315299341 -0.14214844941335303 -0.11319884832750819
0.5207343959127178 0.0726300195949634 -0.11162335983304042
0.14653224614920954 -0.13375897318031224 -0.11107193885997664
0.33810376963401584 0.05187295868035072 -0.11004787133857265
0.19923233628915585 -0.14355851161590166 -0.10847238284410486
0.18176016888550844 -0.13587012776289906 -0.10792096187104121
0.5663605427125039 0.0933792030671037 -0.10689689434963709
0.15211735286209763 -0.14377120256265483 -0.10532140585516943
0.32973004828591984 -0.1247944436467907 -0.10476998488210566
-0.014655981719786286 0.05187295868035072 -0.10374591736070166
0.33810376963401584 0.010374591736070098 -0.10169778231789353
0.18555709615717572 0.12525921275265878 -0.10161900789317022
-0.010796034908340331 -0.14525216174745442 -0.09964964727508553
-0.018854658557542855 -0.020749183472140307 -0.0971761303387711
0.018185075947394 -0.08198842125210187 -0.09531705391529911
0.5974843179207145 0.1037537948031738 -0.0946947359599844
0.2604479417417004 -0.1348775700113843 -0.09216607692636368
0.3030097634197468 -0.09609692072006057 -0.09059058843189591
0.3384661319877436 0.031123775208210407 -0.08974770208735566
0.18748706956289876 -0.11260016269961028 -0.08743961144296035
0.297645225096084 0.1280399499453942 -0.08586412294849269
0.01656232279809219 -0.11734238306795824 -0.08428863445402492
0.3125020815989149 -0.11965047371235343 -0.08271314595955714
0.3023638131370148 -0.09754637013497089 -0.08113765746508936
0.5974843179207145 -0.11412838653924402 -0.08074378534147245
0.33114798793094086 0.12085572241062142 -0.07956216897062159
-0.004131718576741708 0.11240322663780188 -0.07798668047615392
0.32727228623455007 0.14525216174745442 -0.0775928083525369
0.14412962619514616 -0.12822113112225808 -0.07641119198168615
0.5663605427125039 0.010374591736070098 -0.07601731985806924
-0.0019654218968485028 -0.11707455002389867 -0.07483570348721838
-0.025030573455856495 -0.16600134521959473 -0.07444183136360145
-0.010378530457306398 -0.13962766782220457 -0.0732602149927506
0.23765850066922434 -0.14176245473220836 -0.0722361474713466
0.30356118439281043 -0.04332593359786321 -0.07168472649828282
0.3421370201798533 0.03132071127001892 -0.07168472649828282
-0.015947882285249855 -0.1348775700113843 -0.07066065897687882
-0.007778974441434507 -0.1385327033185495 -0.07010923800381516
0.2213679496364278 -0.14525216174745442 -0.06971536588019814
0.3099970548927113 0.032013926207584684 -0.06853374950934739
-0.0024774556575506168 0.04060033850243396 -0.06853374950934739
0.10984699655552783 0.16600134521959484 -0.06750968198794327
-0.005006114691171344 -0.13761104254928583 -0.06695826101487962
0.3173545861618757 0.15562675348352464 -0.06656438889126269
0.32502721512993354 -0.1373668418326434 -0.06538277252041183
0.19222141248877436 0.12943425726299834 -0.06538277252041183
0.3037108557997849 -0.09675862588773705 -0.06380728402594406
0.1743632504039824 0.1317974900046998 -0.06380728402594406
0.30515242777222285 -0.10017743592073206 -0.0622317955314764
0.15749764607070507 0.13271127333149124 -0.0622317955314764
0.018342624796840745 0.11674369744006044 -0.06065630703700862
0.12317562921872507 0.1329791063755507 -0.06065630703700862
0.30753141539886913 -0.10243826191029333 -0.059080818542540846
0.34258603440077673 0.12575549162841604 -0.059080818542540846
0.3079174100800138 -0.10216255142376139 -0.057505330048073074
0.3347873663531613 0.13380623783514617 -0.057505330048073074
0.30828764987621365 0.1018710860522848 -0.055929841553605295
0.08737265318194538 -0.13601979916987342 -0.055929841553605295
0.01991811329130852 0.12035944353486396 -0.05435435305913763
0.331455208187362 -0.13462549185226952 -0.05435435305913763
-0.005919898017962638 0.13921016337117062 -0.052778864564669854
0.3006859178904067 -0.10783431000384529 -0.052778864564669854
0.35757680742563736 -0.041498366944280614 -0.05238499244105294
0.12314411944883569 0.1461738225167182 -0.05120337607020208
-0.01715313098351773 -0.15812390274725596 -0.05080950394658516
0.0319548453890422 0.1498289558238834 -0.0496278875757343
0.027015688958885717 0.13928893779589394 -0.0496278875757343
0.5974843179207145 -0.11412838653924402 -0.04923401545211739
0.17964901430292166 0.10289515357368903 -0.04805239908126653
-0.035405165191926595 -0.041498366944280614 -0.04765852695764961
0.004438938833162819 -0.1523891246273934 -0.04647691058679887
0.5974843179207145 -0.020749183472140307 -0.04608303846318184
0.012647233889339825 0.14633924880863722 -0.04490142209233109
0.2571709256732075 -0.024908473097535223 -0.04332593359786332
0.5974843179207145 0.041498366944280614 -0.04175044510339554
0.1604516869978321 0.14454319192494391 -0.04175044510339554
-0.014080928419305609 -0.14268411550147203 -0.04017495660892777
-0.019295795335993807 0.15396461312186105 -0.038599468114460106
0.24873418478533257 0.01663715850157943 -0.03702397961999233
0.3380171177668202 -0.13926530546847704 -0.035448491125524555
0.27977130812634743 -0.029012620625623726 -0.033873002631056776
0.40466028108280616 -0.05187295868035072 -0.032518082525814535
0.2481906412547413 -0.015802149599511563 -0.032297514136589
0.31390426635899116 0.08593501993074362 -0.032297514136589
0.3155821616055995 0.10472272022727162 -0.03072202564212134
0.4861287911317336 0.0726300195949634 -0.030249379093780993
0.34424029731996775 0.12508590901826716 -0.029146537147653563
0.3254447195809675 0.10293454078605069 -0.029146537147653563
0.4739030004146639 -0.0732838473201675 -0.028752665024036648
0.5022145286602493 -0.021749618666127294 -0.02812246962624945
0.3090990264508646 0.11196996730182318 -0.027571048653185787
-0.015530377834215922 0.14940357393037706 -0.027571048653185787
0.3818865948952749 0.028776297351453553 -0.025995560158718012
0.33905694017316895 -0.03440866871917568 -0.025995560158718012
0.26970393664669845 0.08010571250121287 -0.025995560158718012
0.23103357154998738 0.07788427372401337 -0.025995560158718012
0.5548909864727788 -0.001252513353101911 -0.02497149263731401
0.3324871531512384 0.013714627344341786 -0.024420071664250236
0.3128644439526426 -0.0413014308824721 -0.024420071664250236
0.4199661518065603 0.010618792452712647 -0.024420071664250236
0.5118959054587537 2.8358792900420627E-4 -0.024420071664250236
0.27933017134789634 -0.10946494059561948 -0.024420071664250236
0.2666317340824863 0.13947011897275793 -0.022844583169782575
0.3153143285615398 -0.04245941492590594 -0.022844583169782575
0.3394586897392581 0.039182398857413044 -0.022844583169782575
0.28326101514159346 0.10125664553944258 -0.022844583169782575
0.2669153220114905 -0.09975205402722574 -0.0212690946753148
0.3135340265627913 -0.011138703655887025 -0.0212690946753148
0.5871097261846443 0.10574678774867563 -0.02024502715391068
0.227929859215886 -0.07697836783969444 -0.019693606180847024
0.47502159724573595 -0.033518517719801404 -0.019693606180847024
0.5439964835335341 0.011375026930057196 -0.019693606180847024
0.25239719553497014 0.07144840322411254 -0.018118117686379248
0.32898169125104765 -0.015723375174788137 -0.018118117686379248
0.3180950657542755 -0.030170604669057455 -0.018118117686379248
0.419469872930803 0.021639334471514584 -0.018118117686379248
0.5871097261846443 0.0 -0.017094050164975245
0.15186527470298283 -0.0764190694241583 -0.016542629191911472
0.1916148494184043 0.13906836940666853 -0.016542629191911472
0.5475649649735036 -0.05689088953523051 -0.01496714069744381
0.1839422204503463 0.04060821594490634 -0.01496714069744381
0.2552015650551228 -0.14525216174745442 -0.013943073176039694
0.49822066532677356 0.007971971782006834 -0.013391652202976034
-0.017255537735658064 0.02581437898185414 -0.013391652202976034
-0.017830591036138852 0.1481116733649134 -0.011816163708508258
0.10331659674595904 0.017716368120289844 -0.011816163708508258
0.1484307097850432 0.08034203577538304 -0.011816163708508258
-0.01761002264691332 0.15365739286543995 -0.010240675214040483
0.12911522084286856 -0.07355168036422707 -0.010240675214040483
0.09969297320868326 0.03438503639175867 -0.010240675214040483
0.26645055290562253 -0.0901573290959171 -0.008665186719572709
0.1255309845179543 0.14479527008405882 -0.008665186719572709
0.16562716670215866 -0.13329420407444428 -0.007641119198168705
0.0702628481320256 0.09319014444776758 -0.007089698225105045
0.49859090512297366 -0.019929929455017082 -0.007089698225105045
0.26972756897411543 -0.16600134521959473 -0.006065630703700929
0.007400857202762233 -0.15353923122835486 -0.005514209730637269
0.49716508803548026 0.009720764010865994 -0.005514209730637269
0.1501322373590683 -0.12450297827531423 -0.004490142209233154
0.08682910965135399 0.11813800475766456 -0.003938721236169495
0.17382758431586326 -0.04707559621469645 -0.003938721236169495
0.3484783613700861 -0.15562675348352464 -0.002914653714765491
-3.899334023808396E-4 -0.10050041106209792 -0.002363232741701719
0.24518145823030785 -0.09363128122621853 -0.002363232741701719
0.5871097261846443 -0.0726300195949634 -0.0013391652202977154
0.030993797407416868 0.012225790717069815 -7.877442472339437E-4
0.15886832106089208 -0.02902049806809599 -7.877442472339437E-4
0.014522065197756447 0.13034016314731714 7.877442472337198E-4
0.18287088827410825 0.057914957056634624 7.877442472337198E-4
0.1513532409422808 -0.13287669962341023 0.0018118117686378352
0.5556157111802338 -0.06544579206019051 0.002363232741701495
0.16172783267835103 0.12450297827531423 0.0033873002631056104
-0.01512862826812663 0.12574761418594366 0.00393872123616927
0.34090026171169624 -0.08787287077893893 0.00393872123616927
-0.011205661916901888 -0.1123953491953295 0.005514209730637046
0.576735134448574 0.08300461133103361 0.006538277252041049
0.1593409676092323 0.049596377805844916 0.007089698225104821
0.3796021365782965 0.1368784403993584 0.008113765746508824
0.3484783613700861 -0.15562675348352464 0.0096892542409766
0.5505268833431031 0.08084619209361278 0.010240675214040259
0.576735134448574 0.08300461133103361 0.010634547337657176
0.2791726224984496 0.09062997564425745 0.011816163708508035
0.1363388355900031 0.033967531940724736 0.01339165220297581
0.026850262666966707 0.031123775208210407 0.013785524326592725
0.1845093963083547 0.0653906499628841 0.014967140697443586
0.565312842863683 0.0769941227246391 0.016542629191911247
0.5687001431267885 0.06942390050872155 0.018118117686379023
0.05797403787517712 -0.0726300195949634 0.01877194541158313
0.5353470516989063 -0.007546589888500524 0.019693606180846798
0.5573487485241483 0.005222744359160575 0.021269094675314574
0.2246528431473931 0.08616346576244142 0.021269094675314574
0.5606100097076967 0.01387217619378853 0.02284458316978235
0.10751527358371561 5.986856278976942E-4 0.024420071664250014
0.5607911908845604 0.014053357370652404 0.024420071664250014
0.5197575930461478 -0.08595865225816064 0.02599556015871779
0.28320587304428707 0.10749557997753467 0.027571048653185565
0.21442792281829734 0.09088993124584464 0.027571048653185565
0.5683141484456441 -0.07036131616292986 0.029146537147653338
0.14145917319702334 -0.05139243468953811 0.029146537147653338
0.5592629670449268 -0.0875105084252113 0.030722025642121113
0.006101079194826399 -0.041498366944280614 0.031234059402823117
0.5747185091756554 0.04728040971897723 0.032297514136588774
0.10661724514186896 -0.015116812104418065 0.032297514136588774
0.5417514124289177 -0.01744853507623039 0.033873002631056554
0.1160701761086755 -0.026869956273147536 0.033873002631056554
0.5706931360722903 -0.026554858574253937 0.035448491125524326
0.42055695999198583 -0.050754361849278645 0.035448491125524326
0.5655964307926872 -0.01129625250533377 0.037023979619992105
0.08827855906626429 -0.009468685851751181 0.037023979619992105
0.48335593138147026 0.11412838653924402 0.03859946811445988
0.5603106668937478 -0.09391486915522272 0.03859946811445988
0.1136754335970845 0.020197762499076538 0.03859946811445988
0.5725679673807069 -0.02634216762750078 0.040174956608927545
0.09582514895476493 -0.006648561446653871 0.040174956608927545
0.4605192256541604 -0.044192452269820465 0.04175044510339532
0.23460993043242925 0.11594807575035423 0.04175044510339532
0.3889211510230732 -0.04464146649074379 0.04332593359786309
0.08066107219551272 0.0014730817423273302 0.04332593359786309
0.4561314901970676 -0.039757452157893725 0.04368041850911835
0.12574367546470747 0.05648913996914133 0.04490142209233087
0.3009143637221045 -0.1208005803133149 0.04490142209233087
0.10601068207149889 -0.03838677716770684 0.04647691058679864
0.4695940393822946 -0.04082090689165949 0.04647691058679864
0.07812453571941973 -0.0025916785733994026 0.04805239908126631
0.06834862961124721 0.1037537948031738 0.04864320726669174
0.5430196806669642 0.00864155439215558 0.04962788757573408
0.43251491766499606 0.1010754643625786 0.04962788757573408
0.5606100097076967 0.008389476233040767 0.05120337607020186
0.46976734311668594 -0.032628366720427134 0.05120337607020186
0.3843837441590061 -0.0028516341749865916 0.05277886456466963
0.2504357123593578 0.031171039863044443 0.05277886456466963
0.3570253864525737 0.044216084597237484 0.05277886456466963
0.06834862961124721 0.0726300195949634 0.05360599602426523
0.5429409062422409 0.006766723083738956 0.054354353059137404
0.3162596216582205 0.11876820015545153 0.054354353059137404
0.5657854894120233 0.017976323721877033 0.054354353059137404
0.3874323143958012 0.037417851743609135 0.05592984155360507
0.2707043718406854 -0.032604734393010114 0.05592984155360507
0.21383711463287192 0.10969338642731738 0.05592984155360507
0.5592944768148161 0.008814858126547075 0.057505330048072845
0.34301141629428306 -0.12303777397545916 0.057505330048072845
0.110453559625898 -0.05162875796370828 0.057505330048072845
0.5895359784661246 0.041498366944280614 0.05856878478183862
0.298503866325569 -0.00847612810023646 0.059080818542540624
0.22321127117495504 -0.12894585582971324 0.059080818542540624
0.35474092813559527 -0.05956921997582572 0.059080818542540624
0.2869870454310097 0.02987126185510861 0.060656307037008396
0.5839587491957088 0.0906142207593128 0.060656307037008396
0.5740174167956172 0.08427287956908006 0.060656307037008396
0.4561314901970676 0.0 0.061050179160625315
0.3476354750255458 -0.10522687654550125 0.0616803745584124
0.3883697300500095 0.09514375018090762 0.0616803745584124
0.3180005364446074 -0.005671758580083902 0.062231795531476175
0.30125309374841513 0.12936336028074716 0.062231795531476175
0.22645677747355866 -0.07752978881275811 0.062231795531476175
0.4698303626564648 -0.1348775700113843 0.06262566765509309
0.42502346987380196 0.0622554278588933 0.06325586305288018
0.42502346987380196 0.09038577492761501 0.06325586305288018
0.23212065861117018 -0.06202698202719539 0.06380728402594384
0.14167974158624885 0.08567506432915643 0.06380728402594384
0.2814334484880109 0.1227699409313997 0.06380728402594384
0.42095083211560264 0.13487757001138442 0.06483135154734795
0.24053376717162797 8.271314595956016E-4 0.06538277252041161
0.23145107600102144 -0.06092414008106796 0.06538277252041161
0.5732769372032175 0.10801549118070905 0.06538277252041161
0.3874323143958012 -0.04316050730594408 0.06538277252041161
0.3047743105335506 0.1397930941141238 0.06640684004181573
0.24289699991332955 0.11513669917570349 0.06695826101487938
0.09192581493095721 -0.045350436313254305 0.06695826101487938
0.2520190782962979 0.12437693919575665 0.06695826101487938
0.36410720723520623 -0.06885672465071314 0.06695826101487938
0.40058764332460706 0.13487757001138442 0.06798232853628339
0.27339057972375297 -0.04523227467616922 0.06853374950934717
0.16545386296776726 -0.10883474519783239 0.06853374950934717
0.5802248414638203 0.006420115614956075 0.06853374950934717
0.3676835661176479 -0.06809261273089633 0.06853374950934717
0.2362169286967863 -0.04025373103365108 0.06955781703075116
0.5759631450862848 0.004505897094177795 0.07010923800381494
0.29846447911320734 0.13591739241773296 0.07010923800381494
0.21901259433719847 -0.11614501181216275 0.07010923800381494
0.3924423678082086 -0.14185698404187644 0.07050311012743185
0.2410379234898577 -0.005403925536024448 0.0716847264982826
0.24775738191876262 -0.04106510760830193 0.0716847264982826
0.5335273624877961 -0.11787017171360488 0.0716847264982826
0.16419347217219296 0.08764442494724113 0.0716847264982826
0.5144797065896809 0.041498366944280614 0.07270879401968672
0.25815560598224985 0.021804760763433705 0.07326021499275037
0.4857112866806996 -0.1171848342185115 0.07326021499275037
0.28853890159806045 -0.03670100447862635 0.07326021499275037
0.4610155045299177 -0.04316050730594408 0.07326021499275037
0.5144797065896809 -0.041498366944280614 0.07428428251415449
0.5705119548954265 -0.016298428475268925 0.07483570348721814
0.5708112977093753 -0.10766888371192629 0.07483570348721814
0.5776489177753655 0.09126804848451692 0.07483570348721814
0.3862034333701163 -0.04678413084321987 0.07483570348721814
0.4797559401716115 0.010374591736070098 0.07585977100862215
0.24845847429880075 -0.009571092603891626 0.07641119198168593
0.3059244171345122 -0.13734320950522638 0.07641119198168593
0.5863771240347166 -0.10550258703203308 0.07641119198168593
0.06320465967681006 0.0064673802697901095 0.07641119198168593
0.2490492824842262 0.1037537948031738 0.07743525950308992
0.301528804234947 0.008996039303410837 0.0779866804761537
0.12284477663488684 -0.08394990442771419 0.0779866804761537
0.11934719217716841 0.08331183158745473 0.0779866804761537
0.3616415677413641 0.05734778119862621 0.0779866804761537
0.17210242441442114 -0.1348775700113843 0.07901074799755771
0.26692319945396287 -0.045153500251445794 0.07956216897062136
0.5786020883145183 -0.018511989809996052 0.07956216897062136
0.5899377280322138 0.08914113901698548 0.07956216897062136
0.356080093355893 -0.06638320771439882 0.07956216897062136
0.3698262304701242 -0.07543438911511596 0.08058623649202548
0.33308583877913606 0.058025241251247334 0.08113765746508914
0.30200145078328733 0.1285204739362069 0.08113765746508914
0.23274297656648488 0.07689959341497102 0.08113765746508914
0.2137583402081485 -0.07631666267201796 0.08113765746508914
0.3069799944258055 -0.15562675348352464 0.08216172498649325
0.4635520410060108 -0.052629193157695264 0.08271314595955692
0.3822647121339469 -0.1263935644686755 0.08271314595955692
0.2699402599208686 -0.048848020770972625 0.08271314595955692
0.016475670930896497 0.05187295868035072 0.08373721348096091
0.2498764139438218 0.05454341167847366 0.08373721348096091
0.299575198501807 -0.01967785129590227 0.0842886344540247
0.28823168134163923 0.1265038486632882 0.0842886344540247
0.3456739918499335 0.12959180611244497 0.0842886344540247
0.4937305231175405 -0.05187295868035072 0.0853127019754287
0.4682469967195247 0.04493293186222026 0.08586412294849247
0.3573247292665224 0.129127037006577 0.08586412294849247
0.40475481039247424 0.12866226790070903 0.08586412294849247
0.29660540268973523 0.14682765024192232 0.08625799507210938
0.381847207682913 -0.04610667079059874 0.08743961144296013
0.22354212375879326 0.05585894457135413 0.08743961144296013
0.2723980219722383 -0.05523662661603942 0.08743961144296013
0.2384147351465689 0.02523932568137335 0.08743961144296013
0.27839275569368804 -0.15386220636972073 0.08846367896436425
0.4758329738203869 -0.04772154649742829 0.0890150999374279
0.2742570983957103 -0.05325151111301009 0.0890150999374279
0.2748715389085527 -0.0359447700012818 0.0890150999374279
0.36922754484222625 0.07137750624186161 0.09003916745883202
0.35792341489442037 -0.05396835837799287 0.09059058843189569
0.15603244177085 0.10653453199590945 0.09059058843189569
0.18353259344178463 0.1255349232391906 0.09059058843189569
0.20807870418559232 -0.12495199249623744 0.09059058843189569
0.5041051148536108 0.0933792030671037 0.09161465595329968
0.24840333220149446 -0.009445053524334163 0.09216607692636346
0.07187772383885503 -0.050360489725661726 0.09216607692636346
0.06925453549556625 -0.03830012530051103 0.09216607692636346
0.27585621921759507 0.1037537948031738 0.09319014444776746
0.24364535694820175 4.884014332849846E-4 0.09374156542083123
0.19990191889930461 0.12907977235174295 0.09374156542083123
0.2025251072425934 0.06865191114643236 0.09374156542083123
0.24869479757297092 -0.08505274637384162 0.09476563294223524
0.2775735016765648 -0.03253383741075906 0.09531705391529889
0.20814960116784326 0.07510353653127783 0.09531705391529889
0.09129561953317011 0.05528389127087346 0.09531705391529889
0.4815519970553048 0.0 0.09634112143670301
0.29412400831094854 0.02544413918565424 0.09689254240976666
0.25469740873689306 0.05034473484071709 0.09689254240976666
0.20016975194336417 0.10955946990528743 0.09689254240976666
0.4561314901970676 -0.031123775208210407 0.09791660993117078
0.36112165653818973 0.050313225070827694 0.09846803090423445
0.32457032346653797 0.016077860086043394 0.09846803090423445
0.3084215663982434 -0.0023947425115910005 0.09846803090423445
0.41073378922897924 -0.0726300195949634 0.09949209842563844
0.2992679782453857 -0.020150497844242613 0.10004351939870222
0.30153668167741937 0.13047407966934688 0.10004351939870222
0.0708930435298127 0.04121477901527641 0.10004351939870222
0.35395318388836144 0.0726300195949634 0.10106758692010623
0.29974062479372604 0.0030091830244334474 0.10161900789317
0.22807165318038808 -0.14415719724379936 0.10161900789317
0.24472456656691216 0.15515410693518428 0.1020128800167869
0.24544141383189505 -0.010193410559206337 0.10319449638763765
0.21784673285129236 -0.13072615782846178 0.10319449638763765
0.287924461085218 -0.1447795151991142 0.10319449638763765
0.5456113592403637 0.020749183472140307 0.10421856390904177
0.22585809184566086 0.1351454030554439 0.10476998488210543
0.2191150010893389 0.14062022557371928 0.10476998488210543
0.35831728701803717 -0.05678848278309018 0.10476998488210543
0.29660540268973523 0.1037537948031738 0.10579405240350954
0.21788612006365402 0.1259918149025862 0.10634547337657321
0.22568478811126946 -0.07168472649828271 0.10634547337657321
0.016475670930896497 0.05187295868035072 0.1073695408979772
0.23666594291770962 0.13776859139873268 0.10792096187104099
0.06400815880898865 0.05195961054754652 0.10792096187104099
0.3661002001807078 0.05068346486702759 0.10792096187104099
0.36922754484222625 -0.09537219601260542 0.10894502939244499
0.050600751721067976 0.031887887128027335 0.10949645036550876
0.16881753090345586 0.1173266281830136 0.10949645036550876
0.07872322134731742 -0.09137833267912962 0.11052051788691276
0.064992839118031 -0.05154210609651259 0.11107193885997642
0.2620234302361682 -0.13609857359459684 0.11107193885997642
0.36506037777435907 -0.057552594702906995 0.11107193885997642
0.2460794866721545 -0.062247550416420924 0.11209600638138054
0.028441506046379125 -0.003174609316352568 0.1126474273544442
0.18335141226492085 -0.11664916813039249 0.1126474273544442
0.20322619962263153 -0.16600134521959473 0.11367149487584831
0.05371234149764187 0.03425899731220132 0.11422291584891198
0.23394034782228038 -0.1561151549168096 0.11422291584891198
0.3586638944868201 -0.0578361826319112 0.11422291584891198
0.3923242061711237 -0.039757452157893725 0.11524698337031598
0.15195192657017864 0.11782290705877085 0.11579840434337975
0.10803518478688999 0.08481642309967144 0.11579840434337975
0.3889211510230732 -0.05490577403220118 0.11579840434337975
0.4626067479093301 0.06055390028486806 0.11682247186478376
0.15333835644531016 -0.124707791779595 0.11737389283784752
0.23394034782228038 0.13780797861109434 0.11737389283784752
0.016475670930896497 -0.05187295868035072 0.11839796035925153
0.14236507908134224 -0.11625529600677545 0.11894938133231518
0.2272445217207925 -0.06256264811531441 0.11894938133231518
0.4604798384417985 0.03856008090209822 0.11894938133231518
0.4418575644371899 -0.0933792030671037 0.1199734488537193
0.22093469030044913 0.03729181266405167 0.12052486982678297
0.24025017924262376 0.011587717876810351 0.12052486982678297
0.3651233973141379 0.06450837640598209 0.12052486982678297
0.40035919749290927 0.08300461133103361 0.12154893734818707
0.12124565581300205 -0.10875597077310896 0.12210035832125074
0.1565129657616627 -0.09806628133814527 0.12210035832125074
0.3326683343281021 -0.07251973540035068 0.12210035832125074
0.5248621757682232 -0.060254557470919214 0.12312442584265475
0.26196828813886175 0.03082443239426156 0.12367584681571851
0.2581792383096669 0.045681288897092547 0.12367584681571851
0.1686914918238985 -0.11223780034588275 0.12367584681571851
0.46267764489158103 0.04431061390690555 0.12525133531018628
0.2912329869236003 -0.019796012932987356 0.12525133531018628
0.178215319772956 -0.13292396427824427 0.12525133531018628
0.19002360603899188 -0.10375379480317391 0.1262754028315903
0.4714373609208219 -0.04645327825938174 0.12682682380465396
0.29027193894197495 -0.05095129791108716 0.12682682380465396
0.2228804185911168 -0.1486788492229218 0.12682682380465396
0.25196393619899154 0.0578046728620218 0.12785089132605806
0.37761702107526723 0.047233145064143195 0.12840231229912172
0.2867507221568395 -0.05513421986389898 0.12840231229912172
0.14290074516946139 -0.11928023391615354 0.12840231229912172
0.17528491117324596 -0.0732838473201675 0.12942637982052585
0.2890430579162901 -0.028831439448759853 0.1299778007935895
0.24196746170159364 0.01593606612154129 0.1299778007935895
0.21969793183229197 -0.1485685650283091 0.1299778007935895
0.1617672198907127 0.13512964817049913 0.1310018683149935
0.2579665473629137 -0.04811541862104521 0.1315532892880573
0.22282527649381048 0.013777646884120462 0.1315532892880573
0.10882292903412383 -0.10744043788022838 0.1315532892880573
0.17920000008199832 0.062247550416420924 0.13257735680946128
0.2644733148450655 0.025168428699122298 0.13312877778252505
0.22973379354205156 -0.020371066233468033 0.13312877778252505
0.1480762248737879 0.12404608661191864 0.13312877778252505
0.39651500556640795 -0.04140383763461255 0.13415284530392907
0.26868774656776667 0.026231883432888074 0.13470426627699272
0.20673166152282235 -0.13905261452172388 0.13470426627699272
0.12264784057307831 0.08101949582800416 0.13470426627699272
0.3311164781610514 0.06983352751728311 0.13627975477146048
0.2019500539421127 -0.14575631806568415 0.13627975477146048
0.18673083508555421 0.1037537948031738 0.1373038222928646
0.1356534980949097 0.10566801332395209 0.13785524326592827
0.22182484129982338 0.1394464866453408 0.13785524326592827
0.3242473483251721 -0.062334202283616615 0.13943073176039605
0.13755196173074336 0.10387983388273138 0.13943073176039605
0.27432011793548894 0.05187295868035072 0.14045479928180005
0.2262677188542225 -0.08155516191612318 0.1410062202548638
0.12148197908717222 -0.1060382531201521 0.1410062202548638
0.32821757933123075 0.060152150718778774 0.1425817087493315
0.014805653126760653 -0.0033321581657993118 0.1425817087493315
0.23358586291102523 0.012761456805188835 0.1436057762707356
0.239556964305058 0.07818361653796221 0.14415719724379925
0.08538753767891605 0.07104665365802336 0.14415719724379925
0.3524879795885064 0.05511846497895433 0.14573268573826703
0.01943758930049591 0.010768463859687126 0.14573268573826703
0.5352367675042935 0.041498366944280614 0.14675675325967102
0.16456371196839298 0.12640931935362013 0.14730817423273482
0.08363086800758451 -0.07020376731348311 0.14730817423273482
0.36653345951668653 -0.07384314573570354 0.14888366272720258
0.1091695365029067 0.10640061547387973 0.14888366272720258
0.3899846057568391 0.08300461133103361 0.1499077302486066
0.22135219475148304 0.06744666244816448 0.15045915122167025
0.06834862961124721 0.05460643121825233 0.15045915122167025
0.3180084138870798 -0.08300461133103361 0.15148321874307435
0.20947301150319622 -0.1471427479408158 0.152034639716138
0.5144797065896809 0.020749183472140307 0.15305870723754214
0.3699128823373199 -0.07001470869414698 0.1536101282106058
0.18958246926054081 -0.13030077593495548 0.1536101282106058
0.23204188418644675 -0.020749183472140307 0.1540040003342227
0.19106342844534052 -0.06076659123162122 0.15518561670507358
0.06849830101822169 0.06617839421011792 0.15518561670507358
0.5144797065896809 -0.041498366944280614 0.1555794888286905
0.13922985697735146 0.11258440781466564 0.15676110519954134
0.3749229357497273 -0.020749183472140307 0.15715497732315825
0.22047779863705352 -0.006624929119236854 0.15833659369400901
0.0696641625041278 -0.059758278595161855 0.15833659369400901
0.22382571168779747 0.08435953143627585 0.15873046581762604
0.226582816553116 0.031234059402823228 0.15991208218847677
0.04900950834165556 -0.04639025871960295 0.15991208218847677
0.48335593138147026 -0.062247550416420924 0.1609361497098809
0.018397766894147155 0.011264742735444488 0.16148757068294456
0.2051482955858823 -0.14425172655346744 0.16148757068294456
0.21701172394922438 0.1320023035089807 0.16306305917741235
0.22514124458067805 -0.0061444051284242455 0.16306305917741235
0.18495841052927803 0.08365843905623771 0.16408712669881634
0.04138414402843172 -0.03253383741075906 0.1646385476718801
0.22402264774960587 0.04584671518901155 0.1646385476718801
0.08909781308338752 -0.12450297827531423 0.16566261519328412
0.029449818682838486 -0.030966226358763664 0.16621403616634778
0.35207047513747247 0.05269221269747394 0.16621403616634778
0.1513532409422808 0.05187295868035072 0.16723810368775188
0.1297848034530173 -0.11494764055636725 0.16778952466081554
0.16172783267835103 0.1037537948031738 0.16881359218221967
0.05448433085993106 -0.041679548121144376 0.16881359218221967
0.06725366510759216 -0.066272923519786 0.16936501315528332
0.3461781481681631 0.05310183970603561 0.16936501315528332
0.41073378922897924 -0.08100374094305952 0.17038908067668732
0.134196171237527 -0.11021329763049165 0.1709405016497511
0.5456113592403637 -0.020749183472140307 0.1719645691711551
0.08834157860604308 0.07921556150183859 0.17251599014421887
0.2275202322073243 0.004750097810820231 0.17251599014421887
0.1513532409422808 0.07237794143584858 0.1735400576656229
0.20922093334408143 0.14926177996587497 0.17409147863868654
0.2254169550672099 -0.01461265578618844 0.17409147863868654
0.18247701615049133 0.15082939101787027 0.17511554616009065
0.19617588860988838 0.1377607139562603 0.1756669671331543
0.18087001788613416 -0.08108251536778295 0.1756669671331543
0.3715592678140387 0.0726300195949634 0.17669103465455843
0.024290093863456586 0.03816620877848131 0.1772424556276221
0.18917284225197925 -0.026799059290896484 0.1772424556276221
0.1306040574701405 0.02200169682524222 0.177636327751239
0.08307156959204837 -0.09907459397460462 0.17881794412208987
0.17548184723505447 -0.010374591736070098 0.17984201164349387
0.14075020337451283 0.10832271143713039 0.18039343261655763
0.22995436193127697 0.04464146649074379 0.18039343261655763
0.24472456656691216 0.05187295868035072 0.18141750013796165
0.15663112739874782 -0.1423532629176338 0.1819689211110253
0.5248621757682232 -0.08300461133103361 0.1829929886324294
0.18447000909599304 0.12455812037262064 0.1835444096054931
0.36435928539432094 -0.06130225731974024 0.1835444096054931
0.3786804758090329 0.0 0.1845684771268972
0.071318425423319 -0.0906457305292022 0.18511989809996085
0.3484783613700861 0.020749183472140307 0.18614396562136487
0.14729635806902636 0.13419223251629084 0.18669538659442864
0.33604775714873547 -0.07014862521617671 0.18669538659442864
0.07872322134731742 0.11412838653924402 0.18708925871804555
0.16576108322418848 -0.14592962180007565 0.1882708750888964
0.06834862961124721 -0.10574678774867563 0.1886647472125133
0.18641573738666073 0.14496069637597783 0.18984636358336407
0.36435928539432094 0.0175588192708431 0.18984636358336407
0.3796021365782965 0.020749183472140307 0.1902402357069811
0.14532699745094166 -0.1164128448562223 0.19142185207783186
0.006101079194826399 -0.041498366944280614 0.19181572420144877
0.07450091218214383 0.07039282593281926 0.1929973405722996
0.22896180417976236 0.02566470757487966 0.1929973405722996
0.06047118713890845 0.049375809416619384 0.19402140809370363
0.05442918876262465 0.0752532079382522 0.1945728290667674
0.3362604480954887 0.06460290571565015 0.1945728290667674
0.5456113592403637 0.041498366944280614 0.1955968965881714
0.02532991626980523 -0.03596840232869882 0.19614831756123516
0.33460618517629753 0.0686125239340706 0.19614831756123516
0.0950925468048374 0.11208812893890839 0.19717238508263918
0.03338853991900787 0.037898375734421855 0.19772380605570283
0.3565054752493993 0.05853727501194934 0.19772380605570283
0.050285654022174484 0.031123775208210407 0.19874787357710694
0.2277801878089115 -0.07296087217880164 0.19929929455017062
0.15184951981803818 0.1171848342185115 0.19929929455017062
0.3772546587215395 0.041498366944280614 0.20032336207157472
0.1496202035983663 0.13279004775621456 0.20087478304463838
