0.47047888277540056 0.009621133256082083 -0.05388459372318706
0.30452995283080275 -0.30789969227885433 -0.05286937673999656
0.39867180461819685 0.3163181838779261 -0.05232272144135553
0.3907140653422655 0.004912088326360019 -0.05232272144135553
0.3978049655017804 -7.028425268242051E-4 -0.050760849159524
0.41496213251769953 0.3153654417860087 -0.050760849159524
0.39009712579094197 0.3257909392672341 -0.04974563217633356
0.5348280207868585 0.1413494415057514 -0.04919897687769253
0.4588116968301192 -0.14333301930367756 -0.04818375989450203
0.5207008859976926 0.16353583726916793 -0.047637104595861
0.26013373321974215 0.015009592628400766 -0.047637104595861
0.295916227196502 -0.0025146143737487486 -0.046075232314029525
0.33311221558831944 0.24726000093674605 -0.046075232314029525
0.40738705195081676 -0.13304809032781703 -0.045060015330839025
0.25331616070954766 0.016087284502864438 -0.044513360032197996
0.35631382833492636 0.27745880150595814 -0.044513360032197996
0.4588116968301192 0.2989501641039598 -0.043498143049007496
0.34930883115091216 0.283948380836968 -0.04295148775036646
0.3433659071185432 0.26152770423127686 -0.04295148775036646
0.40738705195081676 0.3400898800074017 -0.04193627076717602
0.24786522644595566 0.11159577453686116 -0.041389615468534986
0.280055414174503 0.00482618535085932 -0.041389615468534986
0.32242900918059186 0.2578026388391087 -0.040374398485344486
0.5227391293254826 0.1627783292124797 -0.03982774318670346
0.11939342190390502 -0.3889452449830913 -0.03881252620351301
0.46273199625751615 0.022311345545963084 -0.03826587090487198
0.4436615356963536 0.2657057125851761 -0.03826587090487198
0.3662395266859656 -0.07133070711124496 -0.03725065392168148
0.26448354752464287 0.13874111479509277 -0.036703998623040454
0.35504090242523373 0.2706256102729453 -0.036703998623040454
0.47938155478184 0.24751770986324814 -0.035688781639849954
0.2804693103291885 0.179099894557619 -0.035142126341208925
0.5616687959501331 -0.3715928439319432 -0.03412690935801848
0.4291907890051846 0.011799945089237008 -0.03358025405937745
0.36922270274426383 0.2804810243713021 -0.03358025405937745
0.541098937998412 -0.12275535199054742 -0.03256503707618695
0.46872177645833996 0.015774910046498197 -0.03201838177754592
0.25500298277392563 0.1048641050021674 -0.03201838177754592
0.34066386807097476 0.27909876740188133 -0.031003164794355477
0.35124555278038316 0.2552880244653599 -0.030456509495714445
0.5616687959501331 -0.20504259315884035 -0.029441292512523944
0.5493456236464824 0.07795304558621055 -0.028894637213882916
0.3586644461190828 0.25717008056496676 -0.028894637213882916
0.2854829203538676 0.17210270673501382 -0.027332764932051386
0.3835450715686588 0.2931087617699098 -0.027332764932051386
0.47200951761159543 0.003584496886803224 -0.02631754794886094
0.24574108014266485 0.08297446497229885 -0.025770892650219913
0.3250998107825237 -0.14456689840632436 -0.024755675667029412
0.2735892629277207 0.15478935249091155 -0.02420902036838838
0.2551279325564722 0.06766030724894082 -0.02420902036838838
0.38718423398532625 0.31704445448897767 -0.02319380338519794
0.3957432940897627 0.3064940072252058 -0.022647148086556906
0.33538473975838423 -0.11371211147874298 -0.021631931103366406
0.25066097783043406 0.058874775663638586 -0.021085275804725377
0.540357048664542 0.06905037357977095 -0.021085275804725377
0.3536898829014495 0.27838030615223874 -0.020070058821534877
0.42966716005114325 0.2910861371649381 -0.019523403522893848
0.5205290800466912 -0.0816156360871055 -0.018508186539703403
0.5013570977872093 0.18920520822106882 -0.01796153124106237
0.4176719809266773 -0.22363668267404443 -0.016946314257871874
0.39493892986461965 0.2991063513321428 -0.01639965895923084
0.392330603153961 -0.012487168893242934 -0.01639965895923084
0.35506433050946123 0.2738196390892907 -0.015384441976040398
0.5242229079932226 0.019125126091026796 -0.014837786677399368
0.4588116968301192 -0.14333301930367756 -0.013822569694208867
0.37597780036318507 -0.016102903225682936 -0.013275914395567839
0.5313840924054201 0.044302507274150624 -0.013275914395567839
0.25510450447224475 0.10059238431135827 -0.011714042113736308
0.39910131949570055 0.31006288538919097 -0.011714042113736308
0.47938155478184 -0.14333301930367756 -0.010698825130545864
0.4890339254835587 0.011065865116776133 -0.010152169831904834
0.5295098456672224 0.044279079189923146 -0.010152169831904834
0.30524060471903613 0.014470746691168875 -0.008590297550073303
0.3347131346771967 0.2446594835874966 -0.008590297550073303
0.541098937998412 -0.153617948279538 -0.007575080566882859
0.5378502436522025 0.11920990191078984 -0.007028425268241829
0.3042175783744365 0.017836581458515754 -0.007028425268241829
0.3375401235073117 0.2306338704966495 -0.005466552986410299
0.4329080450359436 0.30398720221286624 -0.005466552986410299
0.541098937998412 -0.12275535199054742 -0.0044513360032198
0.5375378691958362 0.060553788366607485 -0.0039046807045787692
0.5616687959501331 -0.3715928439319432 -0.002889463721388325
0.43603178959960665 -0.0012026416570103434 -0.002342808422747295
0.34331905095008824 0.23410903632372454 -0.002342808422747295
0.26339023692736085 -0.24618230906228225 -0.001327591439556795
0.37982000617649064 -0.026950106223002725 -7.809361409157649E-4
0.40738705195081676 0.32980495103154117 2.3428084227467954E-4
0.45825723217006903 0.02201458981241501 7.809361409157095E-4
0.41229914027717673 0.27791955382909844 7.809361409157095E-4
0.4588116968301192 -0.09190056506296593 0.0017961531241062095
0.29498691318881226 0.1819034553035065 0.0023428084227472396
0.2644679288018246 0.09539915897426844 0.0023428084227472396
0.30452995283080275 -0.30789969227885433 0.0033580254059377393
0.41230694963858594 -0.03215114092150162 0.0039046807045787692
0.3518390642474792 0.2942879753426927 0.004919897687769214
0.4459184411436 0.006731669534693757 0.005466552986410244
0.39325210780024156 0.28206632473736115 0.005466552986410244
0.4679408403174242 0.007668792903792698 0.0064817699696007435
0.4308229455396986 0.26987591157766616 0.007028425268241774
0.3544317722353194 0.23931788038363264 0.007028425268241774
0.4176719809266773 -0.09190056506296593 0.008043642251432219
0.2770097632249316 0.14844815102667566 0.008590297550073248
0.3514720242612488 0.24149669221678777 0.008590297550073248
0.40738705195081676 -0.18447273520711938 0.009605514533263748
0.4445439935355884 -6.716050811876478E-4 0.010152169831904779
0.26565495173601655 0.07862465066739809 0.010152169831904779
0.4588116968301192 0.0026395641562952004 0.011167386815095279
0.3985937110041053 0.3406990101973158 0.011714042113736308
0.34447483643864363 0.015392251337449427 0.011714042113736308
0.3306678854672531 0.23489778182604967 0.012729259096926753
0.5306109656259135 0.12922931259873885 0.013275914395567783
0.49995141273356114 -0.37952715512364726 0.014291131378758282
0.34876998521368024 0.003920299427397048 0.014837786677399312
0.437492140183119 0.2814103383789919 0.014837786677399312
0.26339023692736085 -0.2750613275533469 0.015853003660589757
0.4121585717718119 0.26285529567083354 0.016399658959230786
0.5168586801843871 0.13339170222981983 0.016399658959230786
0.38681719399909564 -0.09190056506296593 0.017414875942421287
0.36141334133510633 0.28134786348771856 0.01796153124106232
0.39900760715879063 0.26307395779028986 0.01796153124106232
0.4427712684957096 0.2886652351280993 0.018976748224252816
0.43101817957492755 0.24440177466099428 0.019523403522893848
0.359172054610678 0.03418157488788251 0.019523403522893848
0.3975238284910507 0.291921738835718 0.02108527580472532
0.3306444573830256 0.014915880291490873 0.02108527580472532
0.4382418388783981 -0.3798941951098777 0.022100492787915822
0.36659875731078695 0.24020033822286743 0.02264714808655685
0.47586734214771925 0.2069246492584473 0.02264714808655685
0.2674745329443503 -0.2770449053512729 0.023662365069747296
0.3783440368701598 -0.03721941647604487 0.024209020368388325
0.40101461304094416 0.2514301999292361 0.024209020368388325
0.3148148818066633 -0.17542168533390587 0.025224237351578825
0.2993992023849863 0.028379219360878498 0.025770892650219857
0.4896508650348822 0.03607924971030775 0.025770892650219857
0.49995141273356114 -0.06104577813538454 0.026786109633410354
0.3695038397549935 0.25007137104404265 0.027332764932051386
0.2773377564041162 0.06980007227504999 0.027332764932051386
0.2839600948790818 -0.18447273520711938 0.02834798191524183
0.4623337188256492 0.014900261568672482 0.02889463721388286
0.3073647510223269 0.028223032132695267 0.02889463721388286
0.44031912901323395 0.27838030615223874 0.02990985419707336
0.41298636408118256 0.24970433105781226 0.03045650949571439
0.5822386539018539 -0.29761476330299386 0.03147172647890484
0.3662395266859656 0.26298024545338 0.03147172647890484
0.4563205105405978 0.21322680391563734 0.032018381777545867
0.4588116968301192 0.2886652351280993 0.03303359876073637
0.4614434516250052 0.01649337129614068 0.033580254059377396
0.29087918908759547 0.16892429664148673 0.033580254059377396
0.4176719809266773 -0.1947576641829799 0.034595471042567896
0.44609024709460143 -0.014501984136805545 0.035142126341208925
0.3069820923132783 0.037039801163634166 0.035142126341208925
0.21195778268664928 -0.3059161144809283 0.03553259441166678
0.3447559734493733 0.21691282250075977 0.0367039986230404
0.43051057108333207 0.24241038750165914 0.0367039986230404
0.30452995283080275 -0.03923423171960748 0.03709446669349831
0.3445216926070986 0.21599131785447911 0.03826587090487193
0.4603813784733598 0.19385958762092673 0.03826587090487193
0.4588116968301192 -0.09190056506296593 0.03928108788806237
0.3987733263165159 0.26770490910592043 0.0398277431867034
0.29394045875998515 0.15161094239738435 0.0398277431867034
0.4690966258059795 -0.18447273520711938 0.0408429601698939
0.4333453692748565 0.2535152994254811 0.04138961546853493
0.3400156910740147 0.19526527267457502 0.04138961546853493
0.5616687959501331 -0.1947576641829799 0.04240483245172543
0.4651841357399918 0.009863223459765902 0.04295148775036646
0.29670497269882695 0.15323528957048924 0.04295148775036646
0.4588116968301192 -0.0803817569844586 0.043966704733556905
0.4880733740302324 0.03087040565039966 0.04451336003219794
0.4387338286471752 -0.028808734238382216 0.04451336003219794
0.3505817570606048 0.2729215625272377 0.04552857701538844
0.3976643969964156 0.28199604048467863 0.04607523231402947
0.4886825042201467 0.027832564062237414 0.04607523231402947
0.1677099409423627 -0.3581060767783282 0.04607523231402947
0.3148148818066633 -0.18447273520711938 0.047090449297219915
0.35307294335012607 0.23542100904046306 0.047637104595860943
0.31905536505183574 0.18292648164810613 0.047637104595860943
0.3885586815933379 0.2748817122409361 0.048652321579051444
0.3992106505554288 0.30893052798486303 0.04919897687769247
0.46232590946424 0.20045068865025564 0.04919897687769247
0.2854829203538676 0.09995201667580728 0.04919897687769247
0.4588116968301192 -0.14333301930367756 0.05021419386088297
0.3120425585064123 0.031721626043997905 0.050760849159524
0.45224402388501767 -0.008933909452076267 0.050760849159524
0.38894914966379585 -0.0816156360871055 0.051151317229981855
0.19792436023439322 -0.34903940818229623 0.05177606614271445
0.29987557343094495 0.04065553549607406 0.052322721441355476
0.29837617604038663 0.11995960060606888 0.052322721441355476
0.4690966258059795 0.22694785191152717 0.053337938424545976
0.4433882080470329 -0.03889842917901377 0.053884593723187005
0.3780863279436577 -0.06808201276503545 0.053884593723187005
0.3966023238447702 0.30329997840886047 0.053884593723187005
0.4382418388783981 -0.07133070711124496 0.05489981070637745
0.31242521721546107 0.03381453490165213 0.05544646600501848
0.4415295800316534 -0.03921080363538001 0.05544646600501848
0.20319567918557452 -0.3284695502305753 0.055836934075476394
0.5719537249259936 -0.26675997637541243 0.05646168298820898
0.35064423195187805 0.23377323378313095 0.05700833828685001
0.5007245395130676 0.11545359907298498 0.05700833828685001
0.40110832537785407 0.350374808983262 0.05802355527004051
0.19391034847008629 -0.32420563890117526 0.05802355527004051
0.4080118008635492 -0.08092841228309958 0.058570210568681544
0.3659818177594634 0.22926723225004694 0.058570210568681544
0.45355599660175616 0.29130479928439446 0.05958542755187199
0.43161169104202346 -0.06013208285051307 0.06013208285051302
0.4598659606203554 0.0037484934763955388 0.06013208285051302
0.29547109359618 0.09874937501879705 0.06013208285051302
0.2736751659032214 -0.11247042301468688 0.06114729983370352
0.3517687799947968 -0.05224462782726403 0.06169395513234455
0.3650759318360011 0.2288611454567708 0.06169395513234455
0.20723311903410907 -0.32006667735432176 0.0620844232028024
0.3559545977101052 0.2989501641039598 0.06270917211553499
0.3200940101192538 0.012752687181154226 0.06325582741417601
0.48827641742687056 0.14110735130206747 0.06325582741417601
0.39628994938840395 0.31790348424398507 0.06427104439736651
0.3273332881455428 0.17675708613487173 0.06481769969600755
0.48342680399178367 0.04545829276270602 0.06481769969600755
0.20009536270613906 -0.3416283242050058 0.06481769969600755
0.22742812763819045 -0.33111692374827967 0.06583291667919805
0.3288092574518736 -0.029261677200113297 0.06637957197783909
0.30066431893326984 0.1053873322165809 0.06637957197783909
0.47938155478184 -0.16390287725539843 0.06739478896102953
0.467277044597646 -0.019211029066527607 0.06794144425967055
0.47981887902075293 0.1546722120697742 0.06794144425967055
0.40242810745600177 -0.14333301930367756 0.06895666124286105
0.3976565876350064 0.2613558982802752 0.06950331654150209
0.49226700110695004 0.07742200901038775 0.06950331654150209
0.39354886353378965 0.2862365237298512 0.07051853352469253
0.2153079987311779 -0.3035420686125444 0.07051853352469253
0.5023176492405358 0.09486031303703656 0.07106518882333356
0.19038051711314707 -0.350366999621853 0.07106518882333356
0.5100879638426477 -0.34903940818229623 0.07208040580652406
0.20813900495757132 -0.3375127907423797 0.07262706110516509
0.4555395743996821 0.20250455070086412 0.07262706110516509
0.2960724144246851 -0.23819333234071413 0.07301752917562294
0.3001098542732197 -0.16654244141169372 0.07364227808835559
0.30414729412175406 -0.25067269187254787 0.07364227808835559
0.37743034158528843 0.21667854165848505 0.07418893338699661
0.40967519484369996 0.21453096727096665 0.07418893338699661
0.25165276672939707 -0.298317605829818 0.07520415037018706
0.4690966258059795 -0.06104577813538454 0.07520415037018706
0.19408996378249688 -0.33738784095983315 0.0757508056688281
0.31694683747136326 -0.004818375989450236 0.0757508056688281
0.4326190986638047 -0.06816791574053627 0.0757508056688281
0.38894914966379585 0.27838030615223874 0.0767660226520186
0.3057404038492222 -0.22075502831406532 0.0767660226520186
0.23003645434884898 -0.3161463779269247 0.07731267795065962
0.41389225000464497 0.2156633246752946 0.07731267795065962
0.3718232200935133 -0.07043263054919188 0.07731267795065962
0.24357788703232822 -0.3284695502305753 0.07770314602111748
0.31625961366735744 -0.2683999422713355 0.07832789493385006
0.2357294788161248 -0.32404164231158294 0.0788745502324911
0.35329160546958244 0.226393387251477 0.0788745502324911
0.4156181188760688 -0.08006938252809224 0.0788745502324911
0.2839600948790818 -0.20504259315884035 0.079265018302949
0.5181628435397164 -0.33875447920643575 0.0798897672156816
0.40634059752198953 0.2989501641039598 0.0798897672156816
0.2996100551430335 -0.2744756254476601 0.08043642251432263
0.30556078853681157 0.13222810737985535 0.08043642251432263
0.4842624056625635 0.129924345764154 0.08043642251432263
0.28273402513784407 -0.21599131785447923 0.08082689058478049
0.3526043816655766 -0.30789969227885433 0.08145163949751313
0.4690966258059795 -0.17418780623125896 0.08145163949751313
0.302405806527512 -0.22807239995444603 0.08199829479615416
0.4876204310685013 0.10252910594082926 0.08199829479615416
0.3757903756893653 0.20301996855386853 0.08199829479615416
0.5075499213846713 -0.35872301632965164 0.08199829479615416
0.30697428295186907 -0.19244609320586922 0.0830135117793446
0.2736751659032214 -0.13040071681011264 0.0830135117793446
0.2466001098976722 -0.29013339507302094 0.08356016707798564
0.296806494397146 -0.17941226901398533 0.08356016707798564
0.34277239565144724 0.2519378084208313 0.08356016707798564
0.34280363309708395 -0.05476705156242186 0.08356016707798564
0.506050523994113 -0.3284695502305753 0.08395063514844354
0.3001098542732197 -0.10727719767759718 0.08457538406117614
0.40509890905793355 -0.29761476330299386 0.08457538406117614
0.3174466366015494 -0.2509225914376409 0.08512203935981716
0.3408200552991579 0.2554754491391797 0.08512203935981716
0.3451230134356037 0.24543261036700312 0.08512203935981716
0.5181706529011256 -0.348680177557475 0.08512203935981716
0.5383578521437977 -0.331975953503287 0.0861372563430076
0.33274517560208894 -0.2873298343271334 0.0861372563430076
0.4872612004436801 0.031557629454405586 0.08668391164164864
0.3585004495294905 0.19314893573269332 0.08668391164164864
0.3219214006889966 -0.26900907246124983 0.08668391164164864
0.30014890108026543 -0.17157947952060032 0.08668391164164864
0.30414729412175406 -0.10614484027326937 0.08707437971210655
0.47938155478184 0.18580813600808527 0.08769912862483914
0.3929865895123303 -0.29496738978528947 0.08769912862483914
0.2380254310704172 -0.28911036872842133 0.08769912862483914
0.4228495875409486 0.193430072743423 0.08824578392348016
0.48792499616345836 -0.34468178451598636 0.08824578392348016
0.29092604525605037 -0.17753021291437837 0.08824578392348016
0.3009532653054086 -0.1867452593771843 0.08824578392348016
0.4131737887550024 -0.3181846212547148 0.08863625199393801
0.5616687959501331 -0.20504259315884035 0.08926100090667066
0.36190533110388323 -0.3133037703739914 0.08926100090667066
0.31177704021850106 -0.2279318314490812 0.0898076562053117
0.3113709534252248 -0.1388192084091845 0.0898076562053117
0.32823917406900505 0.16592550186037022 0.0898076562053117
0.5217863872335655 -0.16000600591222885 0.0898076562053117
0.4939382044485097 -0.31626351834806204 0.09019812427576955
0.5102441510708307 -0.07963205828917945 0.09082287318850214
0.5180535124799882 -0.26675997637541243 0.09082287318850214
0.38681719399909564 -0.28732202496572423 0.09082287318850214
0.4168051418102606 0.20150495244049196 0.09136952848714316
0.4017877398204507 -0.08828483073052602 0.09136952848714316
0.40708248685585946 -0.30408872391118547 0.09136952848714316
0.2814142430596965 -0.14863557570049546 0.09136952848714316
0.30414729412175406 -0.10054552814290331 0.09175999655760109
0.34884807882777186 0.20637799395980622 0.09238474547033367
0.34566966873424465 -0.11247042301468688 0.09238474547033367
0.30998088709439475 -0.26411260285770805 0.09238474547033367
0.40427892610997207 -0.09513364068635716 0.0929314007689747
0.3192740271712922 0.08455976533835774 0.0929314007689747
0.4994203761577383 -0.3547636700952087 0.0929314007689747
0.25270703051963334 -0.31420184693604447 0.0929314007689747
0.30422538773584556 -0.13771027908908404 0.0929314007689747
0.40738705195081676 -0.2873298343271334 0.09332186883943255
0.5338518506107138 -0.17297735521283952 0.09394661775216515
0.5925235828777144 -0.3284695502305753 0.09394661775216515
0.33538473975838423 0.20637799395980622 0.09394661775216515
0.42922202645082114 -0.09255655142133518 0.09449327305080618
0.5244571888354973 -0.15532819842814344 0.09449327305080618
0.34417808070509553 -0.2948892961711979 0.09449327305080618
0.2605007732059726 -0.2892040810653312 0.09449327305080618
0.2916288877828745 -0.2096657351130617 0.09449327305080618
0.5719537249259936 -0.3181846212547148 0.09488374112126409
0.30452995283080275 -0.030190991207803042 0.09550849003399668
0.514125403691182 -0.29761476330299386 0.09550849003399668
0.40920663315915046 -0.09437613262966892 0.0960551453326377
0.46897167602343304 0.10306795187806114 0.0960551453326377
0.5503452219068548 -0.26943077797734427 0.0960551453326377
0.346973832089574 -0.30669705062184405 0.0960551453326377
0.29245668009224524 -0.19942766230565612 0.0960551453326377
0.49797564429704416 -0.1108695039258096 0.09644561340309556
0.506050523994113 -0.36393186038955966 0.09644561340309556
0.31729044937336615 -0.0816156360871055 0.09707036231582815
0.3687541410597144 -0.27412420418424793 0.09707036231582815
0.3906906372580379 -0.10001449156708062 0.09761701761446924
0.46376283196352497 0.10273995869887652 0.09761701761446924
0.5471433837291 -0.27296060933428345 0.09761701761446924
0.26299976885690296 -0.28580700885234767 0.09761701761446924
0.3081066403561969 -0.11004952097784813 0.09761701761446924
0.5302829724467288 -0.21029048402579428 0.09800748568492709
0.3890740994463423 0.2886652351280993 0.09863223459765968
0.30195286356578077 -0.25731845843174095 0.09863223459765968
0.40738705195081676 -0.2743975318335685 0.09863223459765968
0.4043101635556086 0.23887274678331075 0.09917888989630076
0.3811085508090017 0.1902829000955326 0.09917888989630076
0.5503217938226271 -0.26241797143192086 0.09917888989630076
0.4469414674881997 -0.3201525803298225 0.09917888989630076
0.4218890360876223 -0.3129835865562159 0.09917888989630076
0.301515539326868 -0.20162209286162944 0.09917888989630076
0.33645462227143885 -0.3260564575551456 0.09956935796675861
0.5383578521437977 -0.18447273520711938 0.10019410687949121
0.3687541410597144 -0.26411260285770805 0.10019410687949121
0.27939161845472466 -0.1490182344095442 0.10074076217813219
0.4726576946085555 0.09268150120388163 0.10074076217813219
0.3332215466480476 0.1188819087316052 0.10074076217813219
0.5181706529011256 -0.23834951956889724 0.10074076217813219
0.3422413590756246 -0.27381963908929086 0.10074076217813219
0.4544696918866275 -0.3078606454718085 0.10074076217813219
0.4818258849029065 -0.35932433715815676 0.10113123024859015
0.47690598721513705 -0.11247042301468688 0.10175597916132274
0.29424502385494233 -0.06934712931331902 0.10175597916132274
0.3005159410664958 -0.1867530687385934 0.10230263445996371
0.4851604822246167 0.07181488751861272 0.10230263445996371
0.5025753581670379 -0.14822948890721932 0.10230263445996371
0.4950315150457917 -0.3540373994841571 0.10230263445996371
0.33377601130809775 -0.3144205090555009 0.10230263445996371
0.541098937998412 -0.20754939817118 0.10269310253042156
0.38681719399909564 0.2717735864000914 0.10331785144315427
0.3765322650232352 -0.25382767388184746 0.10331785144315427
0.46566831614735943 -0.3431433403183823 0.10331785144315427
0.5187719737296308 -0.29893454538114145 0.10386450674179525
0.341671275692756 -0.2753580832868949 0.10386450674179525
0.4922826198297684 -0.1121892860039572 0.10386450674179525
0.4062859319921256 0.24210582240670186 0.10386450674179525
0.28389761998780855 -0.14437947373250457 0.10386450674179525
0.506050523994113 -0.0816156360871055 0.1042549748122531
0.3148148818066633 0.18580813600808527 0.10487972372498569
0.541098937998412 -0.35932433715815676 0.10487972372498569
0.2853657799327302 -0.21244586777472174 0.10542637902362677
0.3807337014613621 0.19207124385822966 0.10542637902362677
0.3997416871312514 0.20115353117707985 0.10542637902362677
0.5159840317065615 -0.24523737633177423 0.10542637902362677
0.5619967891293177 -0.30837606332481293 0.10542637902362677
0.48494182010516035 -0.30812616375971985 0.10542637902362677
0.3324171824229043 -0.33875447920643575 0.10581684709408463
0.5616687959501331 -0.1947576641829799 0.10644159600681721
0.49995141273356114 -0.36960926613401723 0.10644159600681721
0.3584379746382173 0.18219240167564538 0.1069882513054583
0.3353144555057018 0.10097504302040691 0.1069882513054583
0.5226141795429362 -0.11118968774358504 0.1069882513054583
0.5506966431702667 -0.316411896214836 0.1069882513054583
0.5404585703628612 -0.3045182387886891 0.1069882513054583
0.45759343645029055 -0.34800857247628747 0.10737871937591616
0.4010614692093991 -0.25676399377169074 0.10800346828864875
0.33290917219168126 -0.34903940818229623 0.10800346828864875
0.3970084106380463 0.24742399752633826 0.10855012358728973
0.5309623868893257 -0.26256634929869477 0.10855012358728973
0.5030907760200424 -0.2828863076853227 0.10855012358728973
0.33443199766646703 -0.295092339567836 0.10855012358728973
0.2929642885838405 -0.2839249527527407 0.10855012358728973
0.45759343645029055 -0.35932433715815676 0.10956534057048027
0.5719537249259936 -0.26675997637541243 0.10956534057048027
0.30820816205451596 0.042342357560452154 0.11011199586912125
0.4581791385559773 0.10388012546461352 0.11011199586912125
0.2797274209953184 -0.3049946098346477 0.11011199586912125
0.49366487679918925 -0.11546921779580338 0.11011199586912125
0.3815458750479145 -0.32602522010950896 0.11011199586912125
0.3243423027258355 -0.07133070711124496 0.1105024639395791
0.3559545977101052 0.21931029645337116 0.11112721285231181
0.33645462227143885 -0.34281534713919765 0.11112721285231181
0.4754612553544429 0.07956177403649692 0.11167386815095279
0.4472850793902027 0.11592997011894365 0.11167386815095279
0.5445741038254873 -0.2162880735880273 0.11167386815095279
0.34131204506793483 -0.2516020058802376 0.11167386815095279
0.3389848553680059 -0.2890791312827846 0.11167386815095279
0.4402019885920967 0.21666292293566675 0.11206433622141064
0.38894914966379585 0.31952002205568064 0.11268908513414323
0.4939382044485097 -0.2564672380381428 0.11268908513414323
0.32030486287730103 -0.3284695502305753 0.11268908513414323
0.4690107228304788 -0.049136501986419244 0.11323574043278431
0.523449781213716 -0.11204871749859246 0.11323574043278431
0.49669490902594243 -0.27151587747358935 0.11323574043278431
0.5286742439964425 -0.319035841648313 0.11323574043278431
0.4414436770561527 -0.35686438831427214 0.11362620850324216
0.33538473975838423 0.21542904383301986 0.11425095741597475
0.4588116968301192 -0.14333301930367756 0.11425095741597475
0.2805239758590525 -0.13795236929276797 0.11479761271461585
0.48940877483119827 0.046270466349258396 0.11479761271461585
0.5273935087253405 -0.19346911955046886 0.11479761271461585
0.5079560081779474 -0.33146053565028266 0.11479761271461585
0.3426630645917191 -0.23977863270677313 0.11479761271461585
0.5103612914919681 -0.33698956352796616 0.11479761271461585
0.5545076115379356 -0.25272655392315635 0.1151880807850737
0.5719537249259936 -0.2873298343271334 0.11581282969780629
0.33274517560208894 -0.23589738008642183 0.11581282969780629
0.27718156917593306 -0.13189230483926176 0.11635948499644726
0.45865550960193596 -0.06408361972354679 0.11635948499644726
0.3858488331843602 -0.34114414379763797 0.11635948499644726
0.50515244743206 -0.36254960342013876 0.11635948499644726
0.32648206775194466 -0.2694932528686176 0.11635948499644726
0.5504701716894012 -0.2123912022448576 0.11674995306690522
0.4737510052058374 -0.05546989408924607 0.11737470197963781
0.4374062372076183 -0.23589738008642183 0.11737470197963781
0.4836532754726492 0.05786736804185733 0.1179213572782788
0.360109177979777 0.17517178576881273 0.1179213572782788
0.5383812802280253 -0.28593976799630333 0.1179213572782788
0.33413524193291905 -0.260145447261856 0.1179213572782788
0.40913634890646794 -0.36960926613401723 0.11831182534873665
0.3148148818066633 -0.33094511779727825 0.11893657426146935
0.398523426751423 0.2553348806338149 0.11948322956011032
0.4580229513277943 -0.06488798394869008 0.11948322956011032
0.554874651524166 -0.24142640796410536 0.11948322956011032
0.4989049583047339 -0.3623309413006824 0.11948322956011032
0.4613653580109137 -0.27292937188864685 0.11948322956011032
0.2784935418926716 -0.29071909717870775 0.11948322956011032
0.46662105823927674 -0.08409120365380839 0.12049844654330076
0.5066596541840273 -0.1947576641829799 0.12049844654330076
0.3107618232353105 -0.15857689277435308 0.12104510184194185
0.4847778235155679 0.06357601123195146 0.12104510184194185
0.4835595631357393 -0.1339461668898701 0.12104510184194185
0.3298947586877465 -0.29133603673003117 0.12104510184194185
0.5330787238312074 -0.2952641455188374 0.12104510184194185
0.4195852744719209 -0.2947174902201964 0.12104510184194185
0.417211228603537 -0.2256124511105613 0.1214355699123997
0.44424723780204034 -0.3683753870313703 0.1220603188251323
0.39600881237767427 0.2816524285826758 0.12260697412377339
0.32188235388195086 -0.035384216544892856 0.12260697412377339
0.5316574200547407 -0.21484334172733313 0.12260697412377339
0.33525198061442857 -0.26256634929869477 0.12260697412377339
0.5176083788796663 -0.263417569692293 0.12260697412377339
0.476952843383592 -0.3499921502742135 0.12260697412377339
0.40913634890646794 -0.2256124511105613 0.12299744219423124
0.5406928512051359 -0.20039602312039162 0.12362219110696382
0.3992809348081111 0.24426901551703864 0.1241688464056048
0.3941892311693405 0.20095829714185087 0.1241688464056048
0.5140707381613179 -0.09573496151486227 0.1241688464056048
0.32611502776571427 -0.3244945852733141 0.1241688464056048
0.47416490136052275 -0.3618858077003604 0.1241688464056048
0.3746580182850375 -0.28459655783392823 0.1241688464056048
0.4690966258059795 0.2372327808873876 0.12518406338879537
0.30752093825051013 -0.03221361581277485 0.12518406338879537
0.29543985615054336 -0.1530088180896237 0.12573071868743632
0.3459117589379286 0.15275891852453055 0.12573071868743632
0.5349295424851777 -0.21079028315598033 0.12573071868743632
0.421779705027894 -0.3552400411411673 0.12573071868743632
0.36666123220206015 -0.3430964841499273 0.12573071868743632
0.42729311418275934 -0.3164197055762452 0.12573071868743632
0.461630876298825 -0.3798941951098777 0.1267459356706269
0.45355599660175616 -0.2264246246971137 0.1267459356706269
0.304194150290209 -0.13386026391436942 0.12729259096926787
0.4461917687929205 0.16491028487717968 0.12729259096926787
0.5042465615085976 -0.14438728309391377 0.12729259096926787
0.4194681340507834 -0.29434264087255685 0.12729259096926787
0.5246524228707262 -0.26432345561575527 0.12729259096926787
0.523199881648623 -0.2760296883680824 0.12729259096926787
0.5205134613238728 -0.21114951378080163 0.1283078079524583
0.4768747497695005 0.07365008744976473 0.1288544632510994
0.4178047400706329 0.17813934310429255 0.1288544632510994
0.4796939292382063 -0.11481323143743423 0.1288544632510994
0.33361201471850543 -0.28739230921840664 0.1288544632510994
0.4809121896180349 -0.3326631773072929 0.1288544632510994
0.3001098542732197 -0.28191794687058724 0.1288544632510994
0.48966648375770055 -0.2229728869542661 0.12986968023428982
0.48378603461660485 -0.025888033071357335 0.13041633553293092
0.33556435507079485 -0.07404055552022269 0.13041633553293092
0.47335272777397047 -0.05600874002647795 0.13041633553293092
0.32623216818685163 -0.2750457088305286 0.13041633553293092
0.32859059533241713 -0.3009962167931591 0.13041633553293092
0.4851448635017983 -0.31472507415045803 0.13041633553293092
0.5176083788796663 -0.20504259315884035 0.13143155251612137
0.3976565876350064 0.19792826491509782 0.13197820781476233
0.44801135000125425 0.2050816399658861 0.13197820781476233
0.2942918800233973 -0.12026416570102615 0.13197820781476233
0.34392818114000256 -0.27485828415670877 0.13197820781476233
0.3250841920597054 -0.3162869464322895 0.13197820781476233
0.4321349182564371 -0.30256589843639975 0.13197820781476233
0.5302829724467288 -0.2080804347470027 0.1329934247979529
0.39960892798729575 0.27749003895159474 0.13354008009659388
0.4447782743778631 0.13691372422534995 0.13354008009659388
0.31401051758152 -0.12723792543940382 0.13354008009659388
0.5319932225953343 -0.2893836963777418 0.13354008009659388
0.4825833929595946 -0.3273059553806108 0.13354008009659388
0.4456841603013253 -0.29901263899523306 0.13354008009659388
0.5302829724467288 -0.19386739698233593 0.13455529707978442
0.3148148818066633 -0.21532752213470088 0.13455529707978442
0.5157341321414683 -0.10077199962376897 0.1351019523784254
0.29615831740018594 -0.12450464894619874 0.1351019523784254
0.33007437400015704 -0.2832923944785989 0.1351019523784254
0.309301472651798 -0.2895242648831066 0.1351019523784254
0.5308061996611425 -0.2964511684530294 0.1351019523784254
0.4690966258059795 -0.21951333985000931 0.13611716936161583
0.3980782931511009 0.2671113976388245 0.13666382466025692
0.44351315782957956 0.15935782891526867 0.13666382466025692
0.48256777423677644 -0.06313868699303876 0.13666382466025692
0.49617949117293797 -0.3555914624045794 0.13666382466025692
0.32896544468005673 -0.2558502984868193 0.13666382466025692
0.5666199310835388 -0.2256124511105613 0.1370542927307148
0.31324520016342255 -0.2690325005454772 0.13767904164344738
0.48616008048498877 -0.021702215356048882 0.13822569694208847
0.4968042400856705 0.03740684114986455 0.13822569694208847
0.37678216458832836 0.16130235990614886 0.13822569694208847
0.4854103817897096 -0.3248069597296804 0.13822569694208847
0.4940006793397831 -0.2987705487915492 0.13822569694208847
0.5233716875996245 -0.1926491366025074 0.1392409139252789
0.39745354423836843 0.2768184338704073 0.13978756922391988
0.47092401637572245 0.0875038945896102 0.13978756922391988
0.32979323698942736 -0.07224440239611643 0.13978756922391988
0.3759465629175485 -0.2857211058768469 0.13978756922391988
0.4657854565684969 -0.22373820437236352 0.13978756922391988
0.4690966258059795 0.22694785191152717 0.14080278620711043
0.474274232420251 -0.3284695502305753 0.14080278620711043
0.3507301349273788 -0.0968517001963718 0.1413494415057514
0.4524783047272924 -0.08199829479615416 0.1413494415057514
0.4178047400706329 -0.3137723320585408 0.1413494415057514
0.4224981662775366 -0.25332787475166146 0.1413494415057514
0.5162339312716544 -0.16872125324484866 0.14236465848894198
0.3550955679550979 0.17584339085000028 0.14291131378758293
0.32816108045491355 0.09915546181207319 0.14291131378758293
0.320008107143753 -0.2802467435290275 0.14291131378758293
0.39511854517703027 -0.31584181283196755 0.14291131378758293
0.48512143541757097 -0.2868534632811748 0.14291131378758293
0.5592322751904758 -0.21207101842708218 0.1439265307707734
0.3753530514504525 -0.1069101576913668 0.14447318606941448
0.5171788640021625 -0.14851843527935807 0.14447318606941448
0.5427779507013809 -0.2857054871540286 0.14447318606941448
0.570196618608933 -0.22291041206299286 0.14447318606941448
0.4588116968301192 0.2578026388391087 0.1454884030526049
0.45355599660175616 -0.36618095647539706 0.1454884030526049
0.4891042097362412 -0.1326576222573592 0.146035058351246
0.506893935026302 -0.13100984700002696 0.146035058351246
0.4391477248018605 -0.32257348236666133 0.146035058351246
0.42643408442775194 -0.27400706376311057 0.146035058351246
0.5513838669742726 -0.40951510293481225 0.14705027533443643
0.3417415599454384 0.20615152247894067 0.1475969306330774
0.36281121702734553 0.1547581150452749 0.1475969306330774
0.4828411018860969 -0.37232692390440403 0.1475969306330774
0.5103378634077406 -0.23612385156728738 0.1475969306330774
0.3404452059515183 -0.11247042301468688 0.14861214761626798
0.3491838813683656 -0.0961566670309568 0.14915880291490893
0.42702759589484784 -0.11262661024287011 0.14915880291490893
0.45206440857260705 -0.22672918979207082 0.14915880291490893
0.4032012342355083 -0.2232384052421775 0.14915880291490893
0.3953606353807142 0.2537964364362108 0.1501740198980995
0.39812514931955584 0.304721282185327 0.15072067519674048
0.39909351013429134 0.21214911204117368 0.15072067519674048
0.33193300201553655 -0.29550623572252127 0.15072067519674048
0.49384449211159986 -0.33583377803941084 0.15072067519674048
0.3336510615255512 0.24751770986324814 0.15111114326719832
0.47938155478184 -0.35932433715815676 0.15173589217993091
0.29128527588087155 -0.09179904336464695 0.152282547478572
0.3452792006637868 -0.08820673711643441 0.152282547478572
0.3749079178501305 -0.31810652764062325 0.152282547478572
0.3543458692598187 -0.23616289837433313 0.152282547478572
0.3148148818066633 0.25656875973646165 0.15329776446176246
0.35011319537605534 0.17487503003526478 0.15384441976040353
0.29793885180147384 0.024560441631800427 0.15384441976040353
0.3226086244930024 -0.2905629099505246 0.15384441976040353
0.3717919826478766 -0.31342872015653783 0.15384441976040353
0.529837838846407 -0.21731890929403602 0.15384441976040353
0.5262455325981945 -0.17418780623125896 0.154859636743594
0.34228040588267034 0.20494888082193044 0.15540629204223497
0.4333219411906289 0.1482294889072192 0.15540629204223497
0.5346327867516297 -0.2619259816631439 0.15540629204223497
0.37589189738768436 -0.23263306701739395 0.15540629204223497
0.3982657178249207 0.28921969978814943 0.1564215090254255
0.34478721089500985 0.1089171635735201 0.1569681643240665
0.3752671484749518 -0.11569568927666903 0.1569681643240665
0.3438578968873201 -0.2327502074385313 0.1569681643240665
0.5415987371285983 -0.23374199633749437 0.1569681643240665
0.33496303424228974 -0.28838409811736965 0.1569681643240665
0.45759343645029055 -0.27501447138489193 0.15798338130725703
0.44269317488161786 0.17119682081155155 0.158530036605898
0.3275363315421808 -0.28255050514472896 0.158530036605898
0.4278866256498553 -0.33150739181873756 0.158530036605898
0.5280885418907556 -0.22825201526685662 0.158530036605898
0.4983817310903203 -0.35512290072002994 0.15954525358908847
0.34147604165752715 0.20149714307908276 0.16009190888772953
0.4997093225298772 -0.33378772535021156 0.16009190888772953
0.32445163378556363 -0.2500088961527695 0.16009190888772953
0.5297597452323153 -0.2245659966817342 0.16009190888772953
0.3970240293608647 0.30009033086969666 0.16110712587092
0.3420070782333498 0.19631953646481135 0.16165378116956108
0.44131091791219706 -0.24855635493066616 0.16165378116956108
0.4223341696879442 -0.24951690638399257 0.16165378116956108
0.5247227071234088 -0.3557788870783992 0.16165378116956108
0.3926351682489181 0.3092350930798201 0.16266899815275151
0.34746582185835095 0.17693670144728232 0.1632156534513925
0.5386467985159366 -0.26719730061432523 0.1632156534513925
0.4838328907850598 -0.2584586251974779 0.1632156534513925
0.421779705027894 -0.2367173630343834 0.1632156534513925
0.49995141273356114 -0.3605660256222128 0.16423087043458304
0.3558843134574228 0.13829598119477077 0.16477752573322402
0.5278308329642535 -0.20330891492600742 0.16477752573322402
0.5346562148358571 -0.3606050724292586 0.16477752573322402
0.38681719399909564 0.2693292562790252 0.1657927427164146
0.3309412131165736 0.22177805465866485 0.16633939801505557
0.4571326841271503 0.10172474171568607 0.16633939801505557
0.4170238039297172 -0.26463583007212155 0.16633939801505557
0.5225751327358904 -0.2086817555755078 0.16633939801505557
0.5554837817140803 -0.26675997637541243 0.167354614998246
0.39125291127949724 -0.11945199211447377 0.1679012702968871
0.42576247934656447 -0.3279072762091159 0.1679012702968871
0.5635742801339675 -0.3117809448992056 0.1679012702968871
0.356641821514111 0.16058389865650638 0.16891648728007752
0.35159697404379525 0.10894059165774758 0.1694631425787186
0.44281031530275533 0.05934333734818806 0.1694631425787186
0.5123058224828483 -0.20444908169174442 0.1694631425787186
0.5367022675250565 -0.3433385743536112 0.1694631425787186
0.5689080739764221 -0.2770449053512729 0.17047835956190907
0.39195575380632147 -0.12187289415131262 0.17102501486055002
0.42252940372317316 -0.2256827353632437 0.17102501486055002
0.46678505482886895 -0.2290719982148182 0.17102501486055002
0.5130320930938999 -0.3878831718314458 0.1720402318437406
0.3516984957421143 -0.10731624448464293 0.17258688714238157
0.3702301103660452 -0.3013866848636169 0.17258688714238157
0.5270264687391102 -0.2438629287237625 0.17258688714238157
0.38681719399909564 -0.14333301930367756 0.17360210412557212
0.48589456219707744 -0.10738652873732535 0.1741487594242131
0.4327362390849422 -0.33610710568873137 0.1741487594242131
0.5226688450728003 -0.20841623728759642 0.1741487594242131
0.4798969726348445 -0.3152483013648716 0.17453922749467093
0.4673395194889191 0.22716651403098365 0.17571063170604462
0.48854974507619103 -0.01711812020887338 0.17571063170604462
0.5659405166409422 -0.30841511013185874 0.17571063170604462
0.5077685835041277 -0.2149604821484705 0.17571063170604462
0.5205290800466912 -0.39018693344714733 0.17672584868923508
0.3845056230219851 -0.12176356309158444 0.17727250398787614
0.5481273632666538 -0.34928930774738925 0.17727250398787614
0.5077061086128545 -0.2987002645388668 0.17727250398787614
0.3975706846595057 0.3211053224217396 0.17883437626970758
0.3974457348769592 0.2544836602402166 0.17883437626970758
0.48318471378809974 -0.22221537889757786 0.17883437626970758
0.4014441279184479 0.3171694042715243 0.17984959325289812
0.5020130841455785 -0.07883550342544546 0.1803962485515391
0.42200617650875955 -0.30663457573057085 0.1803962485515391
0.5360306624438688 -0.3363648146152336 0.1803962485515391
0.38681719399909564 -0.14333301930367756 0.18141146553472964
0.3856770272333588 0.17296954585143023 0.18195812083337062
0.42687140866666484 -0.2589506149662549 0.18195812083337062
0.48721434427522514 -0.250477457837319 0.18195812083337062
0.38681719399909564 -0.13304809032781703 0.18297333781656108
0.34737991888285025 0.10976057460570915 0.18351999311520217
0.4348213385811872 -0.340995765930864 0.18351999311520217
0.4041617856888346 -0.22105959340902248 0.18351999311520217
0.5744292924926964 -0.3515149757489992 0.1845352100983926
0.4785459531110602 -0.013283723756977032 0.1850818653970337
0.3856145523420854 0.13832721864040742 0.1850818653970337
0.5435823149265242 -0.26010640045481015 0.1850818653970337
0.5602006360052115 -0.3238073614693082 0.1850818653970337
0.40738705195081676 0.28618966756139624 0.18609708238022413
0.31147247512354387 -0.005755499358549176 0.1866437376788651
0.4954141737548404 -0.33288183942674926 0.1866437376788651
0.47681227487822714 -0.2168893944165324 0.1866437376788651
0.411908672206719 -0.34903940818229623 0.18765895466205568
0.30752874761191923 -0.10263062763914846 0.18820560996069663
0.4250518274583311 -0.2653933381288099 0.18820560996069663
0.5109938497661097 -0.37971457979746703 0.18820560996069663
0.5222002833882509 -0.3154982009299646 0.1892208269438872
0.41785940560049706 -0.11583625778203387 0.18976748224252818
0.39054225939126386 0.16128674118333058 0.18976748224252818
0.4454108326520048 -0.21985695175201223 0.18976748224252818
0.5729923699934114 -0.33875447920643575 0.1907826992257186
0.47816329440201144 0.0024833769281120805 0.1913293545243597
0.4604048065575872 0.06846467147408411 0.1913293545243597
0.5045823640491914 -0.2732964118748773 0.1913293545243597
0.5103144353235132 -0.2737884016436542 0.1913293545243597
0.3976643969964156 0.2898600674237003 0.19289122680619122
0.3315425339450787 -0.11027599245871368 0.19289122680619122
0.5576860216314629 -0.3386998136765717 0.19289122680619122
0.478335100353013 -0.3568175321458172 0.19289122680619122
0.5393496410427608 -0.3825415686275821 0.19390644378938168
0.4054971864898007 -0.11736689261822873 0.19445309908802266
0.42447393471405337 0.12501225743779384 0.19445309908802266
0.47831167226878546 -0.3575750402025054 0.19445309908802266
0.4290033643313648 -0.2942801659812836 0.1954683160712132
0.5028330670935403 -0.06809763148785385 0.19601497136985419
0.33910199578914324 -0.10283367103578651 0.19601497136985419
0.4958671167165715 -0.33884819154334567 0.19601497136985419
0.4690966258059795 -0.18447273520711938 0.19703018835304473
0.32306156745473363 -0.10324756719047185 0.1975768436516857
0.33517388700033696 0.05571979365433897 0.1975768436516857
0.4947503780350622 -0.35518537561130326 0.1975768436516857
0.4690966258059795 0.1652382780563643 0.19859206063487617
0.30474080558885003 -0.0938685241380737 0.19913871593351723
0.32375660062014866 0.018305143143065226 0.19913871593351723
0.49856915576414007 -0.34963291964939225 0.19913871593351723
0.5511261580477704 -0.35124164809967867 0.19913871593351723
0.41787502432331525 0.12348162260159898 0.20070058821534878
0.4012254657989913 0.19252418681996075 0.20070058821534878
0.5040357087505505 -0.22678385532193499 0.20070058821534878
0.5427701413399717 -0.37062448311720764 0.20070058821534878
0.39710212297495623 -0.36960926613401723 0.2017158051985392
0.4776088297419612 -0.10632445558567996 0.2022624604971802
0.48334090101628296 -0.33037503441440974 0.2022624604971802
0.5153124266253739 -0.24206677559965623 0.2022624604971802
0.525378693481778 -0.36668075560558316 0.20327767748037073
0.314455651181842 -0.009917888989630154 0.2038243327790117
0.42334938667113486 -0.28760316197645386 0.2038243327790117
0.44466894331813483 -0.21660044804439352 0.2038243327790117
0.5062457580293419 -0.27317146209233073 0.20483954976220228
0.44617615007010214 0.10445801820889117 0.20538620506084324
0.3136669056795171 -0.09362643393438977 0.20538620506084324
0.5742809146259226 -0.3223392015243866 0.20538620506084324
0.4939382044485097 -0.4004718624230078 0.2064014220440337
0.47365729286892755 -0.0053572219266821266 0.20694807734267479
0.3438813249715476 0.07445445167490791 0.20694807734267479
0.5551011230050316 -0.3497422507091204 0.20694807734267479
0.38681719399909564 -0.13304809032781703 0.20796329432586522
0.3422491684370336 0.07524319717723281 0.2085099496245063
0.398679613979606 0.12890131941955435 0.2085099496245063
0.48272396146495944 -0.2894617899918334 0.2085099496245063
0.5650892962473439 -0.33875447920643575 0.20890041769496417
0.5513838669742726 -0.4004718624230078 0.20952516660769674
0.3976565876350064 0.26543238493585564 0.21007182190633772
0.31360443078824385 -0.08960461280867363 0.21007182190633772
0.5172022920863901 -0.24062985310037127 0.21007182190633772
0.541098937998412 -0.3284695502305753 0.2110870388895283
0.4152432695284292 -0.11429781358442981 0.21163369418816927
0.3940486626639757 0.2438395006395349 0.21163369418816927
0.3453963410849242 0.07489177591382071 0.21163369418816927
0.5241135769334945 -0.25244541691242667 0.21163369418816927
0.5302829724467288 -0.2740851573772022 0.2126489111713598
0.40145193727985706 0.19157144472804352 0.2131955664700008
0.40456787248211096 0.11880381511751359 0.2131955664700008
0.4990845736171445 -0.35437320202475087 0.2131955664700008
0.5702825215844339 -0.3453065334287189 0.2131955664700008
0.4730091158719675 -0.34903940818229623 0.21421078345319122
0.47233751079078007 -0.003358025405937795 0.2147574387518323
0.3972739289259576 0.209290885765422 0.2147574387518323
0.48590237155848665 -0.2947877744728788 0.2147574387518323
0.5232389284556689 -0.394036948621862 0.21577265573502277
0.33126139693434903 0.023927883357658643 0.21631931103366384
0.46904976963752454 0.03606363098748948 0.21631931103366384
0.41921042512428136 -0.28034826522734657 0.21631931103366384
0.526862472149518 -0.24097346500237418 0.21631931103366384
0.4719392333589129 -0.2770449053512729 0.2173345280168543
0.3640607148528107 -0.11186129282477268 0.21788118331549527
0.431143129357474 0.11035408607280518 0.21788118331549527
0.4865505485554467 -0.2845497016654733 0.21788118331549527
0.42124866845207143 -0.31610733111987893 0.21889640029868582
0.4550085378238593 -0.10351308547838325 0.2194430555973268
0.369581933369085 0.10520771690417031 0.2194430555973268
0.49981084422819627 -0.36930470103906005 0.2194430555973268
0.5746948107806079 -0.34903940818229623 0.21983352366778466
0.3984687612215589 -0.12844056709641405 0.22100492787915832
0.4469961330180638 0.10490315180921315 0.22100492787915832
0.41941346852091926 -0.3542951084106593 0.22100492787915832
0.4989518144731888 -0.22722898892225696 0.22100492787915832
0.47938155478184 0.1817160306296867 0.22202014486234878
0.41644591118543944 0.113766777008607 0.22256680016098987
0.4359224585398784 -0.27123474046285967 0.22256680016098987
0.4844342116135649 -0.22614348768638412 0.22256680016098987
0.4905177041512988 -0.329695619971813 0.2235820171441803
0.31398708949729254 -0.08538755764772862 0.2241286724428214
0.3753374327276342 0.10422373736661643 0.2241286724428214
0.5099083485302368 -0.39635632896038175 0.2241286724428214
0.4847622047927495 -0.4004718624230078 0.22514388942601182
0.4303075276866941 0.11285308172373554 0.2256905447246528
0.3163767540884948 -0.04739501439217712 0.2256905447246528
0.5337815663580315 -0.25323416241475155 0.2256905447246528
