-0.07632616607629958 0.3728788612450957 -0.1991795807655223
-0.052773410120339634 0.5093857149384069 -0.1991795807655223
-0.07151648403385101 0.24798316744433713 -0.1991795807655223
0.5703007051573188 0.33509899237731283 -0.1991795807655223
0.17494300551154252 0.5220157196910963 -0.1991795807655223
0.35207515065500106 0.38208518011642384 -0.1991795807655223
0.12502878614735308 0.22245697324576957 -0.1991795807655223
-0.06187876238390641 0.21458157784038623 -0.19872064163933448
0.4728220347550216 0.5409882631677013 -0.19798633903743396
0.10423884373104395 0.5409882631677013 -0.19798633903743396
0.2039020643739952 0.2750238607593246 -0.19798633903743396
0.08187932950317234 0.3135563897940557 -0.19734382426077096
-0.0637879491488478 0.39007989969461604 -0.19734382426077096
0.3676423658152925 0.51906933050097 -0.19734382426077096
0.25185202427810055 0.4633816569293377 -0.19734382426077096
0.36699985103862953 0.3228912116207163 -0.19734382426077096
0.3633466955941743 0.40919012490907763 -0.19734382426077096
0.41236139427103563 0.21689463103637288 -0.19734382426077096
0.17230869492722425 0.5342143216651688 -0.19734382426077096
0.045870965662474575 0.21853763310812538 -0.19734382426077096
0.043530376118916504 0.515113275233231 -0.19734382426077096
0.5479136545818758 0.43743323873467727 -0.19734382426077096
0.08778128666594796 0.5188123245903049 -0.19734382426077096
0.5536320360941764 0.4250143459800344 -0.19734382426077096
0.36810130494148036 0.48124356772056853 -0.19615058253268255
0.36687134808329697 0.399855303082417 -0.19615058253268255
0.34629251766503416 0.301054887996699 -0.19615058253268255
-0.043530376118916636 0.3581744516420375 -0.19550806775601962
0.38165836672906917 0.26932383681207167 -0.19550806775601962
-0.040648238406456934 0.23058937456181805 -0.19550806775601962
0.5349807500059025 0.46104106738577977 -0.19550806775601962
-0.058225606939451245 0.2252932170456104 -0.19550806775601962
0.3869637030278005 0.22035503204782927 -0.19550806775601962
-0.0731594861056035 0.3972209924980988 -0.19550806775601962
0.39224150297896065 0.48538319863878276 -0.19550806775601962
0.1762647501949634 0.31884336852773953 -0.19550806775601962
0.3259431568098654 0.32574581298560473 -0.19550806775601962
0.32385957317697256 0.4217925933141958 -0.19550806775601962
0.3589225224177236 0.38943738491795304 -0.19550806775601962
0.11847513542539075 0.5401438151755158 -0.19504912862983176
0.3700196704889456 0.33638402193063877 -0.19431482602793124
0.569538866207847 0.2243386236631397 -0.19431482602793124
0.17059226259528176 0.44947580140584614 -0.19431482602793124
0.08153971454979342 0.5114692985712996 -0.19367231125126827
-0.060960884131530786 0.26219192279111264 -0.19367231125126827
-0.008522499573308176 0.5164533774816994 -0.19367231125126827
0.5847481088497118 0.4136969071282422 -0.19367231125126827
-0.07344402836384001 0.4819044400622789 -0.19367231125126827
0.3905985009072082 0.4779300272294923 -0.19367231125126827
-0.05434298193190211 0.23889617274581795 -0.19367231125126827
0.5046724101124577 0.26984702741592587 -0.19367231125126827
0.20957455197367686 0.28786497751006035 -0.19367231125126827
0.3610519999632351 0.4242433282480388 -0.19367231125126827
0.06982758804947979 0.4412424334820364 -0.19367231125126827
0.25350420513237687 0.44244485399264855 -0.19367231125126827
0.37183706942864936 0.33363038717351173 -0.19247906952317986
0.2974338582910769 0.5591714313472634 -0.19247906952317986
0.1314172187838878 0.1975090423461986 -0.19247906952317986
-0.05581158713570316 0.3894832788305719 -0.19183655474651687
0.37531582800515323 0.5199872087533459 -0.19183655474651687
0.44141224095872594 0.22067628943616074 -0.19183655474651687
-0.00468576847837791 0.524136018454084 -0.19183655474651687
-0.06441210636046325 0.23606910772850082 -0.19183655474651687
0.37738105407299843 0.2128651455084437 -0.19183655474651687
-0.0750686728705449 0.4858604953300182 -0.19183655474651687
0.2865111070878063 0.5371607108552947 -0.19183655474651687
0.39613330676903363 0.22249368837586453 -0.19183655474651687
0.06973580022424217 0.31884336852773953 -0.19183655474651687
0.3514234570958142 0.4021041048007375 -0.19183655474651687
0.2570747515341182 0.3146945588270015 -0.19183655474651687
0.21474220653455195 0.42036070324048963 -0.19183655474651687
0.36983609483847035 0.3475637790445746 -0.19064331301842852
0.7025210674120353 0.39591760537972537 -0.19064331301842852
-0.07654645685686975 0.3756692111323178 -0.19000079824176552
0.38710138476565686 0.2692412277693579 -0.19000079824176552
-0.03520522036986926 0.38352624897265375 -0.19000079824176552
0.5671799190992414 0.4339361225931259 -0.19000079824176552
-0.0722140715056566 0.33957823824890615 -0.19000079824176552
0.13451964727691754 0.21435210827729223 -0.19000079824176552
0.31760882227829423 0.5383814889309545 -0.19000079824176552
0.38673423346470664 0.2185835270207441 -0.19000079824176552
0.07064449969409413 0.43039311253895585 -0.19000079824176552
0.22807897754157058 0.4538724382347256 -0.19000079824176552
0.34471376707094803 0.3200549678208755 -0.19000079824176552
0.3646409039300241 0.41421091894957257 -0.19000079824176552
0.6904326108282476 0.33547532246078693 -0.18880755651367714
0.3699737765763267 0.40800606196351297 -0.18880755651367714
0.2734129844264053 0.3134462444037706 -0.18880755651367714
0.38341151419110664 0.27439970354770915 -0.18816504173701418
-0.05558211757260932 0.35652227078776116 -0.18816504173701418
0.4033202934851352 0.2052467560137256 -0.18816504173701418
-0.06980923048443231 0.51704081956322 -0.18816504173701418
0.3678442990308151 0.20438395045649238 -0.18816504173701418
0.35112973605505404 0.5384732767561919 -0.18816504173701418
0.08532137294958114 0.5212722383066718 -0.18816504173701418
0.262591199830896 0.2965389269950106 -0.18816504173701418
0.3505606515385811 0.4250969550227482 -0.18816504173701418
0.2475288177094112 0.4371486964764409 -0.18816504173701418
0.20050591484020513 0.43410134067855355 -0.18816504173701418
0.569538866207847 0.24108990176899586 -0.18697180000892577
0.17059226259528176 0.48054598024876294 -0.18697180000892577
0.2792047961988958 0.3120051755475408 -0.18697180000892577
-0.07026816961062013 0.4853189471611164 -0.18632928523226283
-0.06327393732751746 0.2596677575970796 -0.18632928523226283
0.29888410592983045 0.5477897410178052 -0.18632928523226283
0.606667041516443 0.39091516890427785 -0.18632928523226283
0.39846471753006774 0.5147461239322808 -0.18632928523226283
0.40230144862499817 0.21065305892021832 -0.18632928523226283
0.45047169930967385 0.23231498567628436 -0.18632928523226283
0.21740405346644134 0.30380852275382597 -0.18632928523226283
0.3503587183230584 0.34229515787593817 -0.18632928523226283
0.32979824546984327 0.42434429485580005 -0.18632928523226283
0.3663297999143953 0.3197153528674964 -0.18632928523226283
0.18492034211486605 0.19040466467281084 -0.18587034610607497
0.37585737617405485 0.33095936145909854 -0.18513604350417445
0.4728220347550216 0.5409882631677013 -0.18513604350417445
0.38903810787816967 0.29681429047072333 -0.18449352872751149
-0.06507297870217377 0.4913310497141771 -0.18449352872751149
0.5160541004419159 0.26285279513282317 -0.18449352872751149
0.08900206474160771 0.20785353025047246 -0.18449352872751149
-0.02386024517050583 0.23535316269164788 -0.18449352872751149
0.44422094841099535 0.5188490397203999 -0.18449352872751149
-0.07209474733284771 0.49160641318988985 -0.18449352872751149
0.38646804877151775 0.280595381751245 -0.18449352872751149
0.24776746605502886 0.4579294601102262 -0.18449352872751149
0.315543596210449 0.32804050861654394 -0.18449352872751149
0.359546679629339 0.33869707512662556 -0.18449352872751149
0.2614071368853315 0.31542886142890203 -0.18449352872751149
0.46073357817123384 0.16622775150523544 -0.18330028699942308
0.27137529470613136 0.3135563897940557 -0.18330028699942308
0.6662465188781482 0.40800606196351297 -0.18330028699942308
0.31889385183162017 0.4188094889939748 -0.18265777222276008
0.24311382331548412 0.3743566452314206 -0.18265777222276008
0.07406818557545533 0.42916315568077246 -0.18265777222276008
0.20143297187510456 0.2982461805444293 -0.18265777222276008
-0.06715656233506659 0.24728557997253167 -0.18265777222276008
0.367963623203624 0.29054518200699736 -0.18265777222276008
-0.0824300564545979 0.3833793884522736 -0.18265777222276008
0.472803677189974 0.5135528822041923 -0.18265777222276008
0.06801936789229968 0.5181881673786897 -0.18265777222276008
0.5399189350036838 0.45316567198039637 -0.18265777222276008
0.50465405254741 0.48662233427948987 -0.18265777222276008
0.1453597894374744 0.5299553665741457 -0.18265777222276008
0.60580423595921 0.5047228934163384 -0.1814645304946717
0.21814753485086566 0.18657711236040422 -0.1814645304946717
0.2550554193788917 0.3426714879594122 -0.18082201571800874
0.36209838117094345 0.3279487207913063 -0.18082201571800874
0.3559302393149788 0.3848663512211222 -0.18082201571800874
0.21970792787990434 0.2975210567250526 -0.18082201571800874
0.185379281241054 0.31428151361343243 -0.18082201571800874
0.27631347970391246 0.2090743083261322 -0.18082201571800874
-0.059519815275301 0.3925489921935066 -0.18082201571800874
-0.060336726919915346 0.5110378957926829 -0.18082201571800874
0.6126699652869799 0.35476912332572363 -0.18082201571800874
0.3899651649130691 0.5319012684691823 -0.18082201571800874
0.08962622195322315 0.21807869398193755 -0.18082201571800874
0.40575267085393074 0.2126723910754448 -0.18082201571800874
0.4728220347550216 0.2024931212565986 -0.17962877398992036
0.27939755063189475 0.4563690670811875 -0.17962877398992036
0.30542857786926897 0.4149544003339969 -0.1789862592132574
0.29857202732402266 0.3257641705506522 -0.1789862592132574
0.3751047160071068 0.3203670464266833 -0.1789862592132574
0.08014453960618237 0.4245829432014178 -0.1789862592132574
0.07116769029794828 0.29957710401037413 -0.1789862592132574
0.3901212042159729 0.2774378805630727 -0.1789862592132574
0.3292750548659891 0.5363437992106804 -0.1789862592132574
0.37871197753894326 0.19953755328394887 -0.1789862592132574
0.22001082770318833 0.5473032655440462 -0.1789862592132574
-0.07377446453469527 0.4947914507256335 -0.1789862592132574
0.40678987327911525 0.2240265450573319 -0.1789862592132574
-0.07930927039652057 0.349096635726042 -0.1789862592132574
0.22763839598043023 0.5651651763352769 -0.17852732008706954
0.3527084866491402 0.4479888386369976 -0.17779301748516899
0.4244682084198709 0.1783162080890232 -0.17779301748516899
0.25502788303132046 0.4206085303686311 -0.17715050270850605
0.34795387730183414 0.32446996221480245 -0.17715050270850605
0.34184080814101214 0.3334743478706079 -0.17715050270850605
0.17452996029797344 0.30573606708381484 -0.17715050270850605
0.3819153726397343 0.4655753859525156 -0.17715050270850605
0.3813095729931663 0.28973744914490684 -0.17715050270850605
-0.06813869206510856 0.3612952377001147 -0.17715050270850605
0.08386194652830388 0.2121216641240194 -0.17715050270850605
0.5428469666287621 0.4738362902238968 -0.17715050270850605
0.3296054910368444 0.5435216071442583 -0.17715050270850605
0.23194324498407212 0.2031448148157853 -0.17715050270850605
-0.0685700948437251 0.5020243313543538 -0.17715050270850605
0.2513655488043415 0.1783162080890232 -0.1766915635823182
0.3592988525011976 0.4473096087302396 -0.17595726098041767
0.5453619530402715 0.2024931212565986 -0.17595726098041767
-0.07113097516785322 0.23593142599064446 -0.17531474620375467
-0.08362329818268624 0.5077243553016068 -0.17531474620375467
-0.07843728605676367 0.24701021649681895 -0.17531474620375467
0.3782071445001366 0.46627297342432117 -0.17531474620375467
0.2794709808920848 0.5371607108552947 -0.17531474620375467
0.06338408271780241 0.5105330627538764 -0.17531474620375467
0.40654204615097383 0.26824074047426844 -0.17531474620375467
0.07556432712682778 0.5235485763725634 -0.17531474620375467
0.182772507004307 0.31540132508133073 -0.17531474620375467
0.07304934071531842 0.4444733649303988 -0.17531474620375467
0.3131479339717485 0.33013327103196044 -0.17531474620375467
0.3589041648526761 0.426877638832357 -0.17531474620375467
0.34425482794476026 0.3679773913774097 -0.17531474620375467
0.7025210674120353 0.35965223562836235 -0.17412150447566627
0.17059226259528176 0.2871123173431124 -0.17412150447566627
-0.0878638957086619 0.26977359715573584 -0.1734789896990033
0.3714882756927466 0.27438134598266173 -0.1734789896990033
0.39878597491839934 0.5149021632351847 -0.1734789896990033
0.3863854397288039 0.5269080107762585 -0.1734789896990033
0.16071589259971952 0.5355636026961612 -0.1734789896990033
0.4005299435979131 0.21299364846377628 -0.1734789896990033
0.185452711501244 0.20921199006398855 -0.1734789896990033
0.25768972996321 0.2806963483590064 -0.1734789896990033
0.24731770571136472 0.29054518200699736 -0.1734789896990033
0.24909838952097357 0.37241074333638413 -0.1734789896990033
0.301316483298626 0.32514919212156057 -0.1734789896990033
0.260590225240717 0.5633661349606205 -0.1730200505728155
0.17059226259528176 0.276483287180602 -0.17228574797091492
0.6783441542444598 0.31129840929321156 -0.17228574797091492
0.07408654314050292 0.42978731289238786 -0.17164323319425195
0.06669762320887865 0.4370569086512033 -0.17164323319425195
0.2551655647691768 0.3166863546346567 -0.17164323319425195
0.3547369975868904 0.3556502864480043 -0.17164323319425195
0.29593771673970454 0.4095022035148854 -0.17164323319425195
0.11628140640221284 0.5309191387391403 -0.17164323319425195
0.3498263489366806 0.5548757611261455 -0.17164323319425195
0.29666284055908126 0.5603646730753521 -0.17164323319425195
0.2353118581702909 0.5466148568547642 -0.17164323319425195
0.25931437446991484 0.19534284967059196 -0.17164323319425195
0.12574473118420615 0.2124704578599221 -0.17164323319425195
0.3277513769670455 0.2387584910079616 -0.17044999146616358
0.4728220347550216 0.5409882631677013 -0.17044999146616358
-0.05954735162287214 0.3560266165314783 -0.1698074766895006
0.2533940597420918 0.3102703856505507 -0.1698074766895006
0.2559549400662199 0.37918468483891676 -0.1698074766895006
0.3497437398939668 0.34928021137651705 -0.1698074766895006
0.287465700470277 0.32583760081084223 -0.1698074766895006
0.2212591421264192 0.4540560138852009 -0.1698074766895006
0.6129636863277402 0.3884093612752923 -0.1698074766895006
0.4732901526637331 0.5196016998873482 -0.1698074766895006
0.30113290764815076 0.561154048372395 -0.1698074766895006
0.3911951217712525 0.20567815879234214 -0.1698074766895006
0.37477427983625156 0.2776306349960716 -0.1698074766895006
0.569538866207847 0.5191427607611602 -0.16861423496141223
0.22991473404632184 0.32338686587699916 -0.16861423496141223
0.36160272691466055 0.2992099527094238 -0.16861423496141223
0.2644361351181712 0.4158814573688963 -0.16797172018474923
0.3581147895556329 0.3230105357935252 -0.16797172018474923
0.35604956348778766 0.38518760860945367 -0.16797172018474923
0.24733606327641233 0.45833332654127146 -0.16797172018474923
0.18626962314585835 0.39188811985179606 -0.16797172018474923
0.614891230657729 0.38739051641515526 -0.16797172018474923
0.5142183439371647 0.49706778879152513 -0.16797172018474923
0.3179117221015782 0.5615028421082979 -0.16797172018474923
0.5169719786942918 0.25628996562833706 -0.16797172018474923
0.15054580156339697 0.2101023319687929 -0.16797172018474923
0.36560467609501845 0.40800606196351297 -0.16677847845666088
0.5816273227916344 0.262935404175537 -0.16677847845666088
-0.0701121303077163 0.359211654067222 -0.1661359636799979
0.3541036615927512 0.32876563243592066 -0.1661359636799979
0.3621809902136573 0.4158172058912301 -0.1661359636799979
0.282031861216213 0.40847417987222456 -0.1661359636799979
0.20666487791364588 0.2836519163316561 -0.1661359636799979
0.07686771424520121 0.4347438554552166 -0.1661359636799979
0.1678478066206784 0.5390698976202362 -0.1661359636799979
0.2876768124683234 0.53749114702615 -0.1661359636799979
0.1754570173328729 0.5380326951950516 -0.1661359636799979
0.4346382994561934 0.21206659142887685 -0.1661359636799979
0.19476917576285716 0.2871123173431124 -0.16494272195190948
0.23104372429674397 0.40800606196351297 -0.16494272195190948
0.5985254614178708 0.48054598024876294 -0.16494272195190948
0.2834545725073953 0.41063119376530743 -0.16430020717524652
0.2757443951874396 0.33078496459114715 -0.16430020717524652
0.35816986225077546 0.3378985210470587 -0.16430020717524652
0.21682579016744477 0.4401685159267568 -0.16430020717524652
0.17831161869776116 0.30787472341185024 -0.16430020717524652
0.1821116346625965 0.534434612445739 -0.16430020717524652
0.23404518618201242 0.5360592569524438 -0.16430020717524652
0.32764123157676045 0.5387394614493809 -0.16430020717524652
0.3845221468764813 0.5415757052492217 -0.16430020717524652
0.3035744637994701 0.5700666462029629 -0.16384126804905869
0.2700994439353291 0.2750238607593246 -0.16310696544715814
0.30831989436425233 0.1705693156389724 -0.16310696544715814
-0.06434785488279704 0.35155654944240877 -0.16246445067049517
0.27538642266901303 0.33126226128238256 -0.16246445067049517
0.35151524492105185 0.3729431127227621 -0.16246445067049517
0.07971313682756584 0.4294109828089139 -0.16246445067049517
0.0668261261642112 0.29962299792299285 -0.16246445067049517
0.3549113944548419 0.5540037767863885 -0.16246445067049517
0.43848420933364735 0.5383355950183357 -0.16246445067049517
0.38242938446106467 0.5573264960599884 -0.16246445067049517
0.2607279069785734 0.5520395173263045 -0.16246445067049517
0.4129396575700323 0.21854681189064917 -0.16246445067049517
0.3130653249290347 0.1684673744410321 -0.1612712089424068
0.27939755063189475 0.4549096406599103 -0.1612712089424068
0.3035744637994701 0.5748028979852213 -0.1612712089424068
0.25656073971278787 0.3623783340379181 -0.1606286941657438
0.36065731231471354 0.3384676055635316 -0.1606286941657438
0.25952548646796125 0.3616899253486363 -0.1606286941657438
0.25151240932472163 0.2770523716970749 -0.1606286941657438
0.3992724503921584 0.5363529779932041 -0.1606286941657438
0.3945729137399949 0.5340858187098364 -0.1606286941657438
0.40471546842874623 0.476130985854836 -0.1606286941657438
0.34332777090986083 0.5489462676157987 -0.1606286941657438
0.4683519676659521 0.5194915544970631 -0.1606286941657438
0.2296760857007042 0.42009451854730073 -0.15943545243765544
0.2052238090574161 0.2742344854622815 -0.15943545243765544
0.5332734964564837 0.5168113500001261 -0.15943545243765544
0.38999270126064034 0.4532482810231102 -0.15879293766099245
0.3698452736209941 0.28982005818762063 -0.15879293766099245
0.2886130482857466 0.20355786002935436 -0.15879293766099245
0.3835308383639155 0.4606647373023057 -0.15879293766099245
0.5485928844886339 0.2752257939748473 -0.15879293766099245
0.22511423078639708 0.29420751623397634 -0.15879293766099245
0.22952004639780038 0.28865435280710344 -0.15879293766099245
0.3161585746395406 0.4122925534021075 -0.15879293766099245
0.24583992172503985 0.3725851402043356 -0.15879293766099245
0.24232444801844105 0.2721233654818176 -0.15759969593290407
0.23104372429674397 0.39591760537972537 -0.15759969593290407
0.6299811491267853 0.42009451854730073 -0.15759969593290407
0.37985932535441286 0.542245756373456 -0.1569571811562411
0.41022273794300024 0.4737628599637066 -0.1569571811562411
0.3666326997376793 0.29350992876217086 -0.1569571811562411
0.4059637828519771 0.20062982840427593 -0.1569571811562411
0.39400382922352206 0.418763595081356 -0.1569571811562411
0.07021309691547746 0.4379564293385314 -0.1569571811562411
0.2113460570007619 0.4538081867570594 -0.1569571811562411
0.252779081313 0.3752561659187488 -0.1569571811562411
0.30488702970036735 0.32780186027092617 -0.1569571811562411
0.34175819909829835 0.3407255860643757 -0.1569571811562411
0.37488442522653664 0.33547532246078693 -0.1557639394281527
0.34629251766503416 0.17227656918839124 -0.1557639394281527
-0.0714522325561848 0.35577878940333685 -0.15512142465148973
0.3449524154165657 0.33561300419864315 -0.15512142465148973
0.2824357276472583 0.4128708167011041 -0.15512142465148973
0.27021876810813794 0.40710654127618484 -0.15512142465148973
0.17452996029797344 0.31710857863074954 -0.15512142465148973
0.06633047190792846 0.44451008006049375 -0.15512142465148973
0.4590813973169576 0.2142144265394359 -0.15512142465148973
0.6318995146742504 0.362038719084539 -0.15512142465148973
0.5097023829354764 0.5112673653557769 -0.15512142465148973
0.4032468632249451 0.20316317238083278 -0.15512142465148973
0.35103794822981654 0.5703328308961518 -0.1546624855253019
0.22952922518032418 0.39591760537972537 -0.15392818292340135
0.569538866207847 0.49263443683255054 -0.15392818292340135
0.34651280844560434 0.3356772556763095 -0.15328566814673836
0.26464724711621757 0.4211592573200565 -0.15328566814673836
0.26188443357656677 0.39431131843806794 -0.15328566814673836
0.17989036929184743 0.311693096941733 -0.15328566814673836
0.20162572630810346 0.29937517079485143 -0.15328566814673836
0.41420632955831066 0.21475597470833765 -0.15328566814673836
0.32637455958848194 0.17521377959599332 -0.15328566814673836
0.5008356790175272 0.22618355895041475 -0.15328566814673836
0.3942975502642822 0.3497391505027049 -0.15328566814673836
0.37329649584992675 0.33430961708026974 -0.15209242641865
0.3987492597883043 0.25084694759174925 -0.15209242641865
0.360528809359381 0.5705990155893407 -0.15209242641865
0.34051906345759125 0.34768310321738344 -0.151449911641987
0.2539815018236121 0.4298423855875304 -0.151449911641987
0.26077380089119223 0.35445704471991596 -0.151449911641987
0.17452996029797344 0.31710857863074954 -0.151449911641987
0.2241596374039264 0.3017524754685044 -0.151449911641987
0.41842856951923874 0.4964436315799098 -0.151449911641987
0.388000905452985 0.29466645536016417 -0.151449911641987
0.4067256218014489 0.21485694131609892 -0.151449911641987
0.3583350803362031 0.5542057100019111 -0.151449911641987
0.3640167467184085 0.35965223562836235 -0.15025666991389863
0.3669355995609633 0.16767799914398904 -0.15025666991389863
-0.05201157117086784 0.38856540057819616 -0.14961415513723567
0.21888183745276618 0.4466670939535766 -0.14961415513723567
0.25172352132276804 0.28613936639559423 -0.14961415513723567
0.28770434881589463 0.4109340935885914 -0.14961415513723567
0.25772644509330495 0.3175308026268423 -0.14961415513723567
0.3283479978310897 0.4037746432200611 -0.14961415513723567
0.30901748183605793 0.5626593687062913 -0.14961415513723567
0.40375169626375174 0.5359674691272064 -0.14961415513723567
0.3845863983541475 0.44928304697284727 -0.14961415513723567
0.4189425813405692 0.5320297714245147 -0.14961415513723567
0.19476917576285716 0.2899302035779057 -0.1484209134091473
0.22938236465994402 0.37174069221214995 -0.1484209134091473
0.569538866207847 0.49263443683255054 -0.1484209134091473
0.33600310245590287 0.3471782701785768 -0.14777839863248432
0.334451888209388 0.41433942190490525 -0.14777839863248432
0.2969840979474127 0.40363696148220474 -0.14777839863248432
0.22482968852816068 0.44949415897089373 -0.14777839863248432
0.2480336507482178 0.2898292369701443 -0.14777839863248432
0.4575760769830616 0.5323326712477988 -0.14777839863248432
0.31712234680453516 0.543943831140351 -0.14777839863248432
0.3527727381268065 0.5583820560502205 -0.14777839863248432
0.406909197451924 0.5421631473307423 -0.14777839863248432
0.3640167467184085 0.39591760537972537 -0.1465851569043959
0.6904326108282476 0.32338686587699916 -0.1465851569043959
0.31215662545918277 0.352942545603496 -0.14594264212773295
0.2830690636413975 0.34167100066432277 -0.14594264212773295
0.28093040731336216 0.3489589539881856 -0.14594264212773295
0.3058416230828381 0.3633696425504837 -0.14594264212773295
0.27212795487307934 0.34029418328575917 -0.14594264212773295
0.2536602444352807 0.2802006941027235 -0.14594264212773295
0.21107987230757297 0.2893427614963852 -0.14594264212773295
0.429103493594368 0.19622401279287263 -0.14594264212773295
0.5725219705280679 0.4680995511465488 -0.14594264212773295
0.42568898649553033 0.4738913629190393 -0.14594264212773295
0.3747651010537278 0.17385531978247737 -0.14548370300154512
0.27939755063189475 0.4549096406599103 -0.14474940039964457
0.6178926925429977 0.25084694759174925 -0.14474940039964457
0.37001049170642175 0.1952877769754494 -0.14410688562298157
0.44995768748834336 0.19877571433447708 -0.14410688562298157
0.39502267408365893 0.4495400528835125 -0.14410688562298157
0.30106865617048456 0.5585289165706006 -0.14410688562298157
0.06142900204024227 0.44176562408589054 -0.14410688562298157
0.2930280426796736 0.33838499652081777 -0.14410688562298157
0.34723793226498123 0.4150920820718533 -0.14410688562298157
0.30988028739329104 0.41225583827201245 -0.14410688562298157
0.3717728179509831 0.16799007774979682 -0.14364794649679374
0.3752240401799156 0.5706816246320546 -0.14291364389489322
0.23104372429674397 0.40800606196351297 -0.14291364389489322
0.39236082715176956 0.29391379519321614 -0.14227112911823023
0.41629909197372733 0.2179410122440812 -0.14227112911823023
0.42752474300028187 0.49030302607151643 -0.14227112911823023
0.6358004972468472 0.36964792979673344 -0.14227112911823023
0.06189711994895388 0.31113319120778393 -0.14227112911823023
0.3442823642923315 0.40515146059862467 -0.14227112911823023
0.2812057707890748 0.33934876868581226 -0.14227112911823023
0.2537795686080896 0.3704281263112527 -0.14227112911823023
0.2529718357459989 0.32152357302467655 -0.14227112911823023
0.5816273227916344 0.48054598024876294 -0.14107788739014185
0.1826807191790694 0.262935404175537 -0.14107788739014185
0.30792520671573087 0.5529849319262516 -0.14043537261347888
0.4195208446395658 0.5294872486654342 -0.14043537261347888
0.5841973818982864 0.4461806184798175 -0.14043537261347888
0.6122477412908872 0.4129809620913892 -0.14043537261347888
0.0734256707987924 0.4482825596777578 -0.14043537261347888
0.261535639840664 0.3289951019990146 -0.14043537261347888
0.31720495584724895 0.33833910260819905 -0.14043537261347888
0.3027667309373796 0.3440115902078807 -0.14043537261347888
0.28054489844736435 0.34760049417466965 -0.14043537261347888
0.27939755063189475 0.4442714317148761 -0.1392421308853905
0.22914371631432637 0.42009451854730073 -0.1392421308853905
0.392076284893533 0.2906461486147588 -0.13859961610872754
0.3048319570052248 0.17622344567360657 -0.13859961610872754
0.4324445704330155 0.52224518925419 -0.13859961610872754
0.17452996029797344 0.4335138985970332 -0.13859961610872754
0.22498572783106452 0.30088966991127136 -0.13859961610872754
0.2591491563844872 0.3773030344215465 -0.13859961610872754
0.32626441419819685 0.3409366980624222 -0.13859961610872754
0.3096416390476734 0.3357690435015471 -0.13859961610872754
0.317957616014197 0.33129897641247746 -0.13859961610872754
0.4365566650036586 0.5578037927512237 -0.13740637438063913
0.4244682084198709 0.16622775150523544 -0.13740637438063913
0.4080749028324412 0.5515805782001166 -0.13676385960397613
0.4230913910413073 0.4733039208375188 -0.13676385960397613
0.6353966308158018 0.3728513248975245 -0.13676385960397613
0.3305050117241725 0.5614477694131553 -0.13676385960397613
0.25026409490149065 0.46487779848071015 -0.13676385960397613
0.25358681417509066 0.43219215391361215 -0.13676385960397613
0.31711316802201134 0.3398168865945239 -0.13676385960397613
0.25704721518654694 0.4194336462055902 -0.13676385960397613
0.25892886560391704 0.4260240120576476 -0.13676385960397613
0.2437930532222421 0.36322278203010366 -0.13557061787588778
0.24174618471944434 0.4718536731987652 -0.13557061787588778
0.38139218203588016 0.46751210906502827 -0.1349281030992248
0.3776839538962824 0.19765590286657875 -0.1349281030992248
0.6480633506985861 0.38113976551647694 -0.1349281030992248
0.3427311500458166 0.1866413638380706 -0.1349281030992248
0.20430593080504048 0.292105575036036 -0.1349281030992248
0.10148520897391694 0.3071037056798546 -0.1349281030992248
0.33948186103240674 0.3393120535557172 -0.1349281030992248
0.34930315833282644 0.4109616299361627 -0.1349281030992248
0.3548746793247468 0.4106679088954025 -0.1349281030992248
0.24313218088053173 0.38237890115718415 -0.1337348613711364
0.6662465188781482 0.3475637790445746 -0.1337348613711364
0.341014717713874 0.18923895929229376 -0.13309234659447344
0.5847664664147594 0.45932463505383725 -0.13309234659447344
0.3424833229176752 0.5622371447101983 -0.13309234659447344
0.395894658423416 0.3045336465732027 -0.13309234659447344
0.0648435091390798 0.43239408712913485 -0.13309234659447344
0.22032290630899612 0.2884891347216759 -0.13309234659447344
0.33377265830263003 0.4049219910355307 -0.13309234659447344
0.33545237550447743 0.40067221472703135 -0.13309234659447344
0.34184080814101214 0.4138070525185273 -0.13309234659447344
0.26449120781331376 0.33973427755181007 -0.13309234659447344
0.3865047639016127 0.2594841819466044 -0.13189910486638506
0.19476917576285716 0.4563690670811875 -0.13189910486638506
0.3803182644806007 0.47429522935008456 -0.1312565900897221
0.387780614672415 0.1784997837394983 -0.1312565900897221
0.36715589034153345 0.17977563451030046 -0.1312565900897221
0.08187932950317234 0.4298699219351017 -0.1312565900897221
0.26484918033174026 0.4449414828391103 -0.1312565900897221
0.2595071289029138 0.3846185240929808 -0.1312565900897221
0.34757754721836015 0.4090432643886975 -0.1312565900897221
0.32376778535173506 0.41538580311261347 -0.1312565900897221
0.19476917576285716 0.2871123173431124 -0.13006334836163372
0.6299811491267853 0.27270162878081416 -0.13006334836163372
0.4336194545960562 0.5221075075163337 -0.12942083358497075
0.350377075888106 0.19269018152122622 -0.12942083358497075
0.6377372203593598 0.40334324044144454 -0.12942083358497075
0.4346015843260982 0.4711928008570547 -0.12942083358497075
0.072948374107557 0.31884336852773953 -0.12942083358497075
0.2633163236502729 0.4714039128551012 -0.12942083358497075
0.3190866062646191 0.4060142661558578 -0.12942083358497075
0.2642709170327436 0.41005293046631086 -0.12942083358497075
0.344640336810758 0.33106032806685987 -0.12942083358497075
0.3541954494179888 0.33306130265703887 -0.12942083358497075
0.3640167467184085 0.2992099527094238 -0.12822759185688234
0.4365566650036586 0.5601168459472105 -0.12822759185688234
0.42027350480651404 0.5379684437173855 -0.12758507708021935
0.37242451151016986 0.19877571433447708 -0.12758507708021935
0.4518118015581422 0.5002344687622212 -0.12758507708021935
0.3963260612020325 0.39577074485934516 -0.12758507708021935
0.22429731914178272 0.4499898132271766 -0.12758507708021935
0.16198256458799787 0.43632260604930273 -0.12758507708021935
0.26394965964441214 0.40458237608215175 -0.12758507708021935
0.2941570329300957 0.3443879202913547 -0.12758507708021935
0.25816702665444524 0.3187056867898832 -0.12758507708021935
0.7025210674120353 0.35965223562836235 -0.12639183535213097
0.3761143820847201 0.4454646734429645 -0.12639183535213097
0.43648323474346845 0.4753416105577929 -0.125749320575468
0.352111865785096 0.18620996105945403 -0.125749320575468
0.4002362225571529 0.1934979143833169 -0.125749320575468
0.17960582703361092 0.431935148002947 -0.125749320575468
0.057647343640454415 0.30987569800202924 -0.125749320575468
0.2636192234735569 0.4099886789886445 -0.125749320575468
0.2534858475673294 0.38113976551647694 -0.125749320575468
0.284409165889866 0.4050229576432921 -0.125749320575468
0.17059226259528176 0.48054598024876294 -0.12455607884737963
0.4184469270842863 0.26145762018921215 -0.12455607884737963
0.1826807191790694 0.25084694759174925 -0.12455607884737963
0.5448662987839885 0.24643195319782227 -0.12391356407071666
0.36782594146576764 0.4773609427130194 -0.12391356407071666
0.4371532858677028 0.20840425720189787 -0.12391356407071666
0.17959664825108712 0.3114819849436867 -0.12391356407071666
0.24740949353660233 0.27499632441175337 -0.12391356407071666
0.260213895157243 0.3629198822068197 -0.12391356407071666
0.2964425497785111 0.34939953554932596 -0.12391356407071666
0.3336992280424399 0.40718915031889863 -0.12391356407071666
0.3747651010537278 0.38121319577666696 -0.1234546249445288
0.569538866207847 0.2243386236631397 -0.12272032234262828
0.23104372429674397 0.35965223562836235 -0.12272032234262828
0.37556365513329465 0.273353322340001 -0.1220778075659653
0.572173176792165 0.2626416831347768 -0.1220778075659653
0.4490306304534439 0.22363185740881045 -0.1220778075659653
0.44746105864188157 0.5312403961274718 -0.1220778075659653
0.25701967883897564 0.2914722390418968 -0.1220778075659653
0.20927165215039287 0.34615942531843974 -0.1220778075659653
0.2584332113476342 0.42922740715843877 -0.1220778075659653
0.2713294007935125 0.35822952433718 -0.1220778075659653
0.35764667164692143 0.4188094889939748 -0.1220778075659653
0.5353111861767578 0.5168113500001261 -0.12088456583787693
0.3700196704889456 0.35965223562836235 -0.12088456583787693
0.44979246940291573 0.2716736051381534 -0.12024205106121395
0.4164459524941073 0.18586116732355118 -0.12024205106121395
0.6536348716905065 0.3588077876361766 -0.12024205106121395
0.4352532778852849 0.2850195549276959 -0.12024205106121395
0.3777849205040437 0.5639168619120459 -0.12024205106121395
0.072948374107557 0.4245829432014178 -0.12024205106121395
0.22303064715350424 0.4419859148664607 -0.12024205106121395
0.1673980462770144 0.43603806379106624 -0.12024205106121395
0.26172839427366296 0.3559348287062408 -0.12024205106121395
0.33994080015859457 0.33919272938290834 -0.12024205106121395
0.19458560011238205 0.4563690670811875 -0.11904880933312555
0.5159072399215359 0.21458157784038623 -0.11904880933312555
0.23104372429674397 0.33547532246078693 -0.11904880933312555
0.20067113292563277 0.44568496422353465 -0.11840629455646257
0.07845564362181115 0.3079389748895166 -0.11840629455646257
0.2674192394383922 0.33221685466485323 -0.11840629455646257
0.3315881080619759 0.33590672523940346 -0.11840629455646257
0.39051589186449437 0.3634889667232926 -0.11840629455646257
0.5223691028182608 0.22973574778710865 -0.11840629455646257
0.4411093411354418 0.21609607695680613 -0.11840629455646257
0.37951053161851 0.33547532246078693 -0.11794735543027475
0.609760291226949 0.2871123173431124 -0.11721305282837419
0.27568932249229705 0.39591760537972537 -0.11721305282837419
0.2021764532595289 0.29656646334258185 -0.11657053805171122
0.07518799704335365 0.43862648046276576 -0.11657053805171122
0.2634631841706529 0.35706381895666284 -0.11657053805171122
0.25434865312456245 0.3493352840716596 -0.11657053805171122
0.4385576395938375 0.2660561902336143 -0.11657053805171122
0.39208546367605684 0.5597313370812127 -0.11657053805171122
0.5951476694491283 0.4621425212886306 -0.11657053805171122
0.62278498362816 0.32743470896997595 -0.11657053805171122
0.43189384348159005 0.48295082126998723 -0.11537729632362284
0.5816273227916344 0.22667003442417386 -0.11537729632362284
0.1798169390316573 0.4245829432014178 -0.11473478154695986
0.20182765952362616 0.4633908357118615 -0.11473478154695986
0.2522926058392409 0.3170167908055119 -0.11473478154695986
0.25444044094980006 0.35733918243237556 -0.11473478154695986
0.3868352000724679 0.3424420183963183 -0.11473478154695986
0.40488068651417386 0.1952877769754494 -0.11473478154695986
0.36778922633567257 0.573949271210512 -0.11473478154695986
0.6358647487245135 0.3986620613543287 -0.11473478154695986
0.6114124720812253 0.2871123173431124 -0.1135415398188715
0.22847366519009205 0.42009451854730073 -0.1135415398188715
0.08073198168770275 0.3175399814093661 -0.11289902504220851
0.24894235021806974 0.45456084692400744 -0.11289902504220851
0.06746864094087425 0.41615682084460903 -0.11289902504220851
0.26181100331637674 0.40938287934207657 -0.11289902504220851
0.2705400254964694 0.3997635152571794 -0.11289902504220851
0.3918376365479154 0.46000386496059525 -0.11289902504220851
0.57213646166207 0.4803991197283828 -0.11289902504220851
0.5038463196853196 0.2401903810816677 -0.11289902504220851
0.3816400091640216 0.42009451854730073 -0.11244008591602067
0.3639800315883136 0.4563690670811875 -0.11170578331412014
0.49699894792259686 0.18807325391177657 -0.11170578331412014
0.265803773714211 0.3432038573457902 -0.11106326853745715
0.24784089631521888 0.46400581414095327 -0.11106326853745715
0.38909318057331205 0.45456084692400744 -0.11106326853745715
0.40507344094717274 0.1946360834162627 -0.11106326853745715
0.3705245035277521 0.5739768075580832 -0.11106326853745715
0.47270271058221275 0.21598593156652104 -0.11106326853745715
0.569538866207847 0.49650788305757587 -0.10987002680936875
0.2683738328208629 0.4755894376859342 -0.10987002680936875
0.26183853966394804 0.34403912655545194 -0.10922751203270578
0.20728903512526145 0.4576449178519897 -0.10922751203270578
0.39131444594406123 0.29479495831549685 -0.10922751203270578
0.431031037924357 0.5431819921908793 -0.10922751203270578
0.646301024454025 0.33841253286838907 -0.10922751203270578
0.46680993220196093 0.21107528291631109 -0.10922751203270578
0.6904326108282476 0.42009451854730073 -0.1080342703046174
0.268327938908244 0.4756353315985531 -0.1080342703046174
0.2617742881862817 0.33852267825867416 -0.10739175552795442
0.26914485055285836 0.36581119870180306 -0.10739175552795442
0.2533573446119967 0.2828074683394705 -0.10739175552795442
0.3937192869652855 0.34078065875951824 -0.10739175552795442
0.40424735052003463 0.19746314843357984 -0.10739175552795442
0.39962124412806116 0.5668632511021718 -0.10739175552795442
0.5212676489154099 0.4976735884380931 -0.10739175552795442
0.4244682084198709 0.5672304024031221 -0.10619851379986606
0.4624408317206527 0.5047228934163384 -0.10619851379986606
0.25797427222144637 0.3578531942537059 -0.10555599902320308
0.21893691014790873 0.30180754816364697 -0.10555599902320308
0.3853298797385718 0.2668363867481336 -0.10555599902320308
0.46220218337503494 0.20993711388336528 -0.10555599902320308
0.4000526469066777 0.5634212076557631 -0.10555599902320308
0.5288860384101282 0.3908784537741828 -0.10555599902320308
0.24759306918707744 0.38072672030290783 -0.1043627572951147
0.2657578798015921 0.26545956936957016 -0.1043627572951147
0.2616916791435679 0.4111176692390666 -0.10372024251845172
0.2539264291284696 0.3506662075376043 -0.10372024251845172
0.20996923962219846 0.28829638028867705 -0.10372024251845172
0.43372042120381754 0.43315592607860665 -0.10372024251845172
0.5064989878346852 0.5002620051097926 -0.10372024251845172
0.6425101872717134 0.32992215903391403 -0.10372024251845172
0.39035067377906674 0.5636139620887618 -0.10372024251845172
0.47470368517239164 0.2992099527094238 -0.10252700079036335
0.5816273227916344 0.23642708024692732 -0.10252700079036335
0.26104916436690495 0.364342593498002 -0.10188448601370037
0.2561568732817426 0.322863675273145 -0.10188448601370037
0.24924525004135373 0.4548637467472914 -0.10188448601370037
0.3881202296257939 0.41884620412406987 -0.10188448601370037
0.4421832586907215 0.5372983925931513 -0.10188448601370037
0.6562967186223961 0.3504642743220817 -0.10188448601370037
0.5068661391356356 0.2281661759755463 -0.10188448601370037
0.19476917576285716 0.4669980972436979 -0.10069124428561196
0.6388019591321156 0.3123998631960623 -0.10069124428561196
0.26020471637471937 0.36794067624731464 -0.10004872950894898
0.25590904615360116 0.3218540091955318 -0.10004872950894898
0.3806578794339796 0.27193978983134237 -0.10004872950894898
0.4846810217757154 0.2093496718018449 -0.10004872950894898
0.4870950415794635 0.5194456605844443 -0.10004872950894898
0.5157144854885372 0.22833139406097394 -0.10004872950894898
0.5090874045063847 0.5409882631677013 -0.09885548778086062
0.36371384689512465 0.48054598024876294 -0.09885548778086062
0.2461795366784189 0.3086090260137508 -0.09821297300419764
0.2528616903557138 0.33894490225476703 -0.09821297300419764
0.24510561912313933 0.27618038735731804 -0.09821297300419764
0.37873033510399073 0.32301971457604883 -0.09821297300419764
0.4897293521637815 0.2204284623080193 -0.09821297300419764
0.5722190707047837 0.4902938472889926 -0.09821297300419764
0.5185966232009966 0.5073572040006565 -0.09821297300419764
0.23104372429674397 0.32338686587699916 -0.09701973127610926
0.5816273227916344 0.23642708024692732 -0.09701973127610926
0.26291245721922746 0.401516662719217 -0.09637721649944629
0.26829122377814907 0.3404869377187581 -0.09637721649944629
0.38442118026871996 0.4686869932280691 -0.09637721649944629
0.3909289370780634 0.40405000669577384 -0.09637721649944629
0.4971549872255007 0.21050619839983817 -0.09637721649944629
0.40658794006359256 0.5568767357163242 -0.09637721649944629
0.5415435795103887 0.48282231831465466 -0.09637721649944629
0.3277513769670455 0.49495666881106115 -0.09518397477135791
0.60580423595921 0.49495666881106115 -0.09518397477135791
0.26497768328707283 0.36400297854462293 -0.09454145999469493
0.2523201421868122 0.27892484333192136 -0.09454145999469493
0.3891757896160259 0.39790022240485673 -0.09454145999469493
0.6617764517890787 0.36809671555021845 -0.09454145999469493
0.49994533711272277 0.2286342938842579 -0.09454145999469493
0.6133583739762619 0.4390395256763347 -0.09454145999469493
0.44959053618739314 0.18063844006753368 -0.09334821826660657
0.20009286962663608 0.27339921625261976 -0.09334821826660657
0.39186517289548667 0.4830517878777485 -0.09334821826660657
0.2670337305723944 0.3786339578874913 -0.09270570348994359
0.19964310928297208 0.29152731173703933 -0.09270570348994359
0.3872390665035132 0.29067368496233004 -0.09270570348994359
0.6467966787103077 0.4017002383696921 -0.09270570348994359
0.4353726020580938 0.20634820991657632 -0.09270570348994359
0.5252787768782917 0.23636282876926112 -0.09270570348994359
0.6904326108282476 0.42009451854730073 -0.09151246176185518
0.27939755063189475 0.4669980972436979 -0.09151246176185518
0.26160907010085405 0.35791744573137224 -0.0908699469851922
0.2642250231201247 0.3763117259089809 -0.0908699469851922
0.2490708531734023 0.2774103442155014 -0.0908699469851922
0.38788158128017625 0.4226921140015239 -0.0908699469851922
0.5202304464902253 0.22556858052132311 -0.0908699469851922
0.5426266758481919 0.4743319444801796 -0.0908699469851922
0.5540450813077453 0.2560421385001956 -0.0908699469851922
0.6662465188781482 0.3452507258485879 -0.08967670525710382
0.48491049133880915 0.4563690670811875 -0.08967670525710382
0.25239357244700233 0.4330182443407503 -0.08903419048044085
0.26593227666954355 0.3399178532022852 -0.08903419048044085
0.25194381210333816 0.4638956687506682 -0.08903419048044085
0.392911554103195 0.45113716104264623 -0.08903419048044085
0.6484121444344889 0.34285506360988727 -0.08903419048044085
0.5217633031716927 0.23953868752248086 -0.08903419048044085
0.5575146611017255 0.26795619821603195 -0.08903419048044085
0.6299811491267853 0.27270162878081416 -0.08784094875235247
0.4508572081756716 0.3838291487959376 -0.08784094875235247
0.2530544447887127 0.43783710516572255 -0.0871984339756895
0.26484918033174026 0.4263360906634553 -0.0871984339756895
0.2095103004960105 0.3463980736640575 -0.0871984339756895
0.3866608032045166 0.47936191730319827 -0.0871984339756895
0.4545287211851744 0.19153365492323296 -0.0871984339756895
0.4918129357966743 0.5155722143594187 -0.0871984339756895
0.575651935368669 0.4190481373395924 -0.0871984339756895
0.3761143820847201 0.3945316092186381 -0.08600519224760113
0.17059226259528176 0.37174069221214995 -0.08600519224760113
0.2527699025304763 0.3712817530859621 -0.08536267747093815
0.2560283703264099 0.29001281262061956 -0.08536267747093815
0.3893318289189298 0.3334927054356554 -0.08536267747093815
0.5946153000627505 0.46531838004185033 -0.08536267747093815
0.4853418941174259 0.21989609292164133 -0.08536267747093815
0.5656103472876788 0.48081216494195184 -0.08536267747093815
0.642069605710573 0.2871123173431124 -0.08416943574284977
0.48491049133880915 0.2992099527094238 -0.08416943574284977
0.25133801245677023 0.4278505897798752 -0.08352692096618679
0.25074139159272607 0.381552810730046 -0.08352692096618679
0.21190596273471113 0.3946876485215419 -0.08352692096618679
0.37988686170198416 0.314336586308575 -0.08352692096618679
0.566170253021628 0.4685309539251653 -0.08352692096618679
0.5843534212011902 0.48465807481940604 -0.08352692096618679
0.5666383709303398 0.26392671268810275 -0.08352692096618679
0.6530933235216049 0.4442714317148761 -0.08233367923809838
0.3277513769670455 0.5047228934163384 -0.08233367923809838
0.2577998753534951 0.3854170781725475 -0.08169116446143541
0.25198970601595694 0.4151471547669958 -0.08169116446143541
0.20937261875815416 0.3972209924980988 -0.08169116446143541
0.3725621932480262 0.45222025738044946 -0.08169116446143541
0.4709128479900802 0.1965544489637279 -0.08169116446143541
0.3997864622134888 0.5467341810275731 -0.08169116446143541
0.5760374442346667 0.2740784461593777 -0.08169116446143541
0.6147902640499677 0.2771533383048362 -0.08049792273334704
0.2655834829336408 0.2652668149365713 -0.08049792273334704
0.19476917576285716 0.4684575236649753 -0.08049792273334704
0.26593227666954355 0.37372330923728136 -0.07985540795668405
0.20214891691195763 0.2784108315105909 -0.07985540795668405
0.3801805827427443 0.33051877989795825 -0.07985540795668405
0.5320986122934429 0.23968554804286102 -0.07985540795668405
0.6415005211941 0.426611454139168 -0.07985540795668405
0.5822239436556786 0.4661628280340361 -0.07985540795668405
0.6328908231868162 0.2850654488403146 -0.07939646883049621
0.2680066815199126 0.2750238607593246 -0.07939646883049621
0.19476917576285716 0.4684575236649753 -0.07939646883049621
0.5718335618387862 0.2737388312059987 -0.07801965145193271
0.5872080225660786 0.2600440876805536 -0.07801965145193271
0.5900901602785382 0.4619405880731079 -0.07801965145193271
0.39312266610124136 0.31201435433006447 -0.07801965145193271
0.19925760041697427 0.2906186122671875 -0.07801965145193271
0.2620496516619944 0.3372101123577769 -0.07801965145193271
0.5323372606390605 0.21458157784038623 -0.07756071232574487
0.5099410312810939 0.5409882631677013 -0.07756071232574487
0.3277513769670455 0.2387584910079616 -0.07756071232574487
0.25729504231468836 0.37898275162339407 -0.07618389494718135
0.24741867231912612 0.3740170302780417 -0.07618389494718135
0.3922506817614845 0.3241854199565661 -0.07618389494718135
0.4181073121309073 0.18397951690618106 -0.07618389494718135
0.5372295517242229 0.5155905719244663 -0.07618389494718135
0.5596900325598558 0.26696488970346616 -0.07618389494718135
0.6195448733972737 0.3289308505213483 -0.07618389494718135
0.6138723857975921 0.2750238607593246 -0.0757249558209935
0.4244682084198709 0.5772536329190643 -0.07499065321909298
0.23104372429674397 0.3475637790445746 -0.07499065321909298
0.2573042210972122 0.3648474265368086 -0.07434813844243
0.2567167790156917 0.3186597928772644 -0.07434813844243
0.3935816052274292 0.4273641143061161 -0.07434813844243
0.40051158603286563 0.30059594887051105 -0.07434813844243
0.6407295034621047 0.3189718714830722 -0.07434813844243
0.45738332255006253 0.5559588574639487 -0.07434813844243
0.6180854469759965 0.3014128605151254 -0.07434813844243
0.6138723857975921 0.27238037139248267 -0.07388919931624216
0.4833042043971518 0.5530767197514891 -0.0731548967143416
0.17059226259528176 0.2871123173431124 -0.0731548967143416
0.2600578558543392 0.40793263170332295 -0.07251238193767862
0.21687168408006352 0.4485854595010418 -0.07251238193767862
0.390910579513016 0.36895034232492785 -0.07251238193767862
0.4345373328484319 0.18777035408849257 -0.07251238193767862
0.6067863656892519 0.4628309299779124 -0.07251238193767862
0.6001133907944807 0.43580859422797236 -0.07251238193767862
0.6245289523076738 0.345057971415589 -0.07251238193767862
0.6210410149486462 0.4684575236649753 -0.07131914020959025
0.2977459368968845 0.4442714317148761 -0.07131914020959025
0.6700740711905548 0.3724291009014317 -0.07067662543292727
0.4958883152372225 0.5168756014777924 -0.07067662543292727
0.6325144931033422 0.42882354072739337 -0.07067662543292727
0.38644969120647016 0.4694763685251122 -0.07067662543292727
0.3902038132586867 0.2904258578341886 -0.07067662543292727
0.25239357244700233 0.2818987688696185 -0.07067662543292727
0.25157666080238783 0.33103279171928857 -0.07067662543292727
0.642069605710573 0.458691299059698 -0.06948338370483889
