0.651444406311566 -0.323754312161238 -0.2802835195504945
0.5876342655771203 -0.25501504746228343 -0.2802835195504945
0.12491946517897047 -0.236683860953751 -0.27813575311715744
0.5396961187850355 -0.4771370519980086 -0.27813575311715744
0.2535169803750306 -0.2701031066564767 -0.27813575311715744
0.15267934632985272 -0.30953609837254625 -0.27813575311715744
0.3956669017654482 -0.19892612705568447 -0.27813575311715744
0.43278030573351356 -0.45199744589579766 -0.27813575311715744
0.13551869252748913 -0.32261599595156937 -0.27813575311715744
0.4537317672907173 -0.18698454568632997 -0.27813575311715744
0.476283314840757 -0.4375429777994388 -0.27813575311715744
0.33143794657650144 -0.2087306808238684 -0.27813575311715744
0.6494577223607291 -0.3143363563510547 -0.27813575311715744
0.17330864292205586 -0.32687931232174344 -0.2759879866838203
0.1388477304991617 -0.33297896899242085 -0.2759879866838203
0.13993235254799694 -0.2803694302078282 -0.2759879866838203
0.19735288814326485 -0.21399270858554428 -0.2759879866838203
0.6376772234738752 -0.27394760857215006 -0.2759879866838203
0.14372316030283688 -0.29991410475119595 -0.2759879866838203
0.43501398282418413 -0.4455326689314529 -0.2759879866838203
0.36200066292288874 -0.20461770810402785 -0.2759879866838203
0.35523519865787684 -0.3266001026854097 -0.2759879866838203
0.12227771246596572 -0.2791237256764927 -0.2751396189426521
0.6669942352889268 -0.4488509680709587 -0.2751396189426521
0.25430091512319875 -0.3735610157503259 -0.27384022025048316
0.17342677007588936 -0.3216924563852344 -0.27384022025048316
0.533875671750692 -0.43351591573693166 -0.27384022025048316
0.14361577198117012 -0.42426978124141534 -0.27384022025048316
0.1348314072688213 -0.29370705975885164 -0.27384022025048316
0.3967515238142834 -0.18794030174916512 -0.27384022025048316
0.16665056697871072 -0.29892613219186087 -0.27384022025048316
0.34948992344869995 -0.3030498437438682 -0.27384022025048316
0.314202120948971 -0.37868343869383486 -0.27384022025048316
0.5279370975625148 -0.39986041572653896 -0.27384022025048316
0.5418975793792061 -0.4261490768705853 -0.27384022025048316
0.6528511933254018 -0.236683860953751 -0.27219717892898027
0.4159203392318172 -0.17675043863147855 -0.27219717892898027
0.12154747187863112 -0.2932667676400175 -0.27219717892898027
0.2598743690177085 -0.2763638458096544 -0.271692453817146
0.14385202628883711 -0.3396048284392659 -0.271692453817146
0.13849334903766106 -0.27360396594281616 -0.271692453817146
0.3466226552601949 -0.19645619565734673 -0.271692453817146
0.5828447464307785 -0.22391538950756187 -0.271692453817146
0.16273089323787054 -0.34440508641777445 -0.271692453817146
0.1473099302465099 -0.38316153170734274 -0.271692453817146
0.3444211946660244 -0.37371135940065947 -0.271692453817146
0.5288391594645164 -0.21035224448103787 -0.271692453817146
0.35484860069987617 -0.4401632528481101 -0.271692453817146
0.5164787636406614 -0.32617054939874235 -0.271692453817146
0.2598743690177085 -0.3667418573244805 -0.26954468738380893
0.4357657010758522 -0.4522981331964648 -0.26954468738380893
0.13753759297482604 -0.3922465837203588 -0.26954468738380893
0.13089025586364764 -0.42050045115090867 -0.26954468738380893
0.14104919109333222 -0.39477020927952994 -0.26954468738380893
0.16700494844021135 -0.300118142562363 -0.26954468738380893
0.28694696490992294 -0.2089991516280356 -0.26954468738380893
0.5404800535332037 -0.4297358468142583 -0.26954468738380893
0.5123872685851542 -0.36809495017748295 -0.26954468738380893
0.6335964672505348 -0.3536512209132908 -0.26954468738380893
0.6811372772524519 -0.39226806138469217 -0.2692547389153084
0.42655178307683594 -0.4744093886276704 -0.2692547389153084
0.2552351935217003 -0.2743019900336507 -0.2673969209504718
0.165308212957875 -0.32881230211174695 -0.2673969209504718
0.4928748105382863 -0.19423325739884287 -0.2673969209504718
0.13011705994764625 -0.42116625874524316 -0.2673969209504718
0.1564164599238593 -0.34611256073227753 -0.2673969209504718
0.3116462788932998 -0.2038659898523598 -0.2673969209504718
0.29564541896493834 -0.43602880246393605 -0.2673969209504718
0.5771531653824351 -0.2313251837025749 -0.2673969209504718
0.512559089899821 -0.29148412150034775 -0.2673969209504718
0.5127953442074882 -0.2494415935677735 -0.2673969209504718
0.6669942352889268 -0.43742485064560527 -0.26631229890163655
0.1153833822149536 -0.2791237256764927 -0.26631229890163655
0.2583601936822059 -0.2770511310683222 -0.26524915451713466
0.16921714786654862 -0.3070661669742085 -0.26524915451713466
0.13940614977182925 -0.4271692659264204 -0.26524915451713466
0.5642880444467456 -0.4338488195340988 -0.26524915451713466
0.4594985201642274 -0.19239691709833956 -0.26524915451713466
0.2833387173019166 -0.20710911716669891 -0.26524915451713466
0.13772015312165967 -0.2523518170849453 -0.26524915451713466
0.3381067613520132 -0.44183851066611296 -0.26524915451713466
0.13944910510049605 -0.3904102434198557 -0.26524915451713466
0.6361952646348725 -0.2868664236686729 -0.26524915451713466
0.5113992960258189 -0.22809279522040252 -0.26524915451713466
0.7377094451065517 -0.39226806138469217 -0.263359120055798
0.22968751179715532 -0.45151419844829677 -0.263359120055798
0.1153833822149536 -0.236683860953751 -0.263359120055798
0.15441903714085586 -0.23006874033907265 -0.2631013880837975
0.16033613366469965 -0.3051331771842052 -0.2631013880837975
0.16587737106270933 -0.3177298273157274 -0.2631013880837975
0.15250752501518586 -0.36480886753447717 -0.2631013880837975
0.18405821392090804 -0.4339884243522658 -0.2631013880837975
0.563590020355911 -0.435620726841602 -0.2631013880837975
0.13863295385582802 -0.23439648970224702 -0.2631013880837975
0.5164358083119945 -0.20575602431369647 -0.2631013880837975
0.5162962034938275 -0.4419566378199466 -0.2631013880837975
0.14012565152699727 -0.41856746136090534 -0.2631013880837975
0.13877255867399482 -0.34602665007494393 -0.2631013880837975
0.3676600274747321 -0.2634879860417984 -0.2631013880837975
0.40940186810663903 -0.25370490993794775 -0.2631013880837975
0.4339078831110156 -0.4478415178472903 -0.26095362165046043
0.43249035726501306 -0.44422253140711726 -0.26095362165046043
0.1386436926879946 -0.30084838314969764 -0.26095362165046043
0.1712575259782189 -0.42521479847208377 -0.26095362165046043
0.4434117495785324 -0.18654425356749588 -0.26095362165046043
0.2123550366801247 -0.2051546497123621 -0.26095362165046043
0.5157592618854934 -0.2748389316419851 -0.26095362165046043
0.6575225853179101 -0.3005906511776972 -0.26095362165046043
0.2583816713465393 -0.27701891457182215 -0.26095362165046043
0.3355401804641754 -0.26822381102730675 -0.26095362165046043
0.3492644079731995 -0.31053480976404807 -0.26095362165046043
0.6669942352889268 -0.4178372207735706 -0.26041668004212615
0.16860503443304753 -0.4488509680709587 -0.26041668004212615
0.14083441444999856 -0.1942547350631762 -0.26041668004212615
0.13973905356899657 -0.4461233047006205 -0.25955757346879127
0.412924205057312 -0.4227233894094127 -0.25955757346879127
0.42959087258000794 -0.22038231372472222 -0.25955757346879127
0.2002416339961033 -0.18011169309965133 -0.25955757346879127
0.624565109398352 -0.4461233047006205 -0.25955757346879127
0.7445286035323969 -0.2932667676400175 -0.25955757346879127
0.4753919917709221 -0.1941903020701761 -0.2588058552171233
0.1454413734495067 -0.22992913552090583 -0.2588058552171233
0.13765572012865954 -0.41643043375973476 -0.2588058552171233
0.1420586413170006 -0.2211555096407236 -0.2588058552171233
0.6800633940357833 -0.3174613565115602 -0.2588058552171233
0.6839615901122902 -0.3158720093508908 -0.2588058552171233
0.5084461171799805 -0.247648208595937 -0.2588058552171233
0.5152545367736592 -0.44135526321861224 -0.2588058552171233
0.3674774673278985 -0.3810781982670059 -0.2588058552171233
0.2563520320670356 -0.3746778542956612 -0.2588058552171233
0.2796552978687434 -0.45771050460847434 -0.258268913608789
0.2675633728490555 -0.1824312808476552 -0.25740980703545413
0.44069482504036095 -0.2225408189902261 -0.25740980703545413
0.32753975049999456 -0.35154640980862045 -0.25740980703545413
0.4919942263006181 -0.43249572668109654 -0.25740980703545413
0.11991516938929489 -0.4360932354569362 -0.25740980703545413
0.5396961187850355 -0.15182560917260127 -0.25740980703545413
0.5046016152643069 -0.4028565499010442 -0.2566580887837862
0.4901901024966149 -0.38505156616867947 -0.2566580887837862
0.14792204368001102 -0.4264712418355859 -0.2566580887837862
0.5021102062016359 -0.44877579624579184 -0.2566580887837862
0.2538069288435312 -0.43889607065244124 -0.2566580887837862
0.46029319374456207 -0.4623067247758158 -0.2566580887837862
0.27355564119806597 -0.45036514340646144 -0.2566580887837862
0.5597562572724042 -0.42852235877942285 -0.2566580887837862
0.2537532346826978 -0.2773196018724894 -0.2566580887837862
0.37037695201290355 -0.25928910266462424 -0.2566580887837862
0.39518365431794733 -0.39677837089470014 -0.2566580887837862
0.30742591785179235 -0.46299401003448376 -0.25612114717545187
0.4851106348817726 -0.4117912582637267 -0.25526204060211705
0.2811694732042461 -0.18011169309965133 -0.25526204060211705
0.5821252446756106 -0.49128009396153366 -0.25526204060211705
0.16350408915387193 -0.3207367003223994 -0.25451032235044907
0.1352931770519887 -0.31313360714838584 -0.25451032235044907
0.1294727300176451 -0.4109858458512253 -0.25451032235044907
0.5127201723823213 -0.23766109468091948 -0.25451032235044907
0.18734429656391396 -0.21153351601937329 -0.25451032235044907
0.2801278064840777 -0.44867914675629167 -0.25451032235044907
0.47448992986892047 -0.4664733916564899 -0.25451032235044907
0.6483301449832273 -0.3623067196396394 -0.25451032235044907
0.5187661348921653 -0.4025773402647104 -0.25451032235044907
0.39559172994028136 -0.38835912647601867 -0.25451032235044907
0.4046338266246306 -0.3964239894331995 -0.25451032235044907
0.41152815687564276 -0.16869631450646433 -0.2531142741687799
0.3309010049681672 -0.28303266058516613 -0.2531142741687799
0.3240818465423218 -0.4771370519980086 -0.2531142741687799
0.610422067434827 -0.1773947685614797 -0.2531142741687799
0.5103361516413172 -0.40822596598438704 -0.25236255591711193
0.50436536095664 -0.2584836902521228 -0.25236255591711193
0.5337145892681916 -0.4460696105397871 -0.25236255591711193
0.4237274702169977 -0.45713060767147334 -0.25236255591711193
0.13089025586364764 -0.21966281196955437 -0.25236255591711193
0.5549452604617291 -0.4424828405961141 -0.25236255591711193
0.6140303150428335 -0.4131228734523957 -0.25236255591711193
0.5146424233401581 -0.39699314753803394 -0.25236255591711193
0.5146316845079913 -0.2434815417152631 -0.25236255591711193
0.36698348104823086 -0.37838275139316774 -0.25236255591711193
0.3773571929212491 -0.26006229858062563 -0.25236255591711193
0.3240818465423218 -0.17720146958247937 -0.25182561430877765
0.3309010049681672 -0.3600837813811354 -0.2509665077354428
0.49369096178295446 -0.4310996784994273 -0.2509665077354428
0.7660062678657682 -0.3215528515670675 -0.2509665077354428
0.14044781649199786 -0.4206078394725756 -0.2502147894837748
0.1527115628263528 -0.337757749306596 -0.2502147894837748
0.5161136433469939 -0.4051117046560483 -0.2502147894837748
0.13075065104548067 -0.4238187502904145 -0.2502147894837748
0.2706024623522275 -0.19657432281118023 -0.2502147894837748
0.15320554910602038 -0.20594932329269683 -0.2502147894837748
0.3184439596548119 -0.1831185661063233 -0.2502147894837748
0.5165861519623282 -0.24638102640026815 -0.2502147894837748
0.5190023891998324 -0.4344931494641 -0.2502147894837748
0.2537317570183643 -0.36653781951331343 -0.2502147894837748
0.36703717520906426 -0.2582366971122891 -0.2502147894837748
0.39652600833878304 -0.39776634345403517 -0.2502147894837748
0.3814916433054231 -0.1659686511361263 -0.24881874130210568
0.3382785826666802 -0.47148842627833204 -0.24881874130210568
0.4980616664747955 -0.3074098096035426 -0.24881874130210568
0.6811372772524519 -0.25083764174944273 -0.24881874130210568
0.5049130413971408 -0.44881875157445866 -0.24806702305043768
0.4241355458393317 -0.45121351114762953 -0.24806702305043768
0.5084246395156471 -0.4550472742311363 -0.24806702305043768
0.23747316511800234 -0.4424935794282808 -0.24806702305043768
0.2088326997294518 -0.437671843785439 -0.24806702305043768
0.40278674749196075 -0.1847616074278261 -0.24806702305043768
0.6268739583141895 -0.24225731484826088 -0.24806702305043768
0.6386866736975436 -0.2473045659666031 -0.24806702305043768
0.5406089195192039 -0.44207476497378007 -0.24806702305043768
0.34171500896001966 -0.36472295687714357 -0.24806702305043768
0.3565668138465458 -0.3716602424568225 -0.24806702305043768
0.25689971250753657 -0.26303695509079755 -0.24806702305043768
0.3629564189857237 -0.17183205349913655 -0.2475300814421034
0.3629564189857237 -0.4771370519980086 -0.24667097486876852
0.49683743960779325 -0.21126504521520625 -0.24667097486876852
0.7660062678657682 -0.3215528515670675 -0.24667097486876852
0.13648518742249086 -0.41632304543806803 -0.24591925661710057
0.1651256528110414 -0.3209729546300664 -0.24591925661710057
0.5119577152984867 -0.3897551746576878 -0.24591925661710057
0.3518632053575375 -0.188520198686166 -0.24591925661710057
0.1308150840384808 -0.2181271589697183 -0.24591925661710057
0.1302674035979798 -0.4147336982773986 -0.24591925661710057
0.4770994660854252 -0.46049186213964594 -0.24591925661710057
0.35309817105670627 -0.18903566263016694 -0.24591925661710057
0.5059869246138095 -0.181926555735821 -0.24591925661710057
0.4527974888922156 -0.17199313598163699 -0.24591925661710057
0.5235878705350071 -0.44870062442062514 -0.24591925661710057
0.258392410178706 -0.2770081757396556 -0.24591925661710057
0.39512996015711377 -0.25022552831594164 -0.24591925661710057
0.37574636809624634 -0.2651202885311346 -0.24591925661710057
0.37406037144607673 -0.16693514603112802 -0.24452320843543146
0.32753975049999456 -0.3600837813811354 -0.24452320843543146
0.49726699289446075 -0.3447809455436084 -0.24452320843543146
0.5396961187850355 -0.1659686511361263 -0.24452320843543146
0.5015303092646348 -0.39945234010420494 -0.24377149018376346
0.5042150173063062 -0.4472401432459558 -0.24377149018376346
0.5199151899340007 -0.4541989064899682 -0.24377149018376346
0.13258699134598398 -0.3371241582087616 -0.24377149018376346
0.3663821064468965 -0.1860717449521616 -0.24377149018376346
0.28954576229426093 -0.19507088630784422 -0.24377149018376346
0.6245865870626855 -0.40600302772588315 -0.24377149018376346
0.6155015350496694 -0.41820234106723797 -0.24377149018376346
0.6848206966856248 -0.32027493053923184 -0.24377149018376346
0.6471918287735586 -0.2758591206978202 -0.24377149018376346
0.36703717520906426 -0.27380800375398323 -0.24377149018376346
0.3729864882294081 -0.2617697728951287 -0.24377149018376346
0.390716300136606 -0.4755262271730057 -0.24323454857542917
0.7377094451065517 -0.39226806138469217 -0.2423754420020943
0.49726699289446075 -0.3074098096035426 -0.2423754420020943
0.4118503218406433 -0.2350622972965815 -0.2423754420020943
0.5043546221244732 -0.39907648097837084 -0.2416237237504263
0.5131497256689888 -0.40420964275404664 -0.2416237237504263
0.511195258214652 -0.4568728756994729 -0.2416237237504263
0.31679017950114224 -0.1915163328606714 -0.2416237237504263
0.5054177665089752 -0.4576675492798076 -0.2416237237504263
0.43895513422935784 -0.1793921913444833 -0.2416237237504263
0.6950440649083096 -0.32312072106340356 -0.2416237237504263
0.631158752348697 -0.4075708972222193 -0.2416237237504263
0.6774753354836119 -0.30463919090453756 -0.2416237237504263
0.5546016178323953 -0.2076353199428664 -0.2416237237504263
0.36671501024406367 -0.3771477856939989 -0.2416237237504263
0.37200925450223976 -0.3801439198685042 -0.2416237237504263
0.6669942352889268 -0.1942547350631762 -0.24022767556875718
0.4073722288271354 -0.47895191463417847 -0.24022767556875718
0.38211449557109095 -0.3639819774576422 -0.24022767556875718
0.4856583153222736 -0.1641537884999563 -0.24022767556875718
0.1265625065004733 -0.42086557144457604 -0.23947595731708918
0.2533129425638637 -0.2783934850891579 -0.23947595731708918
0.3423915553865207 -0.3717461531141561 -0.23947595731708918
0.3583816764827157 -0.25185783080527785 -0.23947595731708918
0.6003919981911426 -0.42098369859840956 -0.23947595731708918
0.33983571333084955 -0.45482175875563585 -0.23947595731708918
0.3406196480790177 -0.18621134977032858 -0.23947595731708918
0.4977609791741282 -0.45498284123813615 -0.23947595731708918
0.42604705796500175 -0.17423755190447432 -0.23947595731708918
0.22064541511280605 -0.44383593344911654 -0.23947595731708918
0.4715260121909153 -0.1887457141616664 -0.23947595731708918
0.6646102145479225 -0.35792527611563163 -0.23947595731708918
0.4073722288271354 -0.49128009396153366 -0.2389390157087549
0.6528511933254018 -0.4319802627370956 -0.23807990913542007
0.49726699289446075 -0.3074098096035426 -0.23807990913542007
0.32753975049999456 -0.236683860953751 -0.23807990913542007
0.15892934665086383 -0.33179769745408544 -0.23732819088375207
0.3423700777221874 -0.3717461531141561 -0.23732819088375207
0.3995436201776216 -0.39562931585286476 -0.23732819088375207
0.6100676859733265 -0.41571093200456694 -0.23732819088375207
0.2957098519579384 -0.4500537172736274 -0.23732819088375207
0.3200440456476481 -0.18993772453216856 -0.23732819088375207
0.5046875259216405 -0.39920534696437104 -0.23732819088375207
0.39500109417111356 -0.1736361773031398 -0.23732819088375207
0.48883700964361243 -0.47184280773983267 -0.23732819088375207
0.5281089188771818 -0.2060889281108638 -0.23732819088375207
0.5285492109960159 -0.4034042303415452 -0.23732819088375207
0.40182025259695897 -0.15182560917260127 -0.23679124927541778
0.5396961187850355 -0.4771370519980086 -0.2359321427020829
0.49726699289446075 -0.3498389354941174 -0.2359321427020829
0.35160547338553705 -0.39226806138469217 -0.2359321427020829
0.15878974183269687 -0.31201676860305055 -0.23518042445041495
0.3688842543417343 -0.38330113652550973 -0.23518042445041495
0.2476321003476869 -0.3682452938278165 -0.23518042445041495
0.3492644079731995 -0.3581615304232988 -0.23518042445041495
0.5190775610249991 -0.4550902295598031 -0.23518042445041495
0.4966978347896263 -0.462027515139482 -0.23518042445041495
0.4388370070755243 -0.17701890943564574 -0.23518042445041495
0.659573702261747 -0.26274700662229705 -0.23518042445041495
0.46332154441556755 -0.4564540612449721 -0.23518042445041495
0.5154907910813261 -0.196756882958014 -0.23518042445041495
0.5710642475439243 -0.4360932354569362 -0.23518042445041495
0.44069482504036095 -0.4825494234100182 -0.23464348284208067
0.7036243918094914 -0.39226806138469217 -0.23378437626874585
0.4992429380131309 -0.3356958935305923 -0.23378437626874585
0.32753975049999456 -0.39226806138469217 -0.23378437626874585
0.15179876209218457 -0.30674400200920793 -0.23303265801707784
0.36976483857940246 -0.3844072362386783 -0.23303265801707784
0.25272230679469593 -0.26634451539813664 -0.23303265801707784
0.3961286715486156 -0.2445769025962649 -0.23303265801707784
0.5278297092408479 -0.442590228917781 -0.23303265801707784
0.327389406849661 -0.18824098904983222 -0.23303265801707784
0.4997476631249651 -0.24085052783442507 -0.23303265801707784
0.6460320348995565 -0.2478092910784373 -0.23303265801707784
0.31002471523613034 -0.44562931842095305 -0.23303265801707784
0.5034632990546384 -0.23907862052692186 -0.23303265801707784
0.5889229254371223 -0.42784581235292163 -0.23303265801707784
0.42959087258000794 -0.49128009396153366 -0.23249571640874356
0.7377094451065517 -0.39226806138469217 -0.23163660983540868
0.49726699289446075 -0.3215528515670675 -0.23163660983540868
0.32753975049999456 -0.2225408189902261 -0.23163660983540868
0.13270511849981748 -0.33440723367059016 -0.23088489158374068
0.39957583667412166 -0.389712219329021 -0.23088489158374068
0.24748175669735334 -0.36691367863914753 -0.23088489158374068
0.3634181887688913 -0.3246778517275729 -0.23088489158374068
0.521236066290503 -0.4581293190629751 -0.23088489158374068
0.38358571557792687 -0.1804016415681517 -0.23088489158374068
0.49615015434912546 -0.39022768327302193 -0.23088489158374068
0.42448992730083235 -0.1680949399051301 -0.23088489158374068
0.5575762743425672 -0.4563788894198054 -0.23088489158374068
0.5326621837158565 -0.20441367029286076 -0.23088489158374068
0.5361845206665293 -0.4069265672922181 -0.23088489158374068
0.596279025471302 -0.18011169309965133 -0.22948884340207157
0.44069482504036095 -0.4884020869408619 -0.22948884340207157
0.381835285934757 -0.3356958935305923 -0.22948884340207157
0.42655178307683594 -0.1566688224797764 -0.22948884340207157
0.25307668825619656 -0.36472295687714357 -0.22873712515040356
0.3560620887347116 -0.2697702028593094 -0.22873712515040356
0.39961879200278844 -0.3968213262233669 -0.22873712515040356
0.6517236159478998 -0.387016772455183 -0.22873712515040356
0.4060083971419664 -0.464894783327987 -0.22873712515040356
0.4009289295271241 -0.17791023250548063 -0.22873712515040356
0.4674452559675748 -0.472680436648834 -0.22873712515040356
0.5029370962784707 -0.40672252948105103 -0.22873712515040356
0.4565346024862222 -0.18385954552582448 -0.22873712515040356
0.6311157970200301 -0.3957044876780316 -0.22873712515040356
0.44069482504036095 -0.154703616193273 -0.22820018354206928
0.7094233611795016 -0.4205648841439088 -0.22734107696873446
0.45483786700388584 -0.21982389445205464 -0.22734107696873446
0.5069856360053112 -0.22938145508040486 -0.22734107696873446
0.14015786802349733 -0.3379725259499297 -0.22658935871706645
0.39486148935294674 -0.3890464117346865 -0.22658935871706645
0.24680521027085212 -0.36948025952698527 -0.22658935871706645
0.3633000616150577 -0.3185352397282287 -0.22658935871706645
0.5238885578356745 -0.45837631220280883 -0.22658935871706645
0.5082098628723133 -0.46305844302748383 -0.22658935871706645
0.5006497250269667 -0.24160224608609313 -0.22658935871706645
0.5182936262768312 -0.17720146958247937 -0.22658935871706645
0.5311694860446872 -0.46691368377532394 -0.22658935871706645
0.6321467249080319 -0.396305862279366 -0.22658935871706645
0.6587790286814125 -0.2665807697058038 -0.22658935871706645
0.6669942352889268 -0.1942547350631762 -0.2251933105353973
0.48652816072777516 -0.49128009396153366 -0.2251933105353973
0.47115015306508135 -0.15739906306711116 -0.2251933105353973
0.3309010049681672 -0.29496350312235387 -0.2251933105353973
0.13180305659781585 -0.3087521636243783 -0.22444159228372934
0.3763906980262475 -0.38807991683968474 -0.22444159228372934
0.25652385338170264 -0.26536728167096835 -0.22444159228372934
0.3768632066415816 -0.26352020253829844 -0.22444159228372934
0.5289358089540166 -0.39763747746803496 -0.22444159228372934
0.5176815128433301 -0.4618771714891483 -0.22444159228372934
0.501326271453468 -0.24188145572242692 -0.22444159228372934
0.5695608110405883 -0.19334193432900798 -0.22444159228372934
0.45793065066789124 -0.47983249887184676 -0.22444159228372934
0.4926492950627859 -0.25569159388878465 -0.22444159228372934
0.5409525621485378 -0.23552406707974904 -0.22444159228372934
0.45735075373089035 -0.49128009396153366 -0.22390465067539506
0.5396961187850355 -0.4771370519980086 -0.22304554410206023
0.5135255847948228 -0.20839777702670106 -0.22304554410206023
0.3816742034522567 -0.3639819774576422 -0.22304554410206023
0.1516054631131842 -0.3084836928202111 -0.22229382585039223
0.3661673298035628 -0.3788552600085019 -0.22229382585039223
0.3355401804641754 -0.37742699533033275 -0.22229382585039223
0.5285384721638492 -0.4593428070978106 -0.22229382585039223
0.5302137299818522 -0.4591280304544769 -0.22229382585039223
0.5038606358448057 -0.3954360168738644 -0.22229382585039223
0.4968267007756265 -0.3904854152450224 -0.22229382585039223
0.4631389842687338 -0.16586126281445954 -0.22229382585039223
0.5961072041566351 -0.4419244213234465 -0.22229382585039223
0.615544490378336 -0.22710482266106746 -0.22229382585039223
0.5365711186245301 -0.450107411434461 -0.22229382585039223
0.7235664031430267 -0.236683860953751 -0.22089777766872307
0.6387081513618771 -0.46299401003448376 -0.22089777766872307
0.32753975049999456 -0.2225408189902261 -0.22089777766872307
0.32753975049999456 -0.39057132590235594 -0.22089777766872307
0.2585749703255396 -0.3662800875413131 -0.22014605941705506
0.25447273643786567 -0.37389391954749307 -0.22014605941705506
0.39939327652728807 -0.3970361028667006 -0.22014605941705506
0.702614941585823 -0.3304231269367497 -0.22014605941705506
0.43211449813917907 -0.4707474468588307 -0.22014605941705506
0.4712145860580815 -0.17124141772996876 -0.22014605941705506
0.40329147260379494 -0.4625966732443163 -0.22014605941705506
0.5021961168589694 -0.2421177100300939 -0.22014605941705506
0.6417901961937156 -0.23068085377257375 -0.22014605941705506
0.6204736143428448 -0.4144652274732314 -0.22014605941705506
0.5384181977572 -0.19307346352484078 -0.22014605941705506
0.7377094451065517 -0.2649806837129676 -0.21875001123538595
0.5166076296266614 -0.42226161962624514 -0.21875001123538595
0.4149001501759821 -0.25083764174944273 -0.21875001123538595
0.15262565216901935 -0.3199098102455645 -0.21799829298371795
0.3355401804641754 -0.3747315484564946 -0.21799829298371795
0.4043438781561301 -0.257656800175288 -0.21799829298371795
0.3766913853269146 -0.26335912005579815 -0.21799829298371795
0.5333387301423577 -0.45569160416113746 -0.21799829298371795
0.4382463713063565 -0.1713917613803025 -0.21799829298371795
0.501326271453468 -0.401771927852209 -0.21799829298371795
0.4425848595016976 -0.17671822213497865 -0.21799829298371795
0.6817279130216196 -0.37533292305782895 -0.21799829298371795
0.696912621705313 -0.327169260790244 -0.21799829298371795
0.6710427750157674 -0.273271062145649 -0.21799829298371795
0.6952803192159769 -0.3725193490301573 -0.21660224480204884
0.5005960308661331 -0.2932667676400175 -0.21660224480204884
0.38150238213758986 -0.3356958935305923 -0.21660224480204884
0.2578769462347051 -0.27803910362765727 -0.21585052655038084
0.25553588082236756 -0.26891109628597454 -0.21585052655038084
0.37547789729207914 -0.26411083830746607 -0.21585052655038084
0.652507550696068 -0.24822810553293806 -0.21585052655038084
0.446429361417371 -0.4717676359146658 -0.21585052655038084
0.4735663903025855 -0.17218643496063735 -0.21585052655038084
0.6973851303206472 -0.2928909085141836 -0.21585052655038084
0.48630264525227473 -0.4847938393328554 -0.21585052655038084
0.5193030765004996 -0.25798970397245535 -0.21585052655038084
0.5470844353157153 -0.23496564780708132 -0.21585052655038084
0.6669942352889268 -0.2056808524885296 -0.21445447836871168
0.5538391607485605 -0.47191797956499937 -0.21445447836871168
0.39029748568210537 -0.236683860953751 -0.21445447836871168
0.4852824561964396 -0.41012673927789045 -0.21445447836871168
0.5327158778766898 -0.461340229880814 -0.21370276011704373
0.48556166583277344 -0.17245490576480454 -0.21370276011704373
0.4302888966708425 -0.4757302649841728 -0.21370276011704373
0.5041183678168061 -0.23593214270208307 -0.21370276011704373
0.5180681108013308 -0.16941581626163235 -0.21370276011704373
0.5450547960362117 -0.4075386807257192 -0.21370276011704373
0.6613778260657502 -0.2603522470491262 -0.21370276011704373
0.37106423727157134 -0.3871885937698499 -0.21370276011704373
0.40355994340796214 -0.397433439656868 -0.21370276011704373
0.5396961187850355 -0.1659686511361263 -0.21230671193537462
0.5210857226401694 -0.4347079261074338 -0.21230671193537462
0.41553374127381654 -0.2649806837129676 -0.21230671193537462
0.7009289449356533 -0.34108678727826863 -0.21155499368370662
0.4740925930787532 -0.47185354657199924 -0.21155499368370662
0.4845092602804382 -0.17177835933830318 -0.21155499368370662
0.7129242204658414 -0.33026204445424956 -0.21155499368370662
0.4354113196143516 -0.46815938830665943 -0.21155499368370662
0.5196467191298335 -0.26319803757329785 -0.21155499368370662
0.6753383078824416 -0.36964134200948556 -0.21155499368370662
0.36580220950989545 -0.38068086147683844 -0.21155499368370662
0.37133270807573854 -0.2559385870286184 -0.21155499368370662
0.4074259229879689 -0.40186857734170917 -0.21155499368370662
0.3813305608229228 -0.2791237256764927 -0.21015894550203745
0.5806432858366078 -0.46299401003448376 -0.21015894550203745
0.6669942352889268 -0.1942547350631762 -0.21015894550203745
0.7115818664450057 -0.32622424355957574 -0.20940722725036945
0.4675633831214083 -0.17075817028246806 -0.20940722725036945
0.5357334897155286 -0.45467141510530235 -0.20940722725036945
0.5398894177640359 -0.23884236621925486 -0.20940722725036945
0.5920479255976281 -0.19351375564367487 -0.20940722725036945
0.5465367548752142 -0.450139627930961 -0.20940722725036945
0.3355401804641754 -0.2763638458096544 -0.20940722725036945
0.25018794240335807 -0.2730025913414818 -0.20940722725036945
0.3954628639542811 -0.24434064828859792 -0.20940722725036945
0.32753975049999456 -0.28303266058516613 -0.20801117906870034
0.5012725772926344 -0.3498389354941174 -0.20801117906870034
0.6811372772524519 -0.24878652480560579 -0.20801117906870034
0.5464937995465475 -0.44429770323228407 -0.20725946081703234
0.5058795362921426 -0.4691258832016612 -0.20725946081703234
0.4970092609224603 -0.47667528221484107 -0.20725946081703234
0.494077559740955 -0.38656574150418216 -0.20725946081703234
0.5058151032991425 -0.18314004377065649 -0.20725946081703234
0.6989959551456498 -0.34185998319427 -0.20725946081703234
0.25011277057819137 -0.3739368748761599 -0.20725946081703234
0.2598743690177085 -0.2679231237266395 -0.20725946081703234
0.24968321729152387 -0.25990121609812533 -0.20725946081703234
0.3812231725012559 -0.35154640980862045 -0.20586341263536323
0.4145779852109815 -0.39226806138469217 -0.20586341263536323
0.5682828900127527 -0.17377578212130676 -0.20586341263536323
0.5371939708901977 -0.46167313367798135 -0.20511169438369523
0.4926492950627859 -0.1662371219402935 -0.20511169438369523
0.6969233605374797 -0.28360181869000045 -0.20511169438369523
0.5293009292476838 -0.47394761884450304 -0.20511169438369523
0.5234482657168402 -0.3892611883780203 -0.20511169438369523
0.5551063429442294 -0.40623928203355014 -0.20511169438369523
0.2560728224307018 -0.3740872185264934 -0.20511169438369523
0.3671230858663978 -0.3850623050008462 -0.20511169438369523
0.3953554756326142 -0.24423325996693102 -0.20511169438369523
0.3309010049681672 -0.2932667676400175 -0.20371564620202606
0.5016162199219685 -0.3639819774576422 -0.20371564620202606
0.6811372772524519 -0.236683860953751 -0.20371564620202606
0.5421230948547064 -0.39819589674070266 -0.20296392795035811
0.4787532462390947 -0.1661512112829599 -0.20296392795035811
0.6476535985567261 -0.4115013097952262 -0.20296392795035811
0.4782485211272605 -0.4651954706286543 -0.20296392795035811
0.49333658032145383 -0.2362435688349169 -0.20296392795035811
0.5205487810318351 -0.32712630546157734 -0.20296392795035811
0.5742966360260966 -0.44710053842778896 -0.20296392795035811
0.2511651761305265 -0.36984537982065263 -0.20296392795035811
0.2598743690177085 -0.2678801683979727 -0.20296392795035811
0.25360289103236405 -0.25939649098629114 -0.20296392795035811
0.32753975049999456 -0.28303266058516613 -0.201567879768689
0.49726699289446075 -0.33910010332743173 -0.201567879768689
0.7377094451065517 -0.25083764174944273 -0.201567879768689
0.5504886451125546 -0.40467141253721406 -0.200816161517021
0.5030767010966376 -0.17197165831730352 -0.200816161517021
0.5329306545200236 -0.17341066182763956 -0.200816161517021
0.7062554056903295 -0.2864153927176721 -0.200816161517021
0.5544297965177282 -0.4077749350333862 -0.200816161517021
0.5766377014384342 -0.44410440425328374 -0.200816161517021
0.3648571922792272 -0.38033721884750454 -0.200816161517021
0.2845844218332521 -0.2678801683979727 -0.200816161517021
0.3575225699093808 -0.393846669713195 -0.200816161517021
0.3841119183540944 -0.3639819774576422 -0.19942011333535184
0.49726699289446075 -0.3393363576350989 -0.19942011333535184
0.7377094451065517 -0.2649806837129676 -0.19942011333535184
0.5535599511122267 -0.4046499348728807 -0.19866839508368384
0.503270000075638 -0.24678910202260218 -0.19866839508368384
0.5016913917471352 -0.16419674382862326 -0.19866839508368384
0.679687534909949 -0.2531894459939468 -0.19866839508368384
0.5474817721058826 -0.247100528155436 -0.19866839508368384
0.5811587497806088 -0.4343642834780998 -0.19866839508368384
0.337226177114345 -0.2774806843549897 -0.19866839508368384
0.3738885501314097 -0.3885309477906856 -0.19866839508368384
0.40382841421212917 -0.38594288923851433 -0.19866839508368384
0.49726699289446075 -0.32488188953874003 -0.1981314534753496
0.4150397549941489 -0.2649806837129676 -0.19727234690201473
0.5884396779896216 -0.46299401003448376 -0.19727234690201473
0.6669942352889268 -0.2056808524885296 -0.19727234690201473
0.6144169130008342 -0.4319587850727623 -0.19652062865034672
0.5030230069358043 -0.24067870651975803 -0.19652062865034672
0.503237783579138 -0.16410009433912293 -0.19652062865034672
0.7174345299758492 -0.34354597984443963 -0.19652062865034672
0.5925956060381289 -0.41086771869739164 -0.19652062865034672
0.5450118407075449 -0.2834514750396669 -0.19652062865034672
0.3355401804641754 -0.3667418573244805 -0.19652062865034672
0.34356208809268957 -0.37141324931698877 -0.19652062865034672
0.24503330296334908 -0.370586359240154 -0.19652062865034672
0.3530874322245397 -0.2754832615719861 -0.19652062865034672
0.7377094451065517 -0.3781250194211673 -0.19512458046867762
0.49726699289446075 -0.2791237256764927 -0.19512458046867762
0.3309010049681672 -0.29496350312235387 -0.19512458046867762
0.6895994769998 -0.27466711032731805 -0.1943728622170096
0.5036029038728052 -0.39645620592969955 -0.1943728622170096
0.5037747251874722 -0.4814862790255163 -0.1943728622170096
0.5047197424181404 -0.308827335449545 -0.1943728622170096
0.5537210335947269 -0.1736898714639732 -0.1943728622170096
0.5447970640642111 -0.3792525967986693 -0.1943728622170096
0.5690238694322539 -0.44579040090345334 -0.1943728622170096
0.5805358975149411 -0.41993129304607435 -0.1943728622170096
0.24902814852935615 -0.272175701264647 -0.1943728622170096
0.37560676327807935 -0.3888208962591861 -0.1943728622170096
0.37055951215973715 -0.3808848992880055 -0.1943728622170096
0.49726699289446075 -0.29853953423386015 -0.19383592060867533
0.3309010049681672 -0.3498389354941174 -0.19297681403534045
0.5017773024044687 -0.3639819774576422 -0.19297681403534045
0.7144920899621773 -0.3639819774576422 -0.19297681403534045
0.255621791479701 -0.3753758783864958 -0.1922250957836725
0.36679018206923053 -0.38534151463717997 -0.1922250957836725
0.36104490686005375 -0.24654210888276845 -0.1922250957836725
0.50624465658581 -0.3963595564401994 -0.1922250957836725
0.5211608944653362 -0.26461556341930026 -0.1922250957836725
0.5606368415100725 -0.186844940868163 -0.1922250957836725
0.5107764437601512 -0.47631016192117387 -0.1922250957836725
0.613289335623332 -0.4438037169526165 -0.1922250957836725
0.5719340929494258 -0.192074752133339 -0.1922250957836725
0.7518524870700767 -0.2791237256764927 -0.1908290476020034
0.48737652846894325 -0.4064111033482172 -0.1908290476020034
0.38082583571108863 -0.2932667676400175 -0.1908290476020034
0.337226177114345 -0.2774806843549897 -0.1900773293503354
0.3355401804641754 -0.3752255347361622 -0.1900773293503354
0.24503330296334908 -0.27173540914581296 -0.1900773293503354
0.3625590821955563 -0.34867914162011526 -0.1900773293503354
0.51201140945932 -0.29940937963936176 -0.1900773293503354
0.5347669948205268 -0.38828395465085186 -0.1900773293503354
0.6310943193556969 -0.2195769013122209 -0.1900773293503354
0.661012705772083 -0.23715636956908528 -0.1900773293503354
0.6546553171294051 -0.22699743433940056 -0.1900773293503354
0.6012725824288108 -0.2216494959203912 -0.1900773293503354
0.4141591707564808 -0.25083764174944273 -0.18868128116866623
0.5508000712453885 -0.20839777702670106 -0.18868128116866623
0.7094233611795016 -0.4205648841439088 -0.18868128116866623
0.3654156115518947 -0.2595253569722914 -0.18792956291699822
0.5182184544516644 -0.29205327960518207 -0.18792956291699822
0.4956024739086245 -0.3871563772733498 -0.18792956291699822
0.5884289391574549 -0.21028781148803777 -0.18792956291699822
0.5706669107537569 -0.45501505773463624 -0.18792956291699822
0.5573507588670668 -0.45119203348329623 -0.18792956291699822
0.5885255886469551 -0.4416881670157794 -0.18792956291699822
0.32753975049999456 -0.3356958935305923 -0.18653351473532911
0.5540861538883943 -0.22966066471673863 -0.18653351473532911
0.624221466769018 -0.4488509680709587 -0.18653351473532911
0.375381247802579 -0.3890356729025199 -0.1857817964836611
0.5165968907944949 -0.2513960610221103 -0.1857817964836611
0.4946896731744561 -0.2357173660587494 -0.1857817964836611
0.5879456917099541 -0.4443191808966174 -0.1857817964836611
0.5656733537962481 -0.4577749376014745 -0.1857817964836611
0.587365794772953 -0.4386168610161073 -0.1857817964836611
0.587161756961786 -0.4262779428565855 -0.1857817964836611
0.7235664031430267 -0.2791237256764927 -0.184385748301992
0.5821252446756106 -0.49128009396153366 -0.184385748301992
0.32753975049999456 -0.4064111033482172 -0.184385748301992
0.388837004507436 -0.236683860953751 -0.184385748301992
0.39453932438794614 -0.24384666200893032 -0.183634030050324
0.5088541928023145 -0.3920747624056918 -0.183634030050324
0.5161888151721609 -0.3467139353336119 -0.183634030050324
0.6712468128269344 -0.2495382430572737 -0.183634030050324
0.7298486199605378 -0.3202212363783985 -0.183634030050324
0.7269920906041992 -0.30448884725420405 -0.183634030050324
0.6700440636242654 -0.2530068858471132 -0.183634030050324
0.6950870202369765 -0.39226806138469217 -0.1822379818686549
0.5649968073697468 -0.2932667676400175 -0.1822379818686549
0.32753975049999456 -0.29155929332551445 -0.1822379818686549
0.395978327898282 -0.252566593728279 -0.1814862636169869
0.5046230929286403 -0.24626289924643466 -0.1814862636169869
0.520892423661169 -0.32175688937823455 -0.1814862636169869
0.6455487874520558 -0.4152599010535661 -0.1814862636169869
0.5956132178769676 -0.45079469669312877 -0.1814862636169869
0.6196682019303432 -0.4434171189946158 -0.1814862636169869
0.6137940607351662 -0.4332904002614313 -0.1814862636169869
0.7089186360676674 -0.2649806837129676 -0.18009021543531778
0.3886222278641024 -0.4064111033482172 -0.18009021543531778
0.3805358872425881 -0.3639819774576422 -0.18009021543531778
0.3936265236537778 -0.3902169444408553 -0.17933849718364978
0.5132571139906555 -0.3394652236210991 -0.17933849718364978
0.5024001546701364 -0.3096005313655464 -0.17933849718364978
0.5364529914706966 -0.17520404679947607 -0.17933849718364978
0.5164680248084946 -0.4728307802991677 -0.17933849718364978
0.5731797974807612 -0.19146263869983787 -0.17933849718364978
0.5716441444809252 -0.19531787944767812 -0.17933849718364978
0.6669942352889268 -0.1942547350631762 -0.1779424490019806
0.5827266192769447 -0.28350516920050023 -0.1779424490019806
0.48967463855261395 -0.2602019033987926 -0.1779424490019806
0.36513640191556096 -0.25926762500029094 -0.1771907307503126
0.37371672881674267 -0.26436857027946653 -0.1771907307503126
0.5003705153906329 -0.3918707245945249 -0.1771907307503126
0.5096488663826492 -0.47359323738300235 -0.1771907307503126
0.5165968907944949 -0.17060782663213434 -0.1771907307503126
0.7325548056665424 -0.3231529375599036 -0.1771907307503126
0.7320500805547082 -0.30846221515587774 -0.1771907307503126
0.7228146848913587 -0.3160545694977244 -0.1771907307503126
0.6445071207318872 -0.4488509680709587 -0.1757946825686435
0.5821252446756106 -0.22023197007438866 -0.1757946825686435
0.35531037048304354 -0.2405498405337578 -0.1757946825686435
0.36949636777523526 -0.3788015658476685 -0.1750429643169755
0.5098421653616495 -0.2463917652324349 -0.1750429643169755
0.5093696567463154 -0.2378543936599198 -0.1750429643169755
0.6386759348653769 -0.22026418657088873 -0.1750429643169755
0.6032270498831478 -0.4385631668552739 -0.1750429643169755
0.5456883871340462 -0.4574527726364739 -0.1750429643169755
0.6585749908702454 -0.399892632223039 -0.1750429643169755
0.7660062678657682 -0.3074098096035426 -0.1736469161353064
0.5616999858945745 -0.3215528515670675 -0.1736469161353064
0.3499087379032007 -0.25083764174944273 -0.1736469161353064
0.39575281242278165 -0.2523518170849453 -0.17289519788363839
0.5464401053857141 -0.3988509655028704 -0.17289519788363839
0.5109804815713183 -0.38458979638551205 -0.17289519788363839
0.7030122783759905 -0.27924185283032615 -0.17289519788363839
0.6084461223161569 -0.20689434052336508 -0.17289519788363839
0.6276793707266908 -0.2288445134720706 -0.17289519788363839
0.6713971564772678 -0.3657001906043121 -0.17289519788363839
0.7518524870700767 -0.35154640980862045 -0.17149914970196928
0.49831939844679596 -0.30662587485537446 -0.17149914970196928
0.4137296174698133 -0.25083764174944273 -0.17149914970196928
0.3681325360900662 -0.25716281389562057 -0.17074743145030127
0.519184949346666 -0.27844717924999146 -0.17074743145030127
0.49587094471279153 -0.23526633510774858 -0.17074743145030127
0.6236630474963504 -0.43320448960409785 -0.17074743145030127
0.6218481848601805 -0.20896693513153553 -0.17074743145030127
0.5794083201374389 -0.18287157296648957 -0.17074743145030127
0.5250805682061764 -0.1615012969547851 -0.17074743145030127
0.32753975049999456 -0.3781250194211673 -0.16935138326863217
0.4136759233089799 -0.39226806138469217 -0.16935138326863217
0.591843887786461 -0.4677405738521587 -0.16935138326863217
0.36657540542589684 -0.25971865595129173 -0.16859966501696416
0.39471114570261306 -0.24082905017009174 -0.16859966501696416
0.5510470643852223 -0.4034794021667121 -0.16859966501696416
0.5241462898076749 -0.17016753451330027 -0.16859966501696416
0.6528726709897352 -0.2816688288999971 -0.16859966501696416
0.5222133000176714 -0.16230670936728642 -0.16859966501696416
0.546236067574547 -0.1850515558963265 -0.16859966501696416
0.6387081513618771 -0.18011169309965133 -0.167203616835295
0.6669942352889268 -0.43742485064560527 -0.167203616835295
0.3841119183540944 -0.3498389354941174 -0.167203616835295
0.4914358070279504 -0.4142826673263978 -0.167203616835295
0.35778030188138127 -0.3962521681185326 -0.166451898583627
0.5075762717744788 -0.3567976987381296 -0.166451898583627
0.5231905337448398 -0.37662158291783127 -0.166451898583627
0.725875252058864 -0.3082689161768774 -0.166451898583627
0.651551794633233 -0.4050257939987147 -0.166451898583627
0.5717622716347589 -0.45006445610579415 -0.166451898583627
0.6841763667556238 -0.27170319264931286 -0.166451898583627
0.7094233611795016 -0.24740121545610327 -0.1650558504019579
0.6306432884046961 -0.4488509680709587 -0.1650558504019579
0.5623765323210755 -0.39226806138469217 -0.1650558504019579
0.32753975049999456 -0.3215528515670675 -0.1650558504019579
0.39793279535261883 -0.3984214122162031 -0.16430413215028988
0.5060620964389762 -0.2400451154219236 -0.16430413215028988
0.5102072856553169 -0.23752148986275248 -0.16430413215028988
0.6564164856047416 -0.41140466030572603 -0.16430413215028988
0.5147390728296583 -0.1618556784162856 -0.16430413215028988
0.6001342662191422 -0.20507947788719524 -0.16430413215028988
0.7055573815994949 -0.34519975999810915 -0.16430413215028988
0.7016699243551549 -0.236683860953751 -0.1637671905419556
0.3800848562915873 -0.2791237256764927 -0.16290808396862078
0.49726699289446075 -0.3421391928306038 -0.16290808396862078
0.7235664031430267 -0.27581616536915343 -0.16290808396862078
0.3729327940685747 -0.3894330096926872 -0.16215636571695277
0.5211286779688361 -0.24529640435143293 -0.16215636571695277
0.5114744678509857 -0.38772553537818427 -0.16215636571695277
0.5203232655563347 -0.16996349670213318 -0.16215636571695277
0.5490496416022187 -0.17642827366647795 -0.16215636571695277
0.5743073748582633 -0.17960696798781714 -0.16215636571695277
0.6300419138033616 -0.2015786186008558 -0.16215636571695277
0.5611523054540735 -0.4098367908093899 -0.1616194241086185
0.3800419009629205 -0.3215528515670675 -0.1616194241086185
0.49726699289446075 -0.34467355722194165 -0.1616194241086185
0.7201299768496873 -0.2649806837129676 -0.1616194241086185
0.37470470137607775 -0.38966926400035434 -0.16000859928361566
0.5474602944415492 -0.39924830229303787 -0.16000859928361566
0.5114744678509857 -0.37105886785548814 -0.16000859928361566
0.6113133905046619 -0.4421606756311135 -0.16000859928361566
0.6719340980856022 -0.24380370668026366 -0.16000859928361566
0.6985234465303158 -0.3855885077770137 -0.16000859928361566
0.5311694860446872 -0.48436428604618803 -0.16000859928361566
0.6848099578534581 -0.37637458977799754 -0.16000859928361566
0.7660062678657682 -0.2932667676400175 -0.15947165767528138
0.49726699289446075 -0.3074098096035426 -0.15947165767528138
0.49726699289446075 -0.2649806837129676 -0.15947165767528138
0.3740711102782433 -0.25368343227361445 -0.15786083285027855
0.3938627779614449 -0.24320233207892913 -0.15786083285027855
0.5518954321263904 -0.23930413600242229 -0.15786083285027855
0.5803640762002739 -0.4567440097134726 -0.15786083285027855
0.6816742188607859 -0.25151418817594384 -0.15786083285027855
0.680621813308451 -0.3817440058613404 -0.15786083285027855
0.5962897643034687 -0.20219073203435692 -0.15786083285027855
0.5786458630536042 -0.1762242358553112 -0.15786083285027855
0.6730509366309374 -0.2225408189902261 -0.15732389124194426
0.49726699289446075 -0.31197381327438395 -0.15732389124194426
0.49408829857312175 -0.2619845495384624 -0.15732389124194426
0.37458657422224423 -0.2533397896442804 -0.15571306641694138
0.392531162772776 -0.24383592317676372 -0.15571306641694138
0.5165002413049947 -0.37351806042165914 -0.15571306641694138
0.5445178544278774 -0.34496350569044215 -0.15571306641694138
0.7114530004590054 -0.35996565422730187 -0.15571306641694138
0.6168224114061717 -0.2083870381945345 -0.15571306641694138
0.535067682121194 -0.1613831698009516 -0.15571306641694138
0.7166828117241812 -0.2704574881179774 -0.15571306641694138
0.7103576395780035 -0.31461556598738855 -0.15571306641694138
0.4915324565174506 -0.25948240164362457 -0.15474657152193969
0.49726699289446075 -0.3356958935305923 -0.15474657152193969
0.612333579560497 -0.18283935646998936 -0.15474657152193969
0.35976698583221817 -0.24560783048426676 -0.15356529998360427
0.5159310832001603 -0.2720575741108135 -0.15356529998360427
0.5094555674036488 -0.40657218583071747 -0.15356529998360427
0.6868503359651283 -0.3897766523220211 -0.15356529998360427
0.6847240471961249 -0.252566593728279 -0.15356529998360427
0.6234375320208498 -0.44191368249127977 -0.15356529998360427
0.6855831537694596 -0.2678157354049726 -0.15356529998360427
0.6443030829207201 -0.2095253544042031 -0.15356529998360427
0.32753975049999456 -0.3215528515670675 -0.15216925180193516
0.45483786700388584 -0.4347079261074338 -0.15216925180193516
0.6557292003460735 -0.4347079261074338 -0.15216925180193516
0.5365711186245301 -0.17222939028930398 -0.15141753355026716
0.6333387352785342 -0.2221971763608922 -0.15141753355026716
0.6994684637609841 -0.3560889358151283 -0.15141753355026716
0.6845951812101246 -0.3912908276575238 -0.15141753355026716
0.6960749927963115 -0.39044245991635573 -0.15141753355026716
0.5087575433128143 -0.3680305171844828 -0.15141753355026716
0.5170586605776623 -0.3214132467489005 -0.15141753355026716
0.3562231712172119 -0.39499572475503036 -0.15141753355026716
0.5562768756503981 -0.2283075718637362 -0.15002148536859805
0.5821252446756106 -0.20839777702670106 -0.15002148536859805
0.7518524870700767 -0.35154640980862045 -0.15002148536859805
0.535411324750528 -0.17193944182080362 -0.14926976711693005
0.665866657911425 -0.2462306827499346 -0.14926976711693005
0.7379349605820519 -0.3397873885860995 -0.14926976711693005
0.5817386467176098 -0.45271694765096554 -0.14926976711693005
0.51764929634683 -0.3146263048195553 -0.14926976711693005
0.5077695707534793 -0.23994846593242344 -0.14926976711693005
0.36440616132822634 -0.2585696009094564 -0.14926976711693005
0.3939379497866118 -0.2425043079880946 -0.14926976711693005
0.4126557342531448 -0.2649806837129676 -0.14787371893526094
0.5033236942364714 -0.3391752751525986 -0.14787371893526094
0.7084246497879999 -0.3874570645740171 -0.14787371893526094
