0.11092719572906275 0.12826143247051427 -0.07407065798164447
-0.01718098710424812 0.20532897224635857 -0.07407065798164447
0.09236696188998395 0.10272834013868076 -0.07407065798164447
0.06636560677780666 0.2696597643968536 -0.07407065798164447
0.1895357457456747 0.6187709518149377 -0.07407065798164447
0.18588329605899356 0.5590206210430778 -0.07407065798164447
0.2525298605050066 0.5730855321908567 -0.07407065798164447
0.15113819775748882 0.2198791739119483 -0.07364496454496837
0.22944024849969394 0.6673851422833504 -0.07296385504628658
0.11891320460110673 0.10326471386889258 -0.07296385504628658
-0.060942272394553035 0.22661364408016446 -0.07296385504628658
0.18574707415925718 -0.2808725295189025 -0.07296385504628658
0.2858105733843454 -0.24736194218375854 -0.07236788423494
0.18062172518167668 -0.20369430944952233 -0.07236788423494
0.5612853101261948 0.1912725749673132 -0.07236788423494
0.283750217150833 0.2320965755445529 -0.07236788423494
0.25781697298852396 0.24499508667583927 -0.07236788423494
0.2272436703664451 0.2571103218836416 -0.07236788423494
0.1466003057225214 0.2117824847463686 -0.07236788423494
0.09171139399750274 0.29674238083818816 -0.07236788423494
0.13010042811695505 0.07272546672174797 -0.07236788423494
-0.021344268914940588 0.19462703924832103 -0.07236788423494
0.2600305788592398 0.5777000490444258 -0.07236788423494
0.2431305494231978 0.5860436404032778 -0.07236788423494
0.2362939128301794 0.5814291235497088 -0.07236788423494
0.17661169300818774 -0.27798632801823847 -0.07194219079826389
0.23384191863492496 0.6767418840214915 -0.0712610812995821
-0.060942272394553035 0.11583118411957156 -0.0712610812995821
0.1633215439151593 0.1481242882258219 -0.0712610812995821
0.26466212345027595 -0.2891309821904192 -0.0712610812995821
0.24362435380974215 -0.21626929356893487 -0.07066511048823552
0.2091176438327761 -0.2557225612800775 -0.07066511048823552
0.6453342222635275 0.19211544797193195 -0.07066511048823552
0.22729475357884624 0.1287978062007262 -0.07066511048823552
0.1369540924474406 0.21506883807750818 -0.07066511048823552
0.07117594261224688 0.09777326853577069 -0.07066511048823552
0.13105398141510963 0.3170905271113066 -0.07066511048823552
0.0682727133741157 0.1101439198055787 -0.07066511048823552
0.23876293476290092 0.5673982678768639 -0.07066511048823552
0.19105972824897507 0.5816760257429808 -0.07066511048823552
0.22944024849969394 0.6762991628473484 -0.07023941705155942
0.2756279863790527 0.6975838346811543 -0.06955830755287763
0.16340668260249455 0.6415114952021759 -0.06955830755287763
-0.02730397702840626 0.24903917432426234 -0.06955830755287763
0.17661169300818774 -0.2891990931402874 -0.06955830755287763
0.28667047412643115 -0.32284590237516775 -0.06955830755287763
0.19059146546863143 -0.19802407287299648 -0.06896233674153106
0.27609624915939635 -0.25514361820619796 -0.06896233674153106
0.5691350970985023 0.18395064785648396 -0.06896233674153106
0.13794170122052918 0.25291298459801514 -0.06896233674153106
0.13894633773108478 0.21401311835455145 -0.06896233674153106
0.09675160428774797 0.2999095400070585 -0.06896233674153106
0.0027244379947270955 0.14119399907673477 -0.06896233674153106
0.05762186358847931 0.11620579434384663 -0.06896233674153106
0.195180440716 0.5668533802779183 -0.06896233674153106
0.24407558885261882 0.6063832728076626 -0.06896233674153106
0.16340668260249455 -0.26677356289618953 -0.06853664330485494
0.1701837221143783 -0.2555607977741406 -0.06785553380617317
0.273465463720738 0.14138130418887218 -0.06785553380617317
0.017547083459789514 0.09205194874684369 -0.06785553380617317
0.1745343090372083 0.6975838346811543 -0.06785553380617317
0.20629103941324659 -0.2761643601092647 -0.06725956299482659
0.2055929021770978 -0.24972028382294423 -0.06725956299482659
0.5911179061684572 0.1915024494231183 -0.06725956299482659
0.2603370781336465 0.2462891947233347 -0.06725956299482659
0.14825199625682475 0.12970879015521308 -0.06725956299482659
0.07203584335433263 0.28948005080849354 -0.06725956299482659
0.08049862887545386 0.29736389325573526 -0.06725956299482659
0.1273674762534944 0.06916666959113557 -0.06725956299482659
0.18148162592376244 0.6324527388697082 -0.06725956299482659
0.2117824847463686 0.6619873495062971 -0.06725956299482659
0.29788323924848015 -0.3116331372531188 -0.06683386955815047
0.24704692904061815 0.6941612594502781 -0.06683386955815047
0.29312398662644107 -0.2924513909964929 -0.0661527600594687
0.09205194874684369 0.10518033433393517 -0.0661527600594687
0.039972613703887404 0.3051115138032406 -0.0661527600594687
0.18874395595345708 -0.213076592793864 -0.06555678924812214
0.2473278867088244 -0.2539687043209719 -0.06555678924812214
0.5658657715048299 0.19242194724633876 -0.06555678924812214
0.23000216383610644 0.24439911586449276 -0.06555678924812214
0.11258740013209954 0.12488142658330585 -0.06555678924812214
0.06832379658651683 0.09827558679104849 -0.06555678924812214
0.042714079436081624 0.1097522818438366 -0.06555678924812214
0.05478674530021626 0.11303863517497632 -0.06555678924812214
0.19725782468697944 0.5882742740114607 -0.06555678924812214
0.24028691726620144 0.6137222276559591 -0.06555678924812214
0.20303022768830756 -0.32284590237516775 -0.06513109581144601
-0.016091211906357258 0.26025193944631136 -0.0644499863127642
0.0905194523748096 0.11447747899094157 -0.0644499863127642
0.1942268874178454 -0.3124589825202705 -0.0644499863127642
0.2530236648915508 -0.25268311014221 -0.06385401550141764
0.5677047671512707 0.19155353263551944 -0.06385401550141764
0.5435424076855341 0.19510381589739828 -0.06385401550141764
0.1446421159138112 0.21267644096338836 -0.06385401550141764
0.13806940925153202 0.3125696628138062 -0.06385401550141764
0.10429489198564885 0.08602412968350988 -0.06385401550141764
0.10701932998037596 0.31176084528412157 -0.06385401550141764
0.028904584350308363 0.13201604858199764 -0.06385401550141764
0.22314849950562088 0.6162849021447492 -0.06385401550141764
0.2671822285953985 0.6588457319436274 -0.06385401550141764
0.20303022768830756 0.7052378026725908 -0.06274721256605974
0.08483218806081674 0.24903917432426234 -0.06274721256605974
0.05241137592356355 0.09205194874684369 -0.06274721256605974
0.22075610239150106 -0.2289890134568173 -0.06215124175471317
0.24975433929787824 -0.287138736906775 -0.06215124175471317
0.5458666938497857 0.19227721147786891 -0.06215124175471317
0.25304069262901785 0.24313054942319792 -0.06215124175471317
0.1459277100925732 0.1266097419362109 -0.06215124175471317
0.05598720079164295 0.10730880151731577 -0.06215124175471317
0.0905194523748096 0.08329117782004922 -0.06215124175471317
0.030649927440680434 0.2541900649080434 -0.06215124175471317
0.18801176324237417 0.6224404292390859 -0.06215124175471317
0.26357234825238507 0.6880227600934085 -0.06215124175471317
0.1745343090372083 0.6978222230056927 -0.06104443881935528
0.1633215439151593 0.23782640920221346 -0.06104443881935528
0.18541503327864978 -0.32284590237516775 -0.06104443881935528
0.19860301594687596 -0.26682464610859064 -0.06044846800800871
0.5839832841697653 0.1914087968670496 -0.06044846800800871
0.25781697298852396 0.24400747790275068 -0.06044846800800871
0.139389058905228 0.2489114662932595 -0.06044846800800871
0.13939757277396145 0.3153366701522011 -0.06044846800800871
0.08067742011885784 0.0949892334599089 -0.06044846800800871
0.08264412379630146 0.3032725181567999 -0.06044846800800871
-0.04816295542553606 0.12233577983198272 -0.06044846800800871
0.21434515923515873 0.634240651303748 -0.06044846800800871
0.1745343090372083 -0.30334062910666804 -0.060022774571332586
0.11111450084120016 0.11938146738145039 -0.05934166507265081
0.006112957750668961 0.12569875798172403 -0.05934166507265081
0.18177109746070225 -0.2630530022596403 -0.05874569426130424
0.5470501216037453 0.19207287862826436 -0.05874569426130424
0.2637766811019896 0.2495329787108067 -0.05874569426130424
0.11054407163605422 0.2605669525894516 -0.05874569426130424
0.04247569111154295 0.11271510816310239 -0.05874569426130424
-0.022570266012567855 0.17296775719024018 -0.05874569426130424
0.03756318885230057 0.11916010679437884 -0.05874569426130424
0.18140500110516072 0.6764438986158182 -0.05874569426130424
0.20027173421864633 0.6691219715049889 -0.05874569426130424
0.1633215439151593 0.13691152310377303 -0.057638891325946344
-0.05914584609177983 0.11232347020136042 -0.057638891325946344
0.18809690192970932 -0.29748308741800467 -0.057042920514599776
0.5862479732528824 0.1920643647595308 -0.057042920514599776
0.2523340415241355 0.14257324581156533 -0.057042920514599776
0.1495375904355866 0.25853213796213986 -0.057042920514599776
0.03659260781667898 0.12000297979899759 -0.057042920514599776
0.13291851866775098 0.07727187262544884 -0.057042920514599776
0.13860578298174395 0.3064567050631372 -0.057042920514599776
0.18532989459131463 0.6603441728407274 -0.057042920514599776
0.19207287862826425 0.6621491130122341 -0.057042920514599776
0.006334318337740631 0.2826859835591428 -0.05593611757924185
0.10639781756282887 0.26455995702547364 -0.05593611757924185
0.2123188584765804 -0.280668196669298 -0.05534014676789528
0.2580127919693949 0.24409261659008594 -0.05534014676789528
0.1473154706961373 0.12935120766840513 -0.05534014676789528
0.11820655349622439 0.07692280400737446 -0.05534014676789528
0.0064194570250757765 0.24920945169893288 -0.05534014676789528
0.1312498003959806 0.0659739688160647 -0.05534014676789528
0.2260091594000844 0.6724423803110627 -0.05534014676789528
0.21466868624703267 0.6848811425307387 -0.05534014676789528
0.16172093659325706 0.12569875798172403 -0.05423334383253738
-0.07215503751660203 0.21540087895811558 -0.05423334383253738
0.2465956939977415 -0.30993036350641434 -0.053637373021190815
0.5801350155022132 0.19644049328856125 -0.053637373021190815
0.26659477165278544 0.2520445699871958 -0.053637373021190815
0.14438669985180552 0.24538672463758135 -0.053637373021190815
0.1074365095483186 0.3061246641825297 -0.053637373021190815
0.14169631733201257 0.31058593139889545 -0.053637373021190815
0.01486521480872999 0.244892920251037 -0.053637373021190815
0.19768351812365553 0.6952510346481691 -0.053637373021190815
0.2725800213724517 0.150814670745615 -0.052530570085832916
-0.016091211906357258 0.25120169698257705 -0.052530570085832916
0.1965682013195641 -0.3111137912603739 -0.05193459927448635
0.5651676342686811 0.19919047288948905 -0.05193459927448635
0.13661353769809964 0.13252688070600901 -0.05193459927448635
0.1368348982851712 0.1706264432885215 -0.05193459927448635
0.02946649968672086 0.26525809426162245 -0.05193459927448635
-0.013852064429440954 0.23312675366130906 -0.05193459927448635
-0.0483672882751406 0.1355833595813435 -0.05193459927448635
-0.04655383423490027 0.261827005162013 -0.050827796339128456
0.0018730511213749085 0.26026045331504494 -0.050827796339128456
0.2726225907161194 0.17145228855567313 -0.050827796339128456
0.5654485919368872 0.19910533420215376 -0.05023182552778189
0.13647731579836336 0.1324672836248743 -0.05023182552778189
0.13669867638543493 0.1704902213887851 -0.05023182552778189
0.05203676569928859 0.104380030672984 -0.05023182552778189
0.10242184086427394 0.08818665234182448 -0.05023182552778189
-0.009773921306083752 0.21420893733542243 -0.05023182552778189
-0.0038823241424862202 0.26025193944631136 -0.049806132091105765
0.1521087787931104 0.1788763820913046 -0.04912502259242399
-0.03518781947564798 0.21540087895811558 -0.04912502259242399
0.6416988003143133 0.1920473370220638 -0.04852905178107742
0.25236809699906965 0.24030394500366845 -0.04852905178107742
0.15496092481884033 0.24571025164945517 -0.04852905178107742
0.009016186988800154 0.13845253334454055 -0.04852905178107742
0.12996420621721877 0.06694454985168628 -0.04852905178107742
-0.018475095151743528 0.21320430082486685 -0.04852905178107742
-0.02471576093341545 0.24903917432426234 -0.047422248845719495
0.08483218806081674 0.27281840969699034 -0.047422248845719495
0.6114319969666415 0.19521449619093412 -0.04682627803437293
0.25392613497730415 0.23873739315670034 -0.04682627803437293
0.10878170080821514 0.2590599978236182 -0.04682627803437293
0.005755375263861008 0.1412450822891359 -0.04682627803437293
0.04389750719004119 0.28128970908684514 -0.04682627803437293
-0.03397885011548772 0.20759366132947557 -0.04682627803437293
-0.05598720079164308 0.22011756223648699 -0.04682627803437293
0.02973042961745998 0.10326471386889258 -0.04571947509901503
0.27275881261585566 0.1929753487140177 -0.04571947509901503
0.2582767219001342 0.24434803265209162 -0.04512350428766846
0.14440372758927267 0.25656543428469614 -0.04512350428766846
0.12394490102261839 0.3112840686350442 -0.04512350428766846
0.1356770121374122 0.06659548123361189 -0.04512350428766846
0.1281166967020443 0.06374333520788183 -0.04512350428766846
-0.010259211823894545 0.22536210537633675 -0.04512350428766846
0.10310295036295572 0.22661364408016446 -0.04401670135231056
-0.06135945196249568 0.21540087895811558 -0.04401670135231056
0.6422011185695914 0.1920473370220638 -0.043420730540963993
0.25250431889880603 0.24042313916593772 -0.043420730540963993
0.149707867810257 0.16213811616119972 -0.043420730540963993
0.10012309630622282 0.08830584650409387 -0.043420730540963993
-0.019769203199238933 0.22927848499375697 -0.043420730540963993
0.07509232222966712 0.29100403331179403 -0.043420730540963993
0.08483218806081674 0.11447747899094157 -0.0423139276056061
-0.0435910079156345 0.2453611830313808 -0.0423139276056061
-0.08877410928443766 0.20418811383606658 -0.0423139276056061
0.25728059925831204 0.23971648806105536 -0.041717956794259534
0.14287974508597215 0.19955656924503043 -0.041717956794259534
0.13327610115455893 0.06673170313334817 -0.041717956794259534
-0.036294622411005846 0.186036545696197 -0.041717956794259534
0.0984288364282519 0.30795514596023704 -0.041717956794259534
0.28667047412643115 0.22661364408016446 -0.040611153858901634
0.1521087787931104 0.21540087895811558 -0.040611153858901634
-0.0638284738952171 0.1817625835919688 -0.040611153858901634
0.6088948640840518 0.18944209318960586 -0.04001518304755507
0.2536196357028975 0.24003150120419575 -0.04001518304755507
0.11134437529700528 0.2618355190307464 -0.04001518304755507
0.05126200364453811 0.0991610291393348 -0.04001518304755507
-0.020884520003330364 0.202970630607173 -0.04001518304755507
0.03456630705810066 0.2675398110822064 -0.04001518304755507
0.11847048342696351 0.3275370440473386 -0.03958948961087894
0.08483218806081674 0.3275370440473386 -0.03890838011219714
0.0049210161279758255 0.15135955834456036 -0.03890838011219714
0.10269428466374664 0.23782640920221346 -0.03890838011219714
0.6184985080154649 0.1943460815801148 -0.03831240930085057
0.23732409094693566 0.1285083346637864 -0.03831240930085057
0.14405465897119815 0.12588606309386155 -0.03831240930085057
0.1245068163590309 0.07433458791238363 -0.03831240930085057
-0.027389115715741406 0.1792509923155797 -0.03831240930085057
0.04613665466695762 0.2798082959272122 -0.03831240930085057
-0.05671087963399242 0.2092879212074465 -0.037886715864174476
0.09334605679433909 0.3275370440473386 -0.03720560636549267
-0.0038823241424862202 0.15809402851277665 -0.03720560636549267
0.08483218806081674 0.22661364408016446 -0.03720560636549267
0.6025520318775777 0.18946763479580642 -0.036609635554146105
0.25371328825896616 0.24376057570947857 -0.036609635554146105
0.14792846924495093 0.2591536503796869 -0.036609635554146105
0.04913353646115752 0.10411610074224488 -0.036609635554146105
-0.03086277415901854 0.20141259262893835 -0.036609635554146105
-0.056123422691379356 0.1507550736644803 -0.036609635554146105
0.11563536513870058 0.3171330964549742 -0.036609635554146105
0.2730312564153283 0.13691152310377303 -0.035502832618788206
-0.02730397702840626 0.24903917432426234 -0.035502832618788206
0.014192619178781781 0.1481242882258219 -0.035502832618788206
0.6534394252978408 0.19312008448248752 -0.03490686180744164
0.13595796980561844 0.1408960136710614 -0.03490686180744164
0.1458425714052379 0.2243830104719816 -0.03490686180744164
0.12727382369742568 0.1924900581962069 -0.03490686180744164
-0.029883679254663512 0.20533748611509214 -0.03490686180744164
-0.05272638906670405 0.23023203829191155 -0.03490686180744164
0.10775152269145886 0.3146300190473185 -0.03490686180744164
0.22537913311380375 0.1223783491756503 -0.03380005887208374
-0.035775276418261046 0.2200920206302864 -0.03380005887208374
-0.02730397702840626 0.1481242882258219 -0.03380005887208374
0.25979219053470115 0.24720869254655514 -0.03320408806073717
0.14505929548175386 0.1323736310688056 -0.03320408806073717
0.11698907026733069 0.2524106663427372 -0.03320408806073717
0.1102375723616474 0.07061402727583439 -0.03320408806073717
-0.03064992744068055 0.17402347691319692 -0.03320408806073717
-0.04878446784308313 0.21265941322592136 -0.03320408806073717
0.09737311670529517 0.3189635782326815 -0.03277839462406105
-0.04655383423490027 0.14846484297516285 -0.03209728512537928
-0.025464981381965363 0.23782640920221346 -0.03209728512537928
0.15045708825880705 0.17900409012230745 -0.03209728512537928
0.25723802991464445 0.2472682896276897 -0.03150131431403271
0.14492307358201748 0.13232254785640446 -0.03150131431403271
0.13601756688675315 0.22757571124705248 -0.03150131431403271
0.10873913146454746 0.07066511048823552 -0.03150131431403271
-0.021429407602275855 0.16687182717703813 -0.03150131431403271
-0.05523798034309304 0.19116189467377748 -0.03150131431403271
0.10506114017166578 0.2998839984008578 -0.03150131431403271
0.1521087787931104 0.21540087895811558 -0.03039451137867478
-0.04367614660296976 0.22526845282026803 -0.03039451137867478
-0.04355695244070037 0.16595232935381768 -0.03039451137867478
0.5831659527713471 0.19856896047194184 -0.029798540567328214
0.1378225070582598 0.1868283354884146 -0.029798540567328214
0.15348802552794097 0.24628068085460111 -0.029798540567328214
0.06181068700537223 0.10031040141836037 -0.029798540567328214
-0.033050838423533825 0.19501016334132956 -0.029798540567328214
-0.047839428413662115 0.20282589483870303 -0.029798540567328214
0.09332902905687197 0.31089243067330224 -0.029798540567328214
0.1633215439151593 0.24903917432426234 -0.028691737631970318
-0.060942272394553035 0.10326471386889258 -0.028691737631970318
0.07975792229563738 0.3163242789252896 -0.028691737631970318
0.2567271977906331 0.24606783413626312 -0.02809576682062375
0.13955933627989842 0.2235316235986294 -0.02809576682062375
0.14458251883267664 0.2611714372695318 -0.02809576682062375
-0.030454108459809573 0.17463647546201055 -0.02809576682062375
-0.025473495250698926 0.1580770007753095 -0.02809576682062375
0.08955738520792159 0.3020465210591726 -0.02809576682062375
0.0841255369559344 0.3163242789252896 -0.027670073383947627
-0.08536856179102867 0.18767972236176678 -0.02698896388526585
0.08483218806081674 0.2826859835591428 -0.02698896388526585
0.5660275350107669 0.19094904795543938 -0.026392993073919284
0.23763059022134247 0.12821034925811314 -0.026392993073919284
0.11046744681745252 0.127035435372887 -0.026392993073919284
0.11617173886891251 0.08288251212084012 -0.026392993073919284
-0.0458897524736855 0.17463647546201055 -0.026392993073919284
-0.04638355686022986 0.20452866858540752 -0.026392993073919284
0.11544806002656303 0.3028893940637913 -0.026392993073919284
-0.0060874161444685135 0.12930863832473755 -0.025286190138561388
-0.03249743695585489 0.22661364408016446 -0.025286190138561388
0.08483218806081674 0.11447747899094157 -0.025286190138561388
0.5881295382429909 0.19423540128657896 -0.02469021932721482
0.2275927389845196 0.24230470415604619 -0.02469021932721482
0.1539392605708176 0.2624314898420931 -0.02469021932721482
0.07928114564656015 0.07765499671845737 -0.02469021932721482
-0.03444711289583151 0.16794457463746199 -0.02469021932721482
0.04607705758582292 0.2810257791561059 -0.02469021932721482
-0.08617737932071329 0.20418811383606658 -0.024264525890538697
-0.007279357767161648 0.1672038680576455 -0.02358341639185692
-0.06045698187674224 0.23189224269494835 -0.02358341639185692
0.10149382917231993 0.1481242882258219 -0.02358341639185692
0.5645376079824003 0.1878159442615032 -0.022987445580510354
0.26478983148127877 0.18704969607548613 -0.022987445580510354
0.1424795932554966 0.1321352427442669 -0.022987445580510354
0.07289574409641839 0.0819970697725538 -0.022987445580510354
-0.016874487829841304 0.21592022495086038 -0.022987445580510354
-0.04595786342355376 0.1789785485161069 -0.022987445580510354
0.05215595986155787 0.2984366407161591 -0.02256175214383423
-0.007594370910302028 0.1272908514348927 -0.021880642645152427
-0.004878446784308373 0.21540087895811558 -0.021880642645152427
0.08483218806081674 0.27281840969699034 -0.021880642645152427
0.623044913919166 0.1974962130115181 -0.02128467183380586
0.26736101983880245 0.25296406781041625 -0.02128467183380586
0.14600433491117487 0.25859173504327443 -0.02128467183380586
0.05316059637211359 0.1083815489777395 -0.02128467183380586
-0.07834462008587283 0.20334524083144795 -0.02128467183380586
0.0382528122197159 0.27214581406704214 -0.02128467183380586
0.27545770900438227 0.1593370533478709 -0.020858978397129767
0.017547083459789514 0.24522496113164438 -0.02017786889844796
0.08483218806081674 0.1593370533478709 -0.02017786889844796
0.577325438820151 0.18621533693960096 -0.019581898087101392
0.26487497016861394 0.17448322582480716 -0.019581898087101392
0.11339621766178416 0.13924432313675805 -0.019581898087101392
0.10892643657668499 0.08395525958126386 -0.019581898087101392
-0.012770803100283534 0.22176073890205678 -0.019581898087101392
0.037793063308105675 0.28016587841402013 -0.019581898087101392
-0.008283994277717243 0.12763992005296707 -0.01915620465042527
-0.004878446784308373 0.2701195133084638 -0.01915620465042527
0.273465463720738 0.22661364408016446 -0.01915620465042527
0.25900040074248354 0.2449865728071057 -0.01787912434039693
0.2681442957622865 0.13469791723305716 -0.01787912434039693
0.14614055681091118 0.2589918868737501 -0.01787912434039693
-0.03800591002644378 0.18813947127337702 -0.01787912434039693
-0.05333938761551756 0.17885084048510405 -0.01787912434039693
0.0817842230542157 0.30938547590746884 -0.01787912434039693
0.10514627885900105 0.11900685715717543 -0.017453430903720805
-0.016431766655698204 0.1481242882258219 -0.017453430903720805
-0.004878446784308373 0.2496692006105431 -0.017453430903720805
0.2586428182556756 0.24532712755644664 -0.016176350593692462
0.14144090127000689 0.21653322349967402 -0.016176350593692462
0.12037759002327256 0.24797494073257206 -0.016176350593692462
-0.023259889379983068 0.22004945128661885 -0.016176350593692462
0.0520537934367556 0.28515500549186423 -0.016176350593692462
-0.016091211906357258 0.26025193944631136 -0.01575065715701634
-0.012685664412948387 0.13162441062025557 -0.015069547658334567
-0.002877687631930625 0.23216468649442104 -0.015069547658334567
0.1588517628300601 0.12036056228580555 -0.015069547658334567
0.6327336965379143 0.18737322308735996 -0.014473576846987999
0.2698981527213921 0.16582462132281495 -0.014473576846987999
0.14179848375681484 0.2540793846145077 -0.014473576846987999
-0.00534670956465204 0.13204159018819822 -0.014473576846987999
-0.032386756662319056 0.21983660456828072 -0.014473576846987999
0.018126026533669015 0.09205194874684369 -0.014047883410311875
0.15020167219680136 0.20418811383606658 -0.014047883410311875
-0.060942272394553035 0.22661364408016446 -0.01336677391163007
0.10069352551136888 0.13863132458794453 -0.01336677391163007
0.6252159504462143 0.19717268599964416 -0.012770803100283503
0.26583703733550196 0.25396870432097185 -0.012770803100283503
0.144182367002201 0.1708818593505272 -0.012770803100283503
0.01644879439316509 0.11655486296192102 -0.012770803100283503
-0.03351910120387761 0.22010053449901998 -0.012770803100283503
0.02252769666890016 0.09795205977917466 -0.01234510966360741
0.018126026533669015 0.10860290956481117 -0.011664000164925605
0.08483218806081674 0.1593370533478709 -0.011664000164925605
0.5613108517323954 0.19289872389541599 -0.011068029353579038
0.25334719190342464 0.24123195669562245 -0.011068029353579038
0.14405465897119815 0.17345304770805087 -0.011068029353579038
-0.03506862531337858 0.17221853674169016 -0.011068029353579038
-0.002307258426784565 0.134842653001527 -0.011068029353579038
-0.0018985927275754766 0.13126682813344762 -0.011068029353579038
-0.060942272394553035 0.11447747899094157 -0.00996122641822114
0.09334605679433909 0.1705498184699198 -0.00996122641822114
0.5635925685529793 0.19023388298182348 -0.009365255606874573
0.26673099355252183 0.16139740958138324 -0.009365255606874573
0.11933889803778282 0.13892930999361777 -0.009365255606874573
-0.035792304155728046 0.21416636799175487 -0.009365255606874573
0.0295942077177237 0.27613881850306404 -0.009365255606874573
-0.035434721668920095 0.16427509721331388 -0.009365255606874573
-0.02730397702840626 0.24769398306436594 -0.008258452671516675
0.09315875168220156 0.1481242882258219 -0.008258452671516675
0.570122705871591 0.19228572534660235 -0.007662481860170108
0.25925581680448917 0.14065762534652285 -0.007662481860170108
0.10750462049818675 0.2627124475102993 -0.007662481860170108
-0.03036045590374074 0.1742192958940679 -0.007662481860170108
-0.02930473618078401 0.21917252280706595 -0.007662481860170108
0.021557115633278574 0.1115146526716758 -0.007662481860170108
-0.03052221940967771 0.23633648217384706 -0.00655567892481221
0.27320153378999884 0.19976941596336853 -0.00655567892481221
0.2579021116758592 0.2479068297827039 -0.0059597081134656425
0.23963134937372021 0.13034733031022727 -0.0059597081134656425
0.15161497440656604 0.13893782386235135 -0.0059597081134656425
0.056268158459849206 0.0992035984830025 -0.0059597081134656425
-0.02446885874014333 0.20882817229583628 -0.0059597081134656425
-0.07656522152056662 0.19590411955834933 -0.0059597081134656425
-0.0038823241424862202 0.26123103435066636 -0.004852905178107715
0.26466212345027595 0.18248626243431815 -0.004852905178107715
0.25795319488826024 0.24794939912637148 -0.004256934366761148
0.26612650887244177 0.13177766025745896 -0.004256934366761148
0.1520491817119757 0.12830400181418183 -0.004256934366761148
0.012949594343687509 0.13220335369413508 -0.004256934366761148
-0.09314172394473468 0.19208990636573137 -0.004256934366761148
-0.060942272394553035 0.1593370533478709 -0.00315013143140325
0.09604495318286563 0.13691152310377303 -0.00315013143140325
0.28667047412643115 0.22661364408016446 -0.00315013143140325
0.265249580392889 0.2509633086580385 -0.0025541606200566824
0.11265551108196781 0.13529388804440368 -0.0025541606200566824
0.14648962542898555 0.17485783604908212 -0.0025541606200566824
0.04883555105548415 0.27939963022800307 -0.0025541606200566824
-0.04438279770785211 0.1806557806566108 -0.0025541606200566824
-0.008794826401728604 0.13083262082803795 -0.0021284671833805588
0.09718581159315762 0.22661364408016446 -0.0014473576846987847
0.2530321787602844 0.20617184525097731 -0.0014473576846987847
0.2589493175300824 0.24576984873058977 -8.513868733522175E-4
0.27114969142522 0.1655266359171416 -8.513868733522175E-4
0.1402404457785802 0.20977321172525729 -8.513868733522175E-4
-0.033306254485539505 0.21713770817975409 -8.513868733522175E-4
0.02975597122366055 0.2626358226916976 -8.513868733522175E-4
-0.014039369541578372 0.26025193944631136 -4.256934366760936E-4
0.15571865913612382 0.1177382907158806 2.5541606200568033E-4
0.27726264917588894 0.1705498184699198 2.5541606200568033E-4
0.2691744738790428 0.23516156828862095 8.513868733522477E-4
0.10898603365781957 0.14137279032013864 8.513868733522477E-4
0.034387515814696804 0.27689655282034753 8.513868733522477E-4
-0.006112957750669081 0.1398147523419041 8.513868733522477E-4
-0.06631452356540564 0.19312008448248752 8.513868733522477E-4
-0.016091211906357258 0.25287041525434745 0.0019581898087101452
0.2522999860492015 0.21459206142843096 0.0019581898087101452
0.23966540484865423 0.252521346636273 0.0025541606200567128
0.1143157154850046 0.13261201939334416 0.0025541606200567128
-0.0053892789083197345 0.24196414940670535 0.0025541606200567128
-0.07866814709774664 0.193843763324837 0.0025541606200567128
-0.04826512185033833 0.20389864229912688 0.0025541606200567128
-0.02707410257260115 0.1454253918372954 0.0036609635554146406
0.27362722722667493 0.13143710550811816 0.0036609635554146406
0.2539346488460377 0.24490143411977056 0.004256934366761208
0.11139545850940641 0.13783102092699334 0.004256934366761208
0.004427211741431591 0.25484563280052464 0.004256934366761208
-0.010855182635241052 0.2458635012866586 0.004256934366761208
-0.06519069289258077 0.19543585677800565 0.004256934366761208
-0.060942272394553035 0.13691152310377303 0.005363737302119106
0.2530321787602844 0.1929753487140177 0.005363737302119106
0.23848197709469468 0.25854065183087327 0.005959708113465673
0.11869184401403506 0.1372776194593144 0.005959708113465673
-0.05267530585430291 0.2044350160293388 0.005959708113465673
-0.04632395977909516 0.17579436160976958 0.005959708113465673
-0.050572380277122894 0.1900210362634855 0.005959708113465673
-0.05671087963399242 0.22661364408016446 0.007066511048823571
0.1551822854059119 0.2684167395617593 0.007066511048823571
0.2596389408974977 0.14027450125351432 0.007662481860170138
0.11393259139199609 0.2535174692780952 0.007662481860170138
-0.051125781744801826 0.20595899853263933 0.007662481860170138
0.017325722872717966 0.13219483982540162 0.007662481860170138
-0.039759766985549415 0.22217791846999943 0.008088175296846262
0.2242042192285776 0.12340001342367302 0.008769284795528036
-0.0523092094987614 0.15244081967371778 0.008769284795528036
0.23601295516197313 0.13607716396788772 0.009365255606874604
0.11786599874688344 0.13835888078847172 0.009365255606874604
-0.05147485036287622 0.20268967293896673 0.009365255606874604
0.01237916513854145 0.25018003273455436 0.009365255606874604
-0.03974273924808241 0.1593370533478709 0.009790949043550727
0.1549098416064392 0.11743179144147378 0.010472058542232501
-0.04350586922829923 0.1593370533478709 0.010472058542232501
0.26215053217388684 0.14485496263214934 0.011068029353579069
0.1136601475925234 0.2536196357028975 0.011068029353579069
-0.03650746912934395 0.1800938653201983 0.011068029353579069
-0.03741845308383084 0.22085826881630344 0.011068029353579069
-0.060942272394553035 0.23782640920221346 0.011493722790255193
0.26075425770158916 0.12569875798172403 0.012174832288936996
0.26215053217388684 0.24169170560723255 0.012770803100283563
0.11228090085769273 0.13399126612817483 0.012770803100283563
-0.012259970976272294 0.1514702386380962 0.012770803100283563
-0.03650746912934395 0.18650480847654066 0.012770803100283563
-0.0523092094987614 0.23782640920221346 0.013196496536959658
0.1447102268636795 0.1166400016492563 0.013877606035641461
0.26218458764882085 0.2419386078005048 0.014473576846988028
0.11807884546522154 0.12986203979241648 0.014473576846988028
-0.04613665466695774 0.19497610786639544 0.014473576846988028
-0.05415671901393574 0.1884459705477838 0.014473576846988028
-0.03910419909306821 0.23782640920221346 0.015580379782345926
0.2530321787602844 0.20418811383606658 0.015580379782345926
0.26839119795555877 0.25379842694630145 0.016176350593692494
0.11902388489464244 0.1365454267482315 0.016176350593692494
-0.017768444046861183 0.1557612284797915 0.016176350593692494
-0.044169950989514 0.22864845870747633 0.016602044030368617
0.28667047412643115 0.1593370533478709 0.016602044030368617
0.2556289087240087 0.23171345145154437 0.01787912434039696
0.10652552559383172 0.12232726596324917 0.01787912434039696
-0.03405547493408942 0.21070122341721118 0.01787912434039696
-0.04565987801788039 0.24229619028731275 0.018304817777073084
0.28667047412643115 0.24903917432426234 0.018304817777073084
0.2625081146606948 0.1446676575200118 0.019581898087101424
0.14098115235839667 0.2552202430247997 0.019581898087101424
-0.023183264561381367 0.1518618765998383 0.019581898087101424
0.11847048342696351 0.151776737912503 0.020007591523777547
0.2626358226916976 0.248511314462784 0.021284671833805918
0.11181263807734906 0.12917241642500116 0.021284671833805918
-0.04340370280349696 0.1899358975761502 0.021284671833805918
0.08483218806081674 0.2826859835591428 0.021710365270482014
0.5804925979890212 0.19029348006295815 0.022987445580510385
0.23892469826883778 0.12699286602921944 0.022987445580510385
0.10329025547509314 0.25025665755315607 0.022987445580510385
-0.03851674215045515 0.23782640920221346 0.02341313901718651
0.14872025903716843 0.2693106957787791 0.02341313901718651
0.2661605643473759 0.14352679910971977 0.02469021932721485
0.11348135634911942 0.2491243130115976 0.02469021932721485
0.08483218806081674 0.27281840969699034 0.025115912763890972
0.632725182669181 0.1907532289745684 0.026392993073919315
0.2698896388526586 0.14333098012884882 0.026392993073919315
0.11703163961099826 0.24927756264880102 0.026392993073919315
0.09783286561690538 0.12258268202525484 0.02681868651059544
0.26282312780383504 0.2486815918374545 0.02809576682062378
0.11127626434713712 0.1289680835753966 0.02809576682062378
-0.04978910435363873 0.1948483998353926 0.02809576682062378
0.2530321787602844 0.1593370533478709 0.028521460257299902
0.26022639784011076 0.13972961365456882 0.029798540567328276
0.11832574765849367 0.25653989267849553 0.029798540567328276
0.28667047412643115 0.21540087895811558 0.03022423400400437
0.2592728445419562 0.2361917464053771 0.03150131431403274
0.11283430232537178 0.13767777128978995 0.03150131431403274
-0.060942272394553035 0.10461841899752268 0.03192700775070886
0.09604495318286563 0.22526845282026803 0.03192700775070886
0.25560336711780807 0.144165339264734 0.03320408806073721
0.14011273774757735 0.2626443365604312 0.03320408806073721
0.2773648156006912 0.1481242882258219 0.03362978149741333
0.2720862169859074 0.23788600628334816 0.03490686180744167
0.10176627297179262 0.13692855084124003 0.03490686180744167
0.18574707415925718 0.27362722722667493 0.0353325552441178
-0.05724725336420435 0.15984788547188217 0.03660963555414613
0.10294970072575231 0.12254862655032071 0.03660963555414613
0.24001447346672863 0.2567016561844325 0.03660963555414613
0.08483218806081674 0.12569875798172403 0.03703532899082226
0.10873913146454746 0.12855941787618752 0.03831240930085063
0.2721713556732426 0.14578297432410323 0.03831240930085063
0.2530321787602844 0.21540087895811558 0.038738102737526724
0.10878170080821514 0.2501289495221532 0.040015183047555095
0.2377412705148782 0.1356174150562776 0.040015183047555095
-0.060942272394553035 0.11177858260241492 0.04044087648423122
0.09604495318286563 0.1705498184699198 0.04044087648423122
0.14278609252990343 0.13012596972315563 0.04171795679425956
0.26317219642190953 0.24902214658679533 0.04171795679425956
0.27889731197272527 0.1593370533478709 0.042143650230935685
0.1050015430905312 0.261077784713463 0.04342073054096403
0.2681102402873525 0.14826051012555833 0.04342073054096403
-0.045072421075267446 0.11718488924820167 0.04384642397764015
0.08483218806081674 0.21540087895811558 0.04384642397764015
0.11184669355228319 0.13635812163609398 0.04512350428766849
0.2632232796343107 0.24041462529720428 0.04512350428766849
0.27126037171875567 0.12624364558066953 0.04554919772434461
0.11314931546851204 0.25229147218046793 0.04682627803437299
0.23373123834138915 0.13031327483529315 0.04682627803437299
0.1380949508577326 0.2679655045188827 0.04725197147104908
0.09599386997046448 0.26025193944631136 0.04725197147104908
0.150848726220549 0.13416154350284523 0.04852905178107745
0.23310972592384205 0.2556799919364098 0.04852905178107745
0.08483218806081674 0.27281840969699034 0.04895474521775357
0.11464775636561199 0.2394610719990497 0.050231825527781916
0.2560460882919513 0.14374815969679144 0.050231825527781916
0.2680165877312837 0.12506873169544339 0.051338628463139815
-0.057443072345075334 0.1473324984336043 0.05193459927448638
0.10377554599290394 0.12128006010902587 0.05193459927448638
0.2692340709601774 0.23154317407687397 0.05193459927448638
0.1633215439151593 0.1417474005444137 0.05304140220984428
0.1160780863128438 0.2505546429588294 0.05363737302119085
0.27063034543247505 0.15037194957147176 0.05363737302119085
0.1633215439151593 0.14321178596657952 0.05474417595654878
0.275389598054514 0.24393936695288254 0.05474417595654878
0.14606393199230946 0.2624059482358925 0.055340146767895344
0.2726225907161194 0.15287502697912744 0.055340146767895344
0.26466212345027595 0.20418811383606658 0.05576584020457143
0.27873554846678833 0.15092535103915083 0.05644694970325324
0.1772332054257348 0.24903917432426234 0.05644694970325324
0.12205482216377647 0.26379370883945663 0.057042920514599804
0.27265664619105334 0.1540243992581529 0.057042920514599804
0.2193938833941375 0.14637894513544983 0.05746861395127593
0.16340668260249455 0.2693873205973808 0.05746861395127593
0.11847048342696351 0.22661364408016446 0.0581497234499577
0.25585878317981375 0.1817625835919688 0.0581497234499577
0.10726623217364807 0.13571106761234633 0.05874569426130427
0.22731178131631335 0.12870415364465737 0.05874569426130427
0.16780835273772557 0.1428882589547057 0.059171387697980395
0.16645464760909548 0.23782640920221346 0.059171387697980395
0.08483218806081674 0.1481242882258219 0.05985249719666217
0.25585878317981375 0.20131042620413606 0.05985249719666217
0.10697676063670838 0.12788682224623932 0.06044846800800874
0.27070697025107676 0.15519079927464546 0.06044846800800874
0.2530321787602844 0.17856988281689792 0.06087416144468486
0.21105880590401913 0.24016772310393217 0.06155527094336664
0.19408215164937556 0.11447747899094157 0.06155527094336664
0.154237245976491 0.2603711336085806 0.062151241754713205
0.22296119439348336 0.13449358438345263 0.062151241754713205
0.26629678624711217 0.21807423374044152 0.062151241754713205
0.203949725511528 0.2414107479390263 0.06257693519138932
0.08483218806081674 0.1705498184699198 0.06325804469007112
0.21105880590401913 0.2714732184370938 0.06325804469007112
0.10685756647443898 0.13568552600614575 0.0638540155014177
0.26706303443312923 0.15802591756290837 0.0638540155014177
0.270025860752395 0.25384099628996903 0.0638540155014177
0.20818111827208863 0.23782640920221346 0.06496081843677559
0.09195829619077486 0.14972489554772414 0.06496081843677559
0.2564292123849598 0.24262823116792 0.06555678924812217
0.11406029942299893 0.1282954879454484 0.06555678924812217
0.1557271730048574 0.26370857015212146 0.06555678924812217
0.18574707415925718 0.11159979135901095 0.06666359218348006
0.15695317010248452 0.2625421701356289 0.06725956299482663
0.26123954821939993 0.24710652612175285 0.06725956299482663
0.27292908999052606 0.18982521728261437 0.06725956299482663
0.2790420477411951 0.1593370533478709 0.06836636593018455
0.1137963694922598 0.12819332152064614 0.06896233674153113
0.18597694861506228 0.12614147915586724 0.06896233674153113
0.11654634909318747 0.23417395951553235 0.07006913967688899
0.26367451467718733 0.24310500781699737 0.07066511048823555
0.2686721556237649 0.16912800239142156 0.07066511048823555
-0.05794539060035325 0.11348135634911942 0.07066511048823555
0.28667047412643115 0.26025193944631136 0.07177191342359349
0.2100967387371311 0.1336251697726333 0.07236788423494005
0.11291092714397348 0.2394610719990497 0.07236788423494005
0.26865512788629786 0.12452384409649789 0.07347468717029793
0.13823117275746888 0.25659948975963026 0.07407065798164449
0.16930679363482554 0.1250857594329104 0.07407065798164449
0.08483218806081674 0.22661364408016446 0.07517746091700242
0.17431294845013662 0.25742533502678183 0.07577343172834898
0.21055648764874133 0.2560546021606849 0.07577343172834898
-0.05141525328174152 0.25787657006965864 0.07577343172834898
0.0910217706300874 0.13405937707804297 0.07688023466370691
0.19959062471996455 0.13290149093028397 0.07747620547505348
0.25567147806767637 0.24342853482887117 0.07747620547505348
0.28667047412643115 0.26160564457494145 0.07858300841041134
0.25752750145158415 0.2500438108348181 0.07917897922175791
0.09960375031347803 0.24619554216726597 0.07917897922175791
0.08483218806081674 0.22661364408016446 0.08028578215711585
0.11285984393157235 0.1278272251651046 0.08088175296846241
0.11274064976930295 0.25094628092057136 0.08088175296846241
0.11057812711098836 0.23339068359204831 0.08198855590382027
0.11221278990782459 0.1277335726090359 0.08258452671516685
0.09603643931413218 0.24865605023125395 0.08258452671516685
0.11721043085440223 0.11583969798830512 0.08369132965052477
0.28667047412643115 0.13691152310377303 0.08369132965052477
0.09791800430424054 0.1368944953663059 0.08428730046187134
0.10854331248367648 0.13600905301801958 0.08599007420857584
0.19862855755307654 0.12032650681087141 0.08630508735171616
0.26425345775106684 0.24684259619101362 0.08769284795528028
0.09292887722639645 0.26550499645489467 0.08891033118417398
0.2604137029522482 0.2502821991593566 0.08939562170198477
0.11154019427787637 0.12747815654703024 0.0910983954486892
0.09279265532666016 0.2655305380610952 0.09152408888536535
0.10455030804765454 0.13568552600614575 0.09280116919539369
0.2709453585756154 0.2566335452345644 0.09280116919539369
0.24264525890538713 0.11447747899094157 0.09322686263206979
0.2637170840208549 0.14018936256617906 0.09450394294209818
0.0922392538589811 0.12569875798172403 0.09492963637877429
0.10415867008591245 0.1267885331796149 0.09620671668880262
0.27362722722667493 0.12666082514861204 0.09620671668880262
0.08483218806081674 0.10326471386889258 0.09663241012547878
0.2572295160459109 0.24343704869760474 0.09790949043550712
0.2311515361151319 0.25215525028073155 0.09790949043550712
0.25178915392519013 0.25308326197268555 0.09790949043550712
0.1942268874178454 0.11447747899094157 0.09833518387218321
0.1926433078334103 0.25456467513231834 0.09961226418221156
0.21210601175824242 0.2617844358183453 0.09961226418221156
0.2340717930907301 0.13079856535310394 0.09961226418221156
0.16340668260249455 0.11709123669213296 0.10071906711756948
0.16710170163284324 0.25588432478601436 0.10131503792891605
0.09992727732535184 0.11977310534319248 0.10131503792891605
0.16780835273772557 0.11705718121719882 0.10174073136559214
0.0886293735159677 0.1481242882258219 0.10242184086427397
0.10642335916902945 0.1295129711743421 0.10301781167562055
0.27003437462112856 0.12414923387222293 0.10301781167562055
0.25013746339088677 0.1289510558379296 0.10301781167562055
0.1590050124672634 0.11579712864463755 0.10344350511229664
0.16156768695605364 0.12756329523436538 0.10472058542232499
0.2123188584765804 0.11746584691640792 0.10472058542232499
0.1413983319263392 0.2826859835591428 0.10514627885900113
0.12062449221654467 0.25868538759934323 0.10642335916902948
0.1421901217185568 0.1272482820912251 0.10642335916902948
0.2198791739119483 0.13049206607869712 0.10642335916902948
0.08483218806081674 0.12569875798172403 0.10684905260570557
0.2803021003137564 0.2581490138691313 0.1081261329157339
0.21907887025099726 0.2526490546672759 0.1081261329157339
0.27024722133946655 0.12407260905362123 0.1098289066624384
0.10521438980886919 0.21895967608872796 0.1098289066624384
0.18481906246730329 0.13122425878978003 0.1098289066624384
0.11632498850611592 0.10764084239792315 0.1102546000991145
0.22726921197264566 0.18957831508934225 0.1115316804091429
0.2006633721803883 0.12605634046853198 0.1115316804091429
0.17103510898773058 0.2555012006930058 0.1115316804091429
0.09095365968021926 0.10790477232866227 0.11263848334450077
0.27071548411981033 0.12746964267829666 0.11323445415584733
0.13435736248371621 0.1250602178267098 0.11323445415584733
0.21871277389545574 0.19992266560057195 0.11323445415584733
0.2588471511052801 0.18924627420873488 0.11493722790255183
0.28153661128011725 0.15366681677134494 0.11493722790255183
0.22090935202870446 0.25874498468047785 0.11493722790255183
0.2499416444100158 0.17736091345673766 0.11664000164925627
0.2811534871871087 0.12787830837750574 0.11664000164925627
0.2523595831303361 0.1373797858841167 0.11664000164925627
0.2477535801455005 0.2131532176124657 0.11834277539596076
0.0943677210423617 0.11587375346323925 0.11834277539596076
0.22746503095351678 0.16195932491779574 0.11834277539596076
0.27114969142522 0.2552372707622667 0.11834277539596076
0.23825210263888955 0.20716796789279945 0.12004554914266526
0.2205943388855642 0.21674607021801212 0.12004554914266526
0.24892849403072664 0.12884888941312733 0.12004554914266526
0.2258899652378151 0.2112375971474231 0.12004554914266526
0.22624754772462305 0.18372077340067886 0.1217483228893697
0.25871092920554384 0.12126303237155887 0.1217483228893697
0.21917252280706595 0.1850659646605754 0.1217483228893697
0.16446240232545128 0.262005796405417 0.1217483228893697
0.22446814915931687 0.198441252440939 0.12345109663607419
0.15325815107213583 0.18910153844026503 0.12345109663607419
0.21752934614149616 0.18219679089737834 0.12345109663607419
0.23825210263888955 0.20716796789279945 0.12515387038277861
0.10002944375015412 0.11089314025412861 0.12515387038277861
0.14419088087093454 0.1365283990107645 0.12515387038277861
0.1598989686842833 0.19309454287628697 0.12515387038277861
0.09068972974948014 0.2695661118407848 0.1268566441294831
0.13560890118754407 0.19518895458473354 0.1268566441294831
0.181328376286559 0.1658331351915484 0.1268566441294831
0.26349572343378336 0.1916982684039893 0.1268566441294831
0.17164810753654422 0.11847899729569708 0.1285594178761876
0.16046939788942935 0.21420042346668888 0.1285594178761876
0.12534117549491608 0.22493641193966066 0.1285594178761876
0.2196322717186762 0.18845448441651727 0.1285594178761876
0.1627766563162139 0.2709027892319479 0.13026219162289204
0.13917621218688989 0.12546036965718535 0.13026219162289204
0.25974962119103356 0.19156204650425301 0.13026219162289204
0.13855469976934282 0.26593068989157076 0.13196496536959654
0.1500995057719991 0.1248303433709047 0.13196496536959654
0.2245788294528527 0.18566193547192203 0.13196496536959654
0.14157712316974316 0.2701876242583319 0.13366773911630098
0.22483424551485837 0.20065485831165486 0.13366773911630098
0.20818111827208863 0.21540087895811558 0.1340338354718425
0.11475843665914782 0.12262525136892241 0.13537051286300547
0.2193938833941375 0.21756340161643029 0.13669867638543495
0.2229697082622169 0.19397998522457327 0.13707328660970997
0.23183264561381367 0.2134426891494054 0.1387760603564144
0.235944844212105 0.21496667165270592 0.1404788341031189
0.2537643714713673 0.20678484379979095 0.14218160784982334
0.26362343146478623 0.19796447579186177 0.14388438159652783
0.25976664892850054 0.18967196764541097 0.14558715534323233
0.229099693750353 0.17898706238484044 0.14728992908993677
0.22275686154387891 0.19402255456824097 0.14899270283664126
0.24840063416924815 0.21028404384926863 0.1506954765833457
0.2561652824542206 0.2043754189482041 0.1523982503300502
0.2323519916065586 0.20939860150098233 0.1541010240767547
0.2277119331467889 0.1978452816295925 0.1558037978234591
0.2234549987800277 0.19862004368434297 0.15750657157016362
0.23142397991460456 0.18240963761571644 0.15920934531686803
0.27012802717719725 0.1929753487140177 0.16067373073903393
0.23823507490142254 0.1756921951849673 0.16261489281027702
0.26424494388233327 0.21756340161643029 0.16333857165262639
0.24147034502016101 0.21646511254980585 0.16431766655698146
0.25568850580514335 0.19575938378987948 0.16602044030368596
0.24704692904061815 0.17958303319618707 0.1677232140503904
0.23154317407687397 0.16567988555434499 0.16866825347981143
0.22498749515206168 0.1759220696407724 0.1694259877970949
0.21819342790271093 0.19790487871072707 0.17112876154379938
0.23528076245089022 0.1797873660457915 0.17283153529050382
0.21623523809400075 0.1705498184699198 0.1739979353069964
0.2620909350927521 0.19315413995742167 0.17453430903720832
0.24009109828533035 0.172329217035226 0.17623708278391276
0.26026045331504477 0.21600536363819564 0.1766627762205889
0.2622867540736231 0.18028117043233585 0.17793985653061725
0.24662974947267552 0.16951112648443006 0.17964263027732175
0.22224602941986757 0.18397618946268454 0.18134540402402619
