0.6254021161204515 0.09588738943497259 -0.13583371821966342
0.4050399473793222 0.18015414196720786 -0.13583371821966342
0.2582896844660418 0.2751505120578953 -0.13583371821966342
0.3851758238158228 0.12219426825714766 -0.13583371821966342
0.5955934689661914 -0.17256490027952198 -0.13583371821966342
0.4744771471884933 -0.3094578722651186 -0.13583371821966342
0.24780930308780907 0.19260348916917513 -0.13521062776911452
0.5951573056508072 0.10474773564177814 -0.13421368304823625
0.6825768958628201 0.27690762712844313 -0.13421368304823625
0.5133330676847235 0.10228029745760435 -0.13334135641746775
0.6149715819782626 -0.24889348047176404 -0.13334135641746775
0.38537521275999836 -0.1804656871924822 -0.13334135641746775
0.617040242274085 0.2228981468748635 -0.13334135641746775
0.55111727260601 0.009950754495266225 -0.13334135641746775
0.6258507412448467 -0.22772086696211194 -0.13334135641746775
0.3409613254448718 0.11086648386616849 -0.13334135641746775
0.24527955585858044 0.22955275288672583 -0.13334135641746775
0.42056736140700124 -0.11662383962924032 -0.13334135641746775
0.7596531845957208 0.0719233307068613 -0.13334135641746775
0.5034508531390178 -0.31005603909764556 -0.13334135641746775
0.24687466741198566 -0.27921306179547434 -0.13334135641746775
0.6205544724151809 0.304198988862486 -0.13334135641746775
0.5840912192490585 -0.10847381653606056 -0.13172132124604058
0.8631235848138737 0.07994873570993122 -0.13172132124604058
0.4067222915958043 -0.1179074059573712 -0.1308489946152721
0.7956304272104152 0.03951016546930675 -0.1308489946152721
0.6159436030811191 0.08478391760619086 -0.1308489946152721
0.5025286792722055 -0.3225801571536787 -0.1308489946152721
0.208180750432898 0.2745772688433904 -0.1308489946152721
0.5950949966057523 0.07105100407609273 -0.1308489946152721
0.7356143550135438 0.11160173059781618 -0.1308489946152721
0.46060715375927447 -0.13301111847867694 -0.1308489946152721
0.6091893025971687 0.27523774472097223 -0.1308489946152721
0.443671555313355 0.1679291073274382 -0.1308489946152721
0.26292547741812566 0.278178731647563 -0.1308489946152721
0.5036751657012155 -0.3088347818145697 -0.1308489946152721
0.22136534436651312 -0.23476178905331466 -0.1308489946152721
0.7811124197126252 -0.05506250311500755 -0.1308489946152721
0.5840912192490585 -0.03493668156227766 -0.1292289594438449
0.8631235848138737 0.030712128307556034 -0.1292289594438449
0.18950049872544159 -0.009614285651969798 -0.12835663281307647
0.4577658613047715 -0.1265932868380231 -0.12835663281307647
0.3221813792653274 0.06144294932862845 -0.12835663281307647
0.6116193553543094 -0.2751754356759174 -0.12835663281307647
0.2360079699544126 0.21832466296783426 -0.12835663281307647
0.6166040789587008 -0.25946109451307364 -0.12835663281307647
0.2904162280963439 0.17830979423358312 -0.12835663281307647
0.6212274101017737 -0.24105500260385881 -0.12835663281307647
0.6068340206940938 0.14997164054261827 -0.12835663281307647
0.24947918549528017 0.2323192744871631 -0.12835663281307647
0.20811844138784316 0.24200210008869308 -0.12835663281307647
0.44954106735752564 0.18415438265973189 -0.12835663281307647
0.5012451129440746 -0.29922672706710546 -0.12835663281307647
0.7268287796608038 -0.10629299995913939 -0.12835663281307647
0.6795362144641414 0.2933198295959017 -0.12773354236252754
0.4173148292551358 -0.14686865009888475 -0.12673659764164927
0.8166534990119354 0.04712433077501437 -0.12673659764164927
0.5427678605686544 0.005962975611753077 -0.1258642710108808
0.548089053016342 -0.006648375107356969 -0.1258642710108808
0.6260999774250663 -0.15161659933206748 -0.1258642710108808
0.7892749046148161 0.05162304382797759 -0.1258642710108808
0.5909950614411403 -0.09328287135167809 -0.1258642710108808
0.777162026256145 -0.07672112717608782 -0.1258642710108808
0.6233209940156181 0.09371903466706229 -0.1258642710108808
0.7129712480405961 -0.1338460596824124 -0.1258642710108808
0.6192709060870502 0.09697156681892757 -0.1258642710108808
0.2661032387159251 -0.22000700718431637 -0.1258642710108808
0.5094574450823094 -0.1764903701179801 -0.1258642710108808
0.319601784800055 -0.3193774722378574 -0.1258642710108808
0.6232586849705634 0.17959336056171366 -0.1258642710108808
0.22947798203265996 0.25379097141307855 -0.1258642710108808
0.5947086805264119 0.3149286064209382 -0.1258642710108808
0.6825768958628201 -0.2869767688093137 -0.12524118056033187
0.3883161996865893 -0.13144093054329362 -0.12424423583945361
0.7482257057326538 0.14876284506855345 -0.12424423583945361
0.5432912565471155 0.023534126317232614 -0.12337190920868513
0.5364497234000883 -0.05765455938929102 -0.12337190920868513
0.47903816928651133 -0.3064670381024839 -0.12337190920868513
0.329334457637629 0.31429305416137804 -0.12337190920868513
0.5576971077638063 -0.16851481235095397 -0.12337190920868513
0.7102421118671919 0.1266929813101109 -0.12337190920868513
0.5791937283077441 -0.07711990506443928 -0.12337190920868513
0.8018862553339261 -0.05723085788291786 -0.12337190920868513
0.6210529447756201 0.09714603214508138 -0.12337190920868513
0.6251902653672647 -0.30882232000555865 -0.12337190920868513
0.6162676101154044 0.17003515305029335 -0.12337190920868513
0.542992173130852 0.17275182741468684 -0.12337190920868513
0.46364783515795316 0.3066664270466594 -0.12337190920868513
0.31282256069808284 -0.18821693239731072 -0.12337190920868513
0.5050459646924231 -0.30548255519061646 -0.12337190920868513
0.6795362144641414 0.260495424660985 -0.1227488187581362
0.43020033977248745 -0.14897469582174003 -0.12175187403725794
0.6602079486881138 0.22767101972606799 -0.12175187403725794
0.6666507039467897 -0.26471997791570645 -0.12175187403725794
0.47906309290453325 0.12297936222483932 -0.12087954740648946
0.3252469842820282 -0.008692111785157428 -0.12087954740648946
0.6208161704044114 0.16485104050172641 -0.12087954740648946
0.6266233734035274 -0.09121421105585573 -0.12087954740648946
0.4961357712495736 -0.30996880643456864 -0.12087954740648946
0.2799109231000891 0.307488906441384 -0.12087954740648946
0.17875841935797818 -0.24450692369989965 -0.12087954740648946
0.568289645423138 0.3269044048804881 -0.12087954740648946
0.6368171331745076 -0.15440804455052667 -0.12087954740648946
0.39115749214109247 -0.30590625669698984 -0.12087954740648946
0.3343690284780643 -0.1950584655443379 -0.12087954740648946
0.6122798312318914 0.17928181533643947 -0.12087954740648946
0.5106039315113194 0.1749077203735861 -0.12087954740648946
0.2533672699067054 0.24379660058627403 -0.12087954740648946
0.23288005589265698 -0.2604081919979081 -0.12087954740648946
0.6825768958628201 -0.28113218038316495 -0.12025645695594056
0.5879543800424616 -0.051348884029735996 -0.11925951223506229
0.7646379082001119 0.1291978049213176 -0.11925951223506229
0.5204238370119703 -0.06981728498400601 -0.1183871856042938
0.49125074211727016 -0.10042348791496856 -0.1183871856042938
0.2923478084930455 -0.1925661037421422 -0.1183871856042938
0.617601023679579 0.254202211110441 -0.1183871856042938
0.31152653256094115 -0.32100996921829555 -0.1183871856042938
0.501020800381877 0.30642965267545075 -0.1183871856042938
0.25426452015549583 -0.221926125772007 -0.1183871856042938
0.6214641844729824 0.26371057138581716 -0.1183871856042938
0.6382751648287921 -0.0968718723468398 -0.1183871856042938
0.6320317985142919 -0.29781854264886487 -0.1183871856042938
0.6162053010703495 0.283400229623163 -0.1183871856042938
0.5032140787678092 0.29305813160667127 -0.1183871856042938
0.24100515536781486 0.23103570815903224 -0.1183871856042938
0.47153616026190237 -0.2008905921614756 -0.1183871856042938
0.3395780646446532 -0.3050463918752323 -0.1183871856042938
0.3895000715426322 -0.13025705868725068 -0.11676715043286662
0.8302991798789566 -0.11701015570858073 -0.11676715043286662
0.8266354080297292 0.007271465557905848 -0.11589482380209816
0.5375962098290984 -0.17625359574677163 -0.11589482380209816
0.3357522892782828 0.19048498163730898 -0.11589482380209816
0.6357952648356074 -0.16721878421381225 -0.11589482380209816
0.6225982090929814 0.15376003048195588 -0.11589482380209816
0.6709749516735991 -0.20972601475025926 -0.11589482380209816
0.49689594159924333 0.1867339771250043 -0.11589482380209816
0.6129901543455171 0.1855251816509393 -0.11589482380209816
0.4077067745076715 0.2952389481835923 -0.11589482380209816
0.3958431323292202 0.1945101459478547 -0.11589482380209816
0.46460739445179844 -0.20764489264542585 -0.11589482380209816
0.6143484915277138 -0.18238480578017283 -0.11589482380209816
0.332798840542681 -0.3015820089701804 -0.11589482380209816
0.5236265219277918 0.08721397036333173 -0.11589482380209816
0.5369108103334946 0.004966030890874835 -0.11589482380209816
0.5883406961218021 -0.002112276627360813 -0.11427478863067096
0.6326922743918738 -0.15734903147711743 -0.11340246199990248
0.6169779332290302 -0.18669659169797137 -0.11340246199990248
0.26549261007438724 0.21658000970629745 -0.11340246199990248
0.6328044306729725 -0.18773092184588255 -0.11340246199990248
0.6308230030402271 0.14622063603031396 -0.11340246199990248
0.6391973386956045 -0.17194180982897309 -0.11340246199990248
0.5903096619455366 0.1578475038375568 -0.11340246199990248
0.6464501115399938 -0.21562045041245198 -0.11340246199990248
0.5604262439372107 -0.17990490578698817 -0.11340246199990248
0.5476404278919469 0.307002895889956 -0.11340246199990248
0.5179813224458185 0.18168694447555808 -0.11340246199990248
0.3916310408835096 0.29340706225897856 -0.11340246199990248
0.4990269109401205 -0.21267946348586123 -0.11340246199990248
0.5386056163589876 0.02849392630360193 -0.11340246199990248
0.5498212444688682 0.021615007729541825 -0.11340246199990248
0.8138869774114982 -0.06632797846093207 -0.11178242682847532
0.32689194307147723 0.09636093817738972 -0.11178242682847532
0.2621653070684561 -0.2601838794357105 -0.11091010019770683
0.4790257074775003 0.292584582864254 -0.11091010019770683
0.3373224772136661 -0.3081119968919331 -0.11091010019770683
0.46682559645575256 0.1846279314021492 -0.11091010019770683
0.6215264935180372 -0.18183648618368983 -0.11091010019770683
0.592428169477403 0.09737034470727901 -0.11091010019770683
0.6354214105652781 -0.21037402881883022 -0.11091010019770683
0.6378016160863749 0.1545077390226146 -0.11091010019770683
0.5110774802537366 0.3097071084453381 -0.11091010019770683
0.46732406881619176 0.19932040422609226 -0.11091010019770683
0.4725954140278356 -0.20759504540938206 -0.11091010019770683
0.3856867579852729 0.12219426825714766 -0.11091010019770683
0.37543068916923783 0.12847501999868077 -0.11091010019770683
0.6989890983302782 -0.15864505961425934 -0.10929006502627964
0.30509623911127626 -0.002112276627360813 -0.10929006502627964
0.4750503904029984 -0.2950769446664497 -0.10841773839551117
0.26638986032317774 0.284484407007118 -0.10841773839551117
0.6328044306729725 -0.19181839520148347 -0.10841773839551117
0.5968645734853112 -0.07601080406246222 -0.10841773839551117
0.6182614995571609 0.17508218569973957 -0.10841773839551117
0.6447677673235118 -0.09647309445848853 -0.10841773839551117
0.6276950889784715 0.271274889455481 -0.10841773839551117
0.3050463918752323 0.20183768964631021 -0.10841773839551117
0.5333965801923987 -0.19024820726610014 -0.10841773839551117
0.5940232810308081 -0.3044108396156724 -0.10841773839551117
0.46884440951553114 -0.2073831946561953 -0.10841773839551117
0.3938118574604308 0.12418815769890432 -0.10841773839551117
0.3521894153637632 0.11001908085342199 -0.10841773839551117
0.7646379082001119 0.1291978049213176 -0.106797703224084
0.8795357872813319 -0.03691810919502329 -0.106797703224084
0.6155074397657349 -0.19548216705071106 -0.10592537659331551
0.3183306802809352 0.18699567511423504 -0.10592537659331551
0.834760507504887 0.013016359511966826 -0.10592537659331551
0.5434781836822802 -0.17199165706501707 -0.10592537659331551
0.47857708235310525 0.2969711396361184 -0.10592537659331551
0.6612298170270141 -0.14489968427515015 -0.10592537659331551
0.6107096432965081 -0.297793619030843 -0.10592537659331551
0.46523048490234736 -0.2125673072047624 -0.10592537659331551
0.4951263647196843 -0.27715686330866285 -0.10592537659331551
0.6288166517894596 0.22843119007573773 -0.10592537659331551
0.3399394571059717 0.28953143965656425 -0.10592537659331551
0.49483974311243184 0.2156079886034411 -0.10592537659331551
0.5402256515304148 0.032693555940301655 -0.10592537659331551
0.30507131549325434 0.01429992584009752 -0.10430534142188831
0.5512668143141417 -0.051348884029735996 -0.10430534142188831
0.6450294653127424 0.09855421656332193 -0.10343301479111985
0.5592797575082007 0.17803563443534134 -0.10343301479111985
0.2610686678754899 -0.24856947343747868 -0.10343301479111985
0.2631747135983452 0.21145820620278535 -0.10343301479111985
0.6685947461525023 -0.226524533297058 -0.10343301479111985
0.6484066155547176 0.14169699935932886 -0.10343301479111985
0.7013443802333534 -0.09170022160728372 -0.10343301479111985
0.627483238225285 -0.2976316155137002 -0.10343301479111985
0.6447179200874679 -0.25872584778142593 -0.10343301479111985
0.5295957284440503 0.19565663237686487 -0.10343301479111985
0.6447054582784568 0.2602960357168091 -0.10343301479111985
0.29983735570864345 0.21649277704322054 -0.10343301479111985
0.3898614640039507 -0.10786318789452272 -0.10343301479111985
0.4177260689524981 -0.12189518484088417 -0.10343301479111985
0.6009021996048681 -0.10645500347628217 -0.10181297961969267
0.37072012536308807 0.13369651797428064 -0.10181297961969267
0.274739272360533 -0.28397347283766794 -0.10094065298892418
0.5061176802673673 0.2876247828778847 -0.10094065298892418
0.5025286792722055 -0.31897869434950615 -0.10094065298892418
0.5656477419128105 0.1758049706223762 -0.10094065298892418
0.8484684974169631 0.004691871092633419 -0.10094065298892418
0.6668002456549215 0.14684372648086286 -0.10094065298892418
0.27202259799613987 0.24364705887814228 -0.10094065298892418
0.33122865260729767 0.27736871406184943 -0.10094065298892418
0.6369417512646175 0.2831260698249216 -0.10094065298892418
0.677841408438648 0.06398515836686812 -0.10094065298892418
0.6516342240885609 -0.2582149136119759 -0.10094065298892418
0.3278639641743336 -0.2944538542159008 -0.10094065298892418
0.47903816928651133 -0.23062446846166995 -0.10094065298892418
0.32351479282950213 0.0629383664099459 -0.10094065298892418
0.46920580197684947 -0.13342235817603923 -0.09932061781749701
0.5422444645901934 0.16438995356832012 -0.09932061781749701
0.6619526019496508 -0.19907116804587294 -0.09932061781749701
0.5590180595189702 -0.3119876194943472 -0.09844829118672853
0.3162869436031347 0.2967966743099646 -0.09844829118672853
0.723937639970257 -0.13306096571472073 -0.09844829118672853
0.6185481211644135 -0.1603274038307413 -0.09844829118672853
0.33800787670927 0.3109159039194031 -0.09844829118672853
0.5117878033673623 -0.19452260775686575 -0.09844829118672853
0.31025542804182127 -0.28443455977107424 -0.09844829118672853
0.3894876097336214 -0.27348062965042425 -0.09844829118672853
0.652045463785923 0.09146344723607525 -0.09844829118672853
0.5107285496014292 0.2855187371550292 -0.09844829118672853
0.5833185870903776 0.18482732034632474 -0.09844829118672853
0.3344562611411411 0.27593560602558714 -0.09844829118672853
0.4870760360985923 0.24843239353835778 -0.09844829118672853
0.3525757314431036 -0.09173760703431666 -0.09844829118672853
0.3514790922501374 -0.07577402969125356 -0.09844829118672853
0.548687219848869 0.16643369024612076 -0.09682825601530134
0.7225793027880602 -0.14983456064349757 -0.09682825601530134
0.38537521275999836 -0.28616675122360014 -0.09595592938453286
0.5036377802741826 0.27611007135174065 -0.09595592938453286
0.5638033941791858 -0.3089967853317125 -0.09595592938453286
0.650388043187463 0.09515214270332491 -0.09595592938453286
0.5980359835323432 0.1814750937223715 -0.09595592938453286
0.6524442416742745 -0.0897811030195931 -0.09595592938453286
0.6508366683118582 0.2468622056029748 -0.09595592938453286
0.3177075898303863 0.2898180612638167 -0.09595592938453286
0.5072766285053882 0.22906674233529747 -0.09595592938453286
0.6318947186151712 -0.2610935914935118 -0.09595592938453286
0.31622463455807986 -0.2191845277895918 -0.09595592938453286
0.46253873415597613 -0.22971475640386843 -0.09595592938453286
0.41618080463513685 0.12864948532483442 -0.09595592938453286
0.4663022004772915 0.12830055467252713 -0.09595592938453286
0.3214835179607127 -0.0677610864971945 -0.09433589421310569
0.5840912192490585 0.04515536495127996 -0.09433589421310569
0.6426243361736235 -0.1647388842206276 -0.0934635675823372
0.4630621301344372 -0.21186944590014747 -0.0934635675823372
0.5926774056576225 0.17403539374281735 -0.0934635675823372
0.6476713688230696 -0.27704470702756406 -0.0934635675823372
0.6598839416538285 0.09411781255541354 -0.0934635675823372
0.8500137617343243 0.008879038920322109 -0.0934635675823372
0.6617407511964642 0.1503828802399806 -0.0934635675823372
0.6819288817942489 0.08841030402838551 -0.0934635675823372
0.62563889049166 0.2776553356691019 -0.0934635675823372
0.26842113519196714 0.2542395965374738 -0.0934635675823372
0.3506939982824459 0.2200443926113493 -0.0934635675823372
0.2941298471816154 -0.25214601262362935 -0.0934635675823372
0.45384039146631316 -0.2801726210893197 -0.0934635675823372
0.6267978387296811 -0.2775556411970141 -0.0934635675823372
0.5197508993253774 -0.283337920578108 -0.0934635675823372
0.5312157636154775 -0.047174178011058346 -0.0934635675823372
0.33789572042817123 -0.13342235817603923 -0.09184353241091002
0.7810501106675705 0.13235064260109514 -0.09184353241091002
0.3129471787881925 -0.21200652579926837 -0.09097120578014156
0.8447174929046587 -0.0018007314020862851 -0.09097120578014156
0.6267230678756152 0.16594767969469243 -0.09097120578014156
0.2697171633291089 -0.2623646960126316 -0.09097120578014156
0.38773049466307336 0.208778917265425 -0.09097120578014156
0.6588869969329502 0.166882315370516 -0.09097120578014156
0.6020362242248672 0.2800853884262429 -0.09097120578014156
0.30054767882226924 0.26820928443878056 -0.09097120578014156
0.4506750919775248 0.2787270512440462 -0.09097120578014156
0.5574478715835869 -0.21254238358674032 -0.09097120578014156
0.45720507989927744 -0.24996519604670817 -0.09097120578014156
0.4801223466704665 -0.26268870304691705 -0.09097120578014156
0.590683516215866 -0.09724572661716917 -0.09097120578014156
0.5407864329359088 5.171650739555896E-4 -0.09097120578014156
0.5270410575967998 -0.010710924844935812 -0.09097120578014156
0.598683997600914 -0.11039293512375117 -0.08935117060871436
0.31238639738269847 0.06353653324247288 -0.08935117060871436
0.319601784800055 0.2868147652921711 -0.08847884397794588
0.28696430700030284 0.27701978340954214 -0.08847884397794588
0.41176932424525053 0.27406633467394037 -0.08847884397794588
0.5112893310069233 0.21178221323707058 -0.08847884397794588
0.5303932842207528 0.03139752780315975 -0.08847884397794588
0.5169096068708744 0.08773736634179265 -0.08847884397794588
0.5922163187242163 -0.18267142738742545 -0.08847884397794588
0.666438853193603 -0.149074390293828 -0.08847884397794588
0.710042722923016 -0.13408283405362106 -0.08847884397794588
0.5636912378980871 -0.20217415848960646 -0.08847884397794588
0.5112270219618683 -0.23322898654496446 -0.08847884397794588
0.5076255591576956 -0.25497484326912145 -0.08847884397794588
0.3251348280009294 -0.28194219796887854 -0.08847884397794588
0.40890310817272546 -0.12572096020725454 -0.08685880880651872
0.5427678605686544 0.16202220985623428 -0.08685880880651872
0.7646379082001119 -0.13025705868725068 -0.08685880880651872
0.2958869622521632 0.2779170336583326 -0.08598648217575024
0.5112768691979123 0.20373188461597877 -0.08598648217575024
0.3068907396088572 0.25592194075395575 -0.08598648217575024
0.36976056606924257 0.10821211854683001 -0.08598648217575024
0.3263934707110382 0.0704154518165328 -0.08598648217575024
0.5986216885558592 0.07242180306730034 -0.08598648217575024
0.5898984222481743 0.17840948870567072 -0.08598648217575024
0.8564440551839893 -0.004380325867358891 -0.08598648217575024
0.39255321475032195 -0.2198200800491517 -0.08598648217575024
0.6458270210894449 -0.23607027899946742 -0.08598648217575024
0.6309600829393478 -0.2649069050508711 -0.08598648217575024
0.46113054973773554 -0.2381389392952898 -0.08598648217575024
0.3263934707110382 -0.0677610864971945 -0.08436644700432304
0.5512668143141417 -0.01852447909481915 -0.08436644700432304
0.6322685728855006 -0.2600717231546117 -0.08349412037355455
0.6296142075661622 -0.24866916790956645 -0.08349412037355455
0.690053981269407 0.12985828079889944 -0.08349412037355455
0.7232771640926751 -0.12802639487428555 -0.08349412037355455
0.6472850527437295 -0.10120858188266023 -0.08349412037355455
0.34231966262706837 0.08374958745827968 -0.08349412037355455
0.498827521995945 0.08679026885695838 -0.08349412037355455
0.4173771383001908 -0.2688822221253732 -0.08349412037355455
0.46115547335575746 0.268483444237022 -0.08349412037355455
0.40536395441360773 0.2586012296913161 -0.08349412037355455
0.4977059591849569 0.19318919419269107 -0.08349412037355455
0.4346741292074286 -0.2012519846227941 -0.08287102992300566
0.4791378637585991 0.1291978049213176 -0.0818740852021274
0.33789572042817123 -0.13342235817603923 -0.0818740852021274
0.363791359552984 0.21066065042608284 -0.0818740852021274
0.47758013763222684 0.1148667245586925 -0.08100175857135891
0.529732808343171 -7.788630631861438E-4 -0.08100175857135891
0.5680404092429183 -0.21305331775619057 -0.08100175857135891
0.8020607206600799 -0.06940604528664371 -0.08100175857135891
0.7378824042535417 0.12562126573516677 -0.08100175857135891
0.7147283631111438 -0.1253595677459362 -0.08100175857135891
0.6029833217097015 -0.029453485597447236 -0.08100175857135891
0.5793806554429087 0.27095088242119575 -0.08100175857135891
0.43638139704193263 -0.14048820388526384 -0.08037866812080999
0.8795357872813319 0.04712433077501437 -0.07938172339993174
0.3125608627088523 -0.02074268109877343 -0.07938172339993174
0.31060435869412856 0.24688712922099654 -0.07850939676916326
0.6332530557973678 0.25298095382736496 -0.07850939676916326
0.5965031810239928 0.07497647391455103 -0.07850939676916326
0.7062543329836786 -0.1425568641810862 -0.07850939676916326
0.671099569763709 -0.1693996007907336 -0.07850939676916326
0.6286795718903387 -0.2553985447754948 -0.07850939676916326
0.4595478999933414 -0.17671468268017773 -0.07850939676916326
0.34165918674948653 -0.06756169755301879 -0.07850939676916326
0.5155138842616449 -0.05279445387500947 -0.07850939676916326
0.8467113823464152 0.09636093817738972 -0.07688936159773609
0.45279359950939113 -0.18540056356082962 -0.07688936159773609
0.3543079228956295 0.17843441232369278 -0.07688936159773609
0.5112893310069233 0.25040135936209257 -0.0760170349669676
0.6454407050101045 0.09262239547409627 -0.0760170349669676
0.7057558606232396 0.13803322751010108 -0.0760170349669676
0.849178820530589 0.022998268529760467 -0.0760170349669676
0.5693239755710492 -0.22671146043222268 -0.0760170349669676
0.41659204433249913 -0.1326746496353805 -0.0760170349669676
0.3565385867085947 -0.08999295377277987 -0.0760170349669676
0.321907219467086 -0.25870092416340407 -0.0760170349669676
0.6825768958628201 -0.19907116804587294 -0.07439699979554039
0.3372477063596003 0.09636093817738972 -0.07439699979554039
0.47315619543332965 -0.11304730044308965 -0.07439699979554039
0.555615985658973 0.23598304633639053 -0.0735246731647719
0.5979238272512444 0.09491536833211625 -0.0735246731647719
0.6130773870085939 -0.1812881665872068 -0.0735246731647719
0.7642640539297826 0.08796167890399027 -0.0735246731647719
0.5120868867836258 -0.2292412076614513 -0.0735246731647719
0.34131025609717924 -0.05245798503171322 -0.0735246731647719
0.5356023203873419 0.04150405491106324 -0.0735246731647719
0.3887274393839516 -0.18265896557841443 -0.07290158271422303
0.40355699210701573 0.18159971181248116 -0.07190463799334475
0.459722365319495 -0.12947196471955902 -0.07190463799334475
0.6095756186765091 0.07288289000070661 -0.07103231136257626
0.6107221051055192 -0.17711346056852917 -0.07103231136257626
0.7990948101154671 -0.08398636182948815 -0.07103231136257626
0.7477646187992475 0.024992157971516955 -0.07103231136257626
0.3342817958149874 0.05847703878401562 -0.07103231136257626
0.5413347525323918 -0.0031466067752719926 -0.07103231136257626
0.8011260849842564 -0.10058549143211136 -0.06941227619114909
0.5184424093792248 0.19770036905466515 -0.06941227619114909
0.33789572042817123 -0.13342235817603923 -0.06941227619114909
0.601575137291461 0.037977362960956364 -0.0685399495603806
0.6097376221936518 -0.17708853695050708 -0.0685399495603806
0.7317262706021184 -0.13708613002526682 -0.0685399495603806
0.7609741363508845 0.01989527808602693 -0.0685399495603806
0.5255207168974605 0.03764089411765994 -0.0685399495603806
0.39338815595405746 -0.13574025465208112 -0.0685399495603806
0.44560313571005666 -0.16240852593557467 -0.06791685910983168
0.44718578545445087 -0.18265896557841443 -0.06691991438895344
0.6661646933953616 0.1159384401336366 -0.06691991438895344
0.6412659989914269 -0.09198684321453636 -0.06604758775818495
0.7741462684754884 -0.10137058539980302 -0.06604758775818495
0.6165666935316679 0.18326959421995245 -0.06604758775818495
0.4569309201010358 -0.1791821208643515 -0.06604758775818495
0.44951614373950377 -0.13648796319273984 -0.06604758775818495
0.3299201626611451 0.06910696187038022 -0.06604758775818495
0.8470852366167445 -0.051348884029735996 -0.0644275525867578
0.3871323278305464 -0.1693996007907336 -0.0644275525867578
0.5348546118466831 0.060408619180717264 -0.0644275525867578
0.582633187594774 -0.10235506831167022 -0.06355522595598931
0.7075005138847766 0.13540378580878468 -0.06355522595598931
0.8018737935249151 0.0014019535137350233 -0.06355522595598931
0.5239879143891101 -0.020256670547345257 -0.06355522595598931
0.4081678614410778 -0.11629983259495494 -0.06355522595598931
0.43638139704193263 -0.1819735660828107 -0.06293213550544038
0.3734991087725362 -0.14983456064349757 -0.06193519078456209
0.7974623131350289 -0.12016299338835824 -0.06193519078456209
0.6041796553747555 -0.08146907640927056 -0.06106286415379361
0.8012880885013991 -0.07826639149344926 -0.06106286415379361
0.6184733503103477 -0.19104576304280285 -0.06106286415379361
0.39750055292768044 -0.17670222087116685 -0.06106286415379361
0.5146914048669203 0.0720853342240039 -0.06106286415379361
0.39298937806570616 -0.13367159435625875 -0.06106286415379361
0.834187264290382 0.07189840708883923 -0.05944282898236644
0.5348546118466831 0.05811564632269729 -0.05944282898236644
0.30507131549325434 0.06353653324247288 -0.05944282898236644
0.5976621292620139 0.033927275032388376 -0.058570502351597956
0.7884275016020698 -0.09072820050442756 -0.058570502351597956
0.8298879401815945 -0.062252966914342005 -0.058570502351597956
0.40263481824020336 -0.17975536407885642 -0.058570502351597956
0.5247480847387799 -0.04445750364666503 -0.058570502351597956
0.34346614905607836 -0.07760591561586744 -0.058570502351597956
0.40355699210701573 0.18159971181248116 -0.05695046718017079
0.5362877198829458 -0.051348884029735996 -0.05695046718017079
0.8717596184584815 -0.01852447909481915 -0.05695046718017079
0.5977493619250905 0.09608677837914814 -0.05607814054940231
0.7805017910710873 -0.09775666078661924 -0.05607814054940231
0.7938733121398671 -0.09998732459958437 -0.05607814054940231
0.39933243885229414 -0.17437186258611378 -0.05607814054940231
0.5268915158886681 -0.025802175557230515 -0.05607814054940231
0.3424941279532222 -0.07535032818488023 -0.05607814054940231
0.5899358076752073 0.018250319296577732 -0.05445810537797514
0.45170942212543597 0.13890555414086966 -0.05445810537797514
0.8795357872813319 -0.002112276627360813 -0.05445810537797514
0.6011763594031097 0.05671992371346779 -0.05358577874720666
0.7957924307275577 -0.07467739049828737 -0.05358577874720666
0.7746073554088947 0.085257466348608 -0.05358577874720666
0.4458274482722543 -0.1589067576034897 -0.05358577874720666
0.3262813144299394 -0.009215507763618359 -0.05358577874720666
0.4470362437463191 -0.15201537722041875 -0.05358577874720666
0.8467113823464152 -0.056321145825116346 -0.052962688296657734
0.6169280859929862 -0.12016299338835824 -0.05196574357577949
0.3871447896395574 -0.11829372203671142 -0.05196574357577949
0.518267944053071 -0.046538625751498426 -0.051093416945011
0.3865216991890085 0.11882957982418357 -0.051093416945011
0.3872070986846123 0.12464924463231042 -0.051093416945011
0.859571969245745 -0.005900666566698242 -0.051093416945011
0.7167471761709224 0.14436382648767818 -0.051093416945011
0.8239187336653357 -0.023160272046903074 -0.051093416945011
0.5844650735193879 0.0033210721014258135 -0.05047032649446208
0.46920580197684947 0.17843441232369278 -0.04947338177358379
0.5840912192490585 0.018524479094819326 -0.04947338177358379
0.40799339611492413 -0.12614466171362787 -0.048601055142815305
0.4359452337265484 -0.14416443754350247 -0.048601055142815305
0.4431730829529158 -0.15541745108041594 -0.048601055142815305
0.8101484347082049 -0.07684574526619768 -0.048601055142815305
0.6559210863883373 -0.15785996564656768 -0.048601055142815305
0.6412535371824158 0.08816106784816599 -0.048601055142815305
0.767566433317692 0.1291978049213176 -0.04698101997138814
0.5676790167816 0.14561000738877594 -0.04698101997138814
0.4122802584147006 -0.13774660590284862 -0.04610869334061966
0.5283744711609745 -0.016044579101634492 -0.04610869334061966
0.39553158710394587 0.126020043623518 -0.04610869334061966
0.6269224568197909 0.17250259123446712 -0.04610869334061966
0.8104101326974352 0.05870135134621324 -0.04610869334061966
0.8326544617820315 -0.0694309689046656 -0.04610869334061966
0.6034693322611296 -0.01164556052075922 -0.04610869334061966
0.5020302069117663 -0.08909570352398939 -0.044488658169192494
0.6825768958628201 0.09636093817738972 -0.044488658169192494
0.6237696191400134 0.17727546408567194 -0.04361633153842401
0.8330283160523608 0.0529689192011633 -0.04361633153842401
0.5974502785088271 0.09153821809014112 -0.04361633153842401
0.7534098182812207 -0.10964522658309263 -0.04361633153842401
0.5053575099176975 0.08198001057872081 -0.04361633153842401
0.34056254755652055 -0.06908203825235813 -0.04361633153842401
0.42722196741886354 -0.12142163609846704 -0.04361633153842401
0.586596042860265 -0.020094667030202473 -0.04199629636699684
0.8053880236660111 -0.10457327031562433 -0.04199629636699684
0.6325178090657201 0.1859488831573128 -0.04112396973622835
0.6099743965648604 0.05239567598665821 -0.04112396973622835
0.6129776925365061 -0.08726381759937551 -0.04112396973622835
0.3320511320020223 -0.0039815479790076295 -0.04112396973622835
0.4385248281918208 -0.11600074917869145 -0.04112396973622835
0.3352912023448767 0.0013396444686801885 -0.04112396973622835
0.33789572042817123 0.21324024489135526 -0.03950393456480119
0.6661646933953616 -0.13342235817603923 -0.03950393456480119
0.7120864596008166 0.16202220985623428 -0.03950393456480119
0.8394959949290587 0.03209538910777468 -0.038631607934032704
0.6017745262356367 0.00695992033263132 -0.038631607934032704
0.6369043658375846 -0.17943135704457103 -0.038631607934032704
0.507363861168465 -0.06356145686049477 -0.038631607934032704
0.3205862677119222 0.01715368010361172 -0.038631607934032704
0.41766375990744325 -0.16168574101293803 -0.038631607934032704
0.37072012536308807 0.2144241167473982 -0.03701157276260549
0.661341973308113 -0.08417328896465284 -0.03701157276260549
0.6537028843843833 0.1838303756254463 -0.03701157276260549
0.7920414262152534 0.10195629042331895 -0.036139246131837006
0.6252276507942978 -0.18112616307006404 -0.036139246131837006
0.6073823402905769 0.05949890712291594 -0.036139246131837006
0.616504384486613 0.08331342414289548 -0.036139246131837006
0.3447372535751982 0.07225979955015772 -0.036139246131837006
0.3997436785496564 -0.16658323195425234 -0.036139246131837006
0.3214835179607127 -0.05333031166248162 -0.034519210960409843
0.6602079486881138 -0.18718260224939953 -0.034519210960409843
0.8822898470727581 -0.00786963239043283 -0.034519210960409843
0.6927706556338001 0.14604617070416015 -0.03364688432964136
0.8460384446598224 -0.050975029759406806 -0.03364688432964136
0.6438206698386774 -0.09298378793541459 -0.03364688432964136
0.6134138558518903 -0.01653058965306266 -0.03364688432964136
0.4547251799060928 0.11572658938045004 -0.03364688432964136
0.398809042873833 -0.16619691587491212 -0.03364688432964136
0.30507131549325434 -0.020505906727564773 -0.03202684915821419
0.6517837657966925 0.1948466147911513 -0.03202684915821419
0.7998549804651369 0.06248974128555066 -0.03202684915821419
0.7321375102994805 0.14394012498130485 -0.031154522527445706
0.746867368550457 -0.1161253672688013 -0.031154522527445706
0.5998180222209131 -0.016293815281854186 -0.031154522527445706
0.5129965988414273 0.05268229759391084 -0.031154522527445706
0.39353769766218916 -0.16572336713249497 -0.031154522527445706
0.36395336307012677 -0.07440323070004595 -0.031154522527445706
0.3871447896395574 0.21125881725860982 -0.02953448735601854
0.8058241869813954 0.06353653324247288 -0.02953448735601854
0.6322934965035225 0.17101963596216072 -0.028662160725250053
0.8639460642085983 -0.027235283593493132 -0.028662160725250053
0.5965156428330038 -0.09103974572970192 -0.028662160725250053
0.621663573417158 0.0740044528116947 -0.028662160725250053
0.47977341601815904 -0.08141922917322678 -0.028662160725250053
0.3220442993662067 0.012505425342516755 -0.028662160725250053
0.6743894873426072 0.182384805780173 -0.027042125553822887
0.6661646933953616 -0.13342235817603923 -0.027042125553822887
0.37072012536308807 0.16004078222348883 -0.027042125553822887
0.7790063739897701 0.0887966201077259 -0.026169798923054405
0.7229656188674006 -0.13085522551977766 -0.026169798923054405
0.599830484029924 -0.012019414791088583 -0.026169798923054405
0.44053117944258835 0.11543996777319758 -0.026169798923054405
0.4577160140687275 -0.16058910181997185 -0.026169798923054405
0.414897238307006 0.11228713009342006 -0.026169798923054405
0.5020302069117663 0.11080417482111365 -0.024549763751627193
0.6825768958628201 -0.19907116804587294 -0.024549763751627193
0.6656288356078894 0.16225898422744295 -0.023677437120858708
0.8554720340811329 0.03564700467590345 -0.023677437120858708
0.6083543613934331 0.05895058752643293 -0.023677437120858708
0.6137503246951868 0.03443820920183863 -0.023677437120858708
0.32970831190795835 0.035422692113705835 -0.023677437120858708
0.4744272999524493 -0.09846698390024503 -0.023677437120858708
0.3185300692251109 -0.01852447909481915 -0.02205740194943154
0.5676790167816 0.17843441232369278 -0.02205740194943154
0.7459327328746335 0.14561000738877594 -0.02205740194943154
0.8699900415789226 -0.01123432082339692 -0.02118507531866306
0.599842945838935 -0.09111451658376778 -0.02118507531866306
0.6004909599075058 -0.04439519460161019 -0.02118507531866306
0.3865715464250523 -0.12625681799472668 -0.02118507531866306
0.5342315213961343 -0.002511054515712075 -0.02118507531866306
0.3159504747598383 0.030712128307556034 -0.01956504014723589
0.6825768958628201 0.04712433077501437 -0.01956504014723589
0.8577151597031092 0.01696675296844704 -0.018692713516467407
0.7838166322680077 0.11102848738331109 -0.018692713516467407
0.600391265435418 0.09734542108925694 -0.018692713516467407
0.39571851423911053 -0.10826196578287399 -0.018692713516467407
0.5220064867563646 0.050401786544901725 -0.018692713516467407
0.7154013007977368 -0.18265896557841443 -0.018069623065918482
0.6989890983302782 -0.18265896557841443 -0.01707267834504024
0.5840912192490585 -0.002112276627360813 -0.01707267834504024
0.33789572042817123 -0.19907116804587294 -0.01707267834504024
0.6545129019700968 0.1555420691705258 -0.016200351714271755
0.5863592684890564 -0.1038006381569437 -0.016200351714271755
0.34248166614421116 -0.03939800918820794 -0.016200351714271755
0.5329978023040474 -0.0025982871787889857 -0.016200351714271755
0.40475332577206974 -0.1557040726876684 -0.016200351714271755
0.746954601213534 0.14561000738877594 -0.014580316542844588
0.6825768958628201 0.06353653324247288 -0.014580316542844588
0.4935187913572682 -0.09137621457299834 -0.014580316542844588
0.37531853288813904 -0.13944141192834164 -0.014580316542844588
0.8487675808332265 0.05116195689457149 -0.013707989912076104
0.6347360110696743 0.07806700254927354 -0.013707989912076104
0.34124794705212425 -0.03425128206667377 -0.013707989912076104
0.5087595837776947 -0.05726824330995079 -0.013707989912076104
0.36385366859803897 0.059162438279619506 -0.013707989912076104
0.71875352742169 0.16623430130194486 -0.012087954740648893
0.6632984773228365 0.04712433077501437 -0.012087954740648893
0.5248851646379006 0.1127856024538591 -0.012087954740648893
0.8436831627567475 -0.04258823229501839 -0.011215628109880409
0.8107964487767757 0.09429227788156737 -0.011215628109880409
0.6553727667918544 0.0950399864222261 -0.011215628109880409
0.3909705650059278 -0.0913139055279435 -0.011215628109880409
0.5209846184174644 0.04884406041852944 -0.011215628109880409
0.4343251985551213 -0.15601561791294274 -0.011215628109880409
0.3751066821349523 -0.1662467631109561 -0.009595592938453242
0.5233648239385612 0.06353653324247288 -0.009595592938453242
0.8471600074708104 0.0690197292073033 -0.009595592938453242
0.6523943944382306 0.17963074598874676 -0.008723266307684756
0.8024719603574421 -0.09484059747805038 -0.008723266307684756
0.603805801104426 0.036606563969748755 -0.008723266307684756
0.4795491034559614 0.12843763457164784 -0.008723266307684756
0.34764085507475617 0.07465246688026547 -0.008723266307684756
0.4328796287098478 -0.15928061187381906 -0.008723266307684756
0.375904237911655 -0.1662467631109561 -0.00710323113625759
0.5348546118466831 0.04712433077501437 -0.00710323113625759
0.8200431110629214 0.04490612877106027 -0.00710323113625759
0.4670374472089393 0.12382676523758582 -0.006230904505489106
0.47076352810322175 0.13879339785977085 -0.006230904505489106
0.32613177272180766 0.026599731333933216 -0.006230904505489106
0.6000921820191545 -0.042239301642710926 -0.006230904505489106
0.7048087631384052 -0.15697517720678825 -0.006230904505489106
0.8332775522325805 0.03649440768864995 -0.006230904505489106
0.7459451946836445 0.16202220985623428 -0.005607814054940182
0.4475596397247802 0.16202220985623428 -0.004610869334061939
0.37072012536308807 0.22767101972606799 -0.004610869334061939
0.852481199918498 -0.0677610864971945 -0.004610869334061939
0.5109404003546159 0.14317995463163527 -0.003738542703293455
0.36173516106617265 -0.07420384175587023 -0.003738542703293455
0.44932921660433905 -0.14790298024679593 -0.003738542703293455
0.4171279021199711 -0.15662624655448076 -0.003738542703293455
0.6018742207077244 0.09768188993255336 -0.003738542703293455
0.8465743024472945 -0.0565828438143469 -0.003738542703293455
0.8116936990255661 0.06353653324247288 -0.003115452252744531
0.8225105492470952 -0.06190403626203472 -0.002118507531866288
0.7956802744464591 0.1127856024538591 -0.002118507531866288
0.5184424093792248 0.06774862468818348 -0.002118507531866288
0.4347115146344615 -0.16476380783864966 -0.0012461809010978035
0.5059432149412135 0.0637857694226924 -0.0012461809010978035
0.4606570009953184 0.14734219884130187 -0.0012461809010978035
0.48391073660980394 0.1353539385727409 -0.0012461809010978035
0.6411663045193391 0.0779797698861968 -0.0012461809010978035
0.8696411109266153 0.0012274881875813796 -0.0012461809010978035
0.7391410469636505 0.1471054244700934 -0.0012461809010978035
0.4411168844661045 0.1507442727012991 -6.230904505488796E-4
0.6642829602347037 -0.08417328896465284 3.738542703294074E-4
0.3769884152956101 -0.13342235817603923 3.738542703294074E-4
0.48717573057068025 0.08655349448574973 0.001246180901097892
0.40090262678767746 0.11712231198967954 0.001246180901097892
0.5048714993662694 0.13702382098021199 0.001246180901097892
0.6030207071367344 -0.027035894649317414 0.001246180901097892
0.7558772564653942 -0.11769555520418462 0.001246180901097892
0.7424060409245268 0.12800147125626365 0.001246180901097892
0.7646379082001119 0.14561000738877594 0.0018692713516467716
0.5512668143141417 -0.051348884029735996 0.0028662160725250584
0.40355699210701573 0.18159971181248116 0.0028662160725250584
0.3364750742009196 0.011358938913506767 0.0037385427032935433
0.4522951271489519 -0.13818276921823283 0.0037385427032935433
0.4617910256153174 0.1278519295481319 0.0037385427032935433
0.5963162538888281 0.04458212173677487 0.0037385427032935433
0.7927019020928352 -0.09045404070618597 0.0037385427032935433
0.8353088271013701 0.03565946648491449 0.0037385427032935433
0.8631235848138737 0.07994873570993122 0.00535857787472071
0.5348546118466831 0.018636635375918136 0.00535857787472071
0.34195827016575003 -0.027609137863822495 0.0062309045054891946
0.5133330676847235 0.04337332626271005 0.0062309045054891946
0.4241937478291959 0.1430553365415254 0.0062309045054891946
0.6033820995980528 0.012816970567791106 0.0062309045054891946
0.7194264651082828 -0.1451863058824026 0.0062309045054891946
0.8619397129578308 -0.029914572530853334 0.0062309045054891946
0.7974623131350289 0.1127856024538591 0.006853994956038118
0.5313777671326202 0.14561000738877594 0.007850939676916361
0.48209131249420106 0.16056417820194993 0.008723266307684845
0.41848623930216783 -0.16053925458392787 0.008723266307684845
0.4894562416196892 0.10657962156639185 0.008723266307684845
0.5967150317771794 -0.04404626394930273 0.008723266307684845
0.8282055959651122 -0.06895742016224847 0.008723266307684845
0.7105785807104882 0.13486792802131273 0.008723266307684845
0.30507131549325434 0.04712433077501437 0.010343301479112011
0.6825768958628201 0.01429992584009752 0.010343301479112011
0.33915436313828 -0.009464743943838052 0.011215628109880497
0.5192648887739493 -0.003819544461864846 0.011215628109880497
0.39940720970636 -0.12114747630022563 0.011215628109880497
0.6571298818624022 -0.09945146681211241 0.011215628109880497
0.8193452497583068 -0.08035997540729352 0.011215628109880497
0.8163544155956719 0.09622385827826901 0.012835663281307707
0.538929623393273 0.1291978049213176 0.012835663281307707
0.37072012536308807 0.2144241167473982 0.012835663281307707
0.4350355216687471 -0.14612094155822603 0.013707989912076193
0.5311285309524008 0.12621943256769375 0.013707989912076193
0.5989207719721227 -0.10044841153299065 0.013707989912076193
0.7320378158273929 -0.14739204607734585 0.013707989912076193
0.812391560330181 -0.10473527383276711 0.014331080362625072
0.6069087915481597 0.10932121954880707 0.015328025083503359
0.32707887020664195 0.04712433077501437 0.015328025083503359
0.3834934795993407 0.0965727889305763 0.016200351714271845
0.4233089593894165 -0.15366033600986795 0.016200351714271845
0.645291163301973 0.09015495728992248 0.016200351714271845
0.7974373895170069 0.09013003367190058 0.016200351714271845
0.8277445090317063 0.08880908191673695 0.016823442164820766
0.5676790167816 0.1948466147911513 0.01782038688569901
0.874999688801336 0.030712128307556034 0.01782038688569901
0.5264179671462509 0.11259867531869441 0.018692713516467493
0.4244180603913935 0.15125520687074914 0.018692713516467493
0.5975001257448711 -0.03213277453480761 0.018692713516467493
0.8118058553066647 -0.08062167339652407 0.018692713516467493
0.5333093475293219 0.1948466147911513 0.019315803967016418
0.5230034314772428 0.04712433077501437 0.02031274868789466
0.8509234737921257 0.07994873570993122 0.02031274868789466
0.4073453820463532 0.13506731696548827 0.021185075318663146
0.39057178711757634 -0.13178986119560107 0.021185075318663146
0.6022480749780538 -0.021839320291739444 0.021185075318663146
0.7638901996594533 0.11643691249407583 0.021185075318663146
0.8431223813512533 0.05857673325610357 0.021185075318663146
0.6660525371142627 0.04712433077501437 0.022805110490090312
0.3283873601527947 0.04712433077501437 0.022805110490090312
0.3355155149070743 0.024867539881407285 0.023677437120858798
0.49612330944056254 -0.06349914781543994 0.023677437120858798
0.3762780921819843 -0.050975029759406806 0.023677437120858798
0.7990948101154671 0.08765013367871592 0.023677437120858798
0.8406300195490578 0.07994873570993122 0.024300527571407722
0.5552172077706217 0.1948466147911513 0.02529747229228601
0.3928647599755965 0.1291978049213176 0.02529747229228601
0.3974008584555925 -0.13166524310549124 0.02616979892305449
0.5144047832596679 0.13439437927889542 0.02616979892305449
0.6109713412857386 -0.008841653493289173 0.02616979892305449
0.8068335935112844 0.08074629148663391 0.02616979892305449
0.8631235848138737 0.04726141067413525 0.02679288937360337
0.6086534448096966 0.1127856024538591 0.027789834094481658
0.33789572042817123 0.21125881725860982 0.027789834094481658
0.5084854239794531 0.03170907302843427 0.028662160725250144
0.4674736105243235 0.1723530495263354 0.028662160725250144
0.4029214398474558 -0.11763324615912961 0.028662160725250144
0.792851443800967 -0.09654786531255441 0.028662160725250144
0.8839223440531963 -0.005090648980984681 0.028662160725250144
0.8837478787270427 0.030712128307556034 0.03028219589667731
0.5348546118466831 0.06353653324247288 0.03028219589667731
0.8424992909007046 -0.04905591117171602 0.031154522527445796
0.8527678215257505 -0.05847703878401562 0.031154522527445796
0.5913439920934478 -0.08184293067959993 0.031154522527445796
0.33904220685718117 -0.017839079599215435 0.031154522527445796
0.42642441164216105 -0.14371581241910722 0.031154522527445796
0.503887016454402 -0.008405490177904798 0.031154522527445796
0.8770185018611143 -0.0388870750187577 0.03277455769887296
0.45893727135180334 -0.12446231749714574 0.03277455769887296
0.83696624769983 0.05037686292687983 0.03364688432964145
0.6492290949494419 0.07988642666487639 0.03364688432964145
0.5130090606504382 0.015097481616800221 0.03364688432964145
0.4710875351375071 0.14746681693141173 0.03364688432964145
0.462613505010042 0.165075353063924 0.03364688432964145
0.6473224381707624 0.11368285270264958 0.03426997478019037
0.6497524909279031 0.11783263510330533 0.03526691950106861
0.8857417681687992 0.030712128307556034 0.03526691950106861
0.33502950435564616 0.001040561052416698 0.0361392461318371
0.4893191617205685 -0.06630305484290999 0.0361392461318371
0.4717480110150891 0.09437951054464411 0.0361392461318371
0.5901725820464159 0.10868566728924732 0.0361392461318371
0.8678839958560671 -0.026225877063603853 0.0361392461318371
0.8851436013362723 -0.028556235348656766 0.03676233658238602
0.46090623717553797 -0.11526550244704376 0.03775928130326431
0.3681903781338594 0.0706896116147744 0.038631607934032794
0.47799137732958913 -0.07244672668532241 0.038631607934032794
0.5262933490561411 -0.012829432376802145 0.038631607934032794
0.5121865812557136 -0.0017259605480204124 0.038631607934032794
0.6489050879151566 0.08803644975805615 0.038631607934032794
0.8799594887877054 -0.01801354492536908 0.038631607934032794
0.3380203385182809 0.0677610864971945 0.04025164310545996
0.41062283781624054 -0.12408846322681638 0.04112396973622844
0.5181308641539503 0.13703628278922284 0.04112396973622844
0.4892942381025466 0.16513766210897884 0.04112396973622844
0.3628941093041937 0.060121997573464814 0.04112396973622844
0.8500885325883901 0.041728367473260856 0.04112396973622844
0.3315775832596051 -0.04318639912754537 0.04174706018677737
0.40355699210701573 -0.14983456064349757 0.04274400490765561
0.5193645832460372 -0.006573604253291096 0.0436163315384241
0.5246733138847139 0.11292268235297981 0.0436163315384241
0.48215362153925595 0.17448401886721257 0.0436163315384241
0.3469056083431085 -0.019670965523829312 0.0436163315384241
0.6507992828848252 0.08493345931432261 0.0436163315384241
0.8305234924411543 0.07427861260993611 0.0436163315384241
0.5348546118466831 -0.05333031166248162 0.04523636670985126
0.3898240785769178 0.12281735870769672 0.04523636670985126
0.45848864622740815 0.1521649189285505 0.04610869334061975
0.3646512243747415 -0.07694543973828545 0.04610869334061975
0.334543493804218 -0.007421007266037593 0.04610869334061975
0.6429732668259309 0.08098306585784257 0.04610869334061975
0.8419011240681776 -0.04191529460842554 0.04610869334061975
