0.8648499398395052 -0.042176045554385824 -0.12177143979612136
0.610322261615654 -0.111103754288982 -0.12177143979612136
0.3960679501993741 -0.0019153632717932919 -0.12177143979612136
0.680442315698254 0.10835121236859034 -0.12177143979612136
0.47180724884756586 0.06542677984045756 -0.12177143979612136
0.35857249436215183 -0.02188080558836567 -0.12012245154888222
0.895267430738578 -0.03859900951037481 -0.12012245154888222
0.4791262197603119 0.06796368483621013 -0.11923453480036883
0.6522573011954432 0.12836739278507803 -0.11923453480036883
0.6619609628041967 0.003691196768819889 -0.11923453480036883
0.8139976791996456 -0.11521354038210126 -0.11923453480036883
0.5775454490705313 -0.1296865833828693 -0.11923453480036883
0.6781083631021615 -0.15048920434804006 -0.11923453480036883
0.68550344116478 -0.02228671038768603 -0.11923453480036883
0.4476305442380444 -0.1281137022855028 -0.11923453480036883
0.23302106612235907 -0.09758205066162118 -0.11923453480036883
0.4274875185717692 -0.15553764528958755 -0.11758554655312968
0.6445958481082706 0.029225145551068976 -0.11758554655312968
0.761610591037356 -0.20565420348067884 -0.11758554655312968
0.3453298502843235 0.02118315671453346 -0.11669762980461632
0.5651780372162377 -0.12537384489008999 -0.11669762980461632
0.59375627199339 -0.21662631758730846 -0.11669762980461632
0.5312469328980477 0.06674597043824904 -0.11669762980461632
0.8231685907592912 0.03110245524792598 -0.11669762980461632
0.6628361950277313 -0.1446416383328305 -0.11669762980461632
0.7014478890630848 0.08829697837716674 -0.11669762980461632
0.596052171014546 0.029745211075198386 -0.11669762980461632
0.6432259194105642 -0.10542108709849643 -0.11504864155737717
0.4274875185717692 0.07835231079381676 -0.11504864155737717
0.8785619113415475 -0.05530452890740512 -0.11504864155737717
0.4205744524583435 -0.10067707475643925 -0.11416072480886377
0.6785903750513546 -0.005898304115124673 -0.11416072480886377
0.6178315004030814 0.13248986340317573 -0.11416072480886377
0.6109691723895709 -0.2250488421732069 -0.11416072480886377
0.3828633596964822 -0.06904186945940523 -0.11416072480886377
0.6163854645555025 -0.09390353841777993 -0.11416072480886377
0.6812541252968947 -0.06212880334597956 -0.11416072480886377
0.24087278708421314 0.025686163081994246 -0.11416072480886377
0.8618563919445174 -0.1253484758401325 -0.11251173656162464
0.647246913828832 0.059997803149547176 -0.11251173656162464
0.36748971542222186 -0.15553764528958755 -0.11251173656162464
0.4265488637233408 0.03797746778641535 -0.11162381981311126
0.6730599221606139 0.12132748142186466 -0.11162381981311126
0.7786459080838344 0.06940972068378912 -0.11162381981311126
0.6843237803417552 -0.13557220297301517 -0.11162381981311126
0.569922049558295 0.06551557151530896 -0.11162381981311126
0.6906026202062429 -0.06004854124946247 -0.11162381981311126
0.7434717203177252 -0.15936837183317396 -0.11162381981311126
0.22967235152796578 -0.09198817514598681 -0.11162381981311126
0.8644947731400999 -0.07201004830443561 -0.1099748315658721
0.4555710568747497 0.08066089433995159 -0.1099748315658721
0.6458643006061467 -0.10542108709849643 -0.1099748315658721
0.6478177174528764 -0.08072431696484553 -0.10908691481735872
0.6187828397764886 0.029542258675538117 -0.10908691481735872
0.6929238882773563 0.08356565056008822 -0.10908691481735872
0.632012799329338 -0.22180160377864364 -0.10908691481735872
0.3778149187549347 -0.055228421757532724 -0.10908691481735872
0.7210835337302094 -0.020371347115892918 -0.10908691481735872
0.7008770854390406 -0.05563432655685308 -0.10908691481735872
0.3302098965096385 -0.09597111598931819 -0.10908691481735872
0.34463220141049167 -0.1062202121721585 -0.10908691481735872
0.7080184730020839 -0.20565420348067884 -0.10743792657011958
0.45295804472912454 0.07835231079381676 -0.10743792657011958
0.7002809127650388 0.10632168837198837 -0.10655000982160619
0.6939893883755724 -0.1972951015196742 -0.10655000982160619
0.8543471531570898 -0.0024861668958376325 -0.10655000982160619
0.7252440579232435 -0.07817472744411431 -0.10655000982160619
0.6764086367550073 -0.05454345740867951 -0.10655000982160619
0.4542138127020221 0.06995515525787599 -0.10655000982160619
0.6442660504588228 0.006393000589296254 -0.10655000982160619
0.9119729501356085 -0.07201004830443561 -0.10490102157436706
0.24635250187503863 -0.03859900951037481 -0.10490102157436706
0.614381309608858 0.14032889984005098 -0.10401310482585367
0.7096040386244291 0.1020850570290816 -0.10401310482585367
0.7058874728056517 0.0986856043347732 -0.10401310482585367
0.6960569659471105 -0.17691106987880262 -0.10401310482585367
0.4924957090879277 0.0643866487921991 -0.10401310482585367
0.4687249092777266 -0.13991031051575198 -0.10401310482585367
0.689727387982708 -0.014117876301362816 -0.10401310482585367
0.6521050868956981 -0.07364635202669606 -0.10401310482585367
0.35063198172544635 -0.019331216067634282 -0.10236411657861454
0.2850403030602647 0.012189828504590883 -0.10236411657861454
0.8125643278770455 0.06164679139678644 -0.10236411657861454
0.723392117276344 -0.0419096705298318 -0.10147619983010116
0.6875075961114248 -0.20101166733845172 -0.10147619983010116
0.8721308571773148 -0.04851830804376715 -0.10147619983010116
0.7471629170865455 0.06112672587265704 -0.10147619983010116
0.6793768156000378 -0.0024100597459650536 -0.10147619983010116
0.37184050748993747 -0.03540250921572668 -0.10147619983010116
0.662049754479048 -0.06914334565923527 -0.10147619983010116
0.5540029707099479 0.08310900766085275 -0.09982721158286198
0.2719245042322242 -0.11635514763018975 -0.09982721158286198
0.8284326686254776 0.08157418013842253 -0.09982721158286198
0.6430229670109041 0.1348111314742892 -0.09893929483434859
0.7230242660519599 -0.16617996174676958 -0.09893929483434859
0.6090030710178627 -0.23153063443735455 -0.09893929483434859
0.762638037560636 -0.15036235909825255 -0.09893929483434859
0.40421141523573983 -0.0918486453712203 -0.09893929483434859
0.6868606853375077 -0.06155799972193522 -0.09893929483434859
0.6338647399762374 0.014866263275109782 -0.09893929483434859
0.384055705044486 -0.03500928894138496 -0.09893929483434859
0.46089855736583 0.14517438838193839 -0.09729030658710945
0.4274875185717692 -0.15553764528958755 -0.09729030658710945
0.7346432909325065 -0.16678881894575 -0.09640238983859607
0.6764340058049649 -0.2060854773299567 -0.09640238983859607
0.8051311962394907 -0.13437985762501156 -0.09640238983859607
0.757716441868876 0.0729740722028215 -0.09640238983859607
0.5393142907845407 -0.1384769591931518 -0.09640238983859607
0.6727681780861025 0.014790156125237203 -0.09640238983859607
0.5936040576936449 -0.10448243225006801 -0.09640238983859607
0.895267430738578 -0.052082659562799526 -0.09475340159135694
0.6947885134492343 0.011530233205695139 -0.09475340159135694
0.6206220958984092 0.14049379866477496 -0.09386548484284354
0.6165884169551628 -0.21637262708773328 -0.09386548484284354
0.7435731965175555 -0.07283454242805516 -0.09386548484284354
0.7068641812290163 -0.17710133775348408 -0.09386548484284354
0.5873759559290723 0.0527803084366312 -0.09386548484284354
0.3924274915304693 -0.09188669894615659 -0.09386548484284354
0.6785523214764183 -0.08196740041276425 -0.09386548484284354
0.8148094887982866 -0.13883212589255722 -0.09132857984709103
0.678082994052204 0.04494127199975595 -0.09132857984709103
0.6197088100999383 0.14287848936078218 -0.09132857984709103
0.7567397334455113 0.07184514947971145 -0.09132857984709103
0.7253201650731161 0.09787379473613249 -0.09132857984709103
0.7444991668410053 -0.15079363294753037 -0.09132857984709103
0.6292602574089465 0.027791794228468805 -0.09132857984709103
0.3724747337388756 -0.05673788023000548 -0.09132857984709103
0.5931474147944094 -0.13264207770292108 -0.09132857984709103
0.6185291492769135 0.14584666820581277 -0.08879167485133851
0.6268248286130242 -0.215319811514496 -0.08879167485133851
0.7593907991660727 -0.14418499543359503 -0.08879167485133851
0.769411573899295 -0.10332814047700051 -0.08879167485133851
0.4352377633337932 0.05004045104121854 -0.08879167485133851
0.47991266030899515 -0.14206667976214166 -0.08879167485133851
0.6954988468480452 -0.06639080373884379 -0.08879167485133851
0.4274875185717692 -0.15553764528958755 -0.08765006760324988
0.7072447169783792 -0.03517418776610894 -0.08765006760324988
0.6154594942320528 0.14601156703053675 -0.08625476985558594
0.6162205657307787 -0.21713369858645906 -0.08625476985558594
0.7688534548002294 -0.13502676839892847 -0.08625476985558594
0.7828571703767835 0.0631181962943229 -0.08625476985558594
0.41981338095961773 -0.11266395086136986 -0.08625476985558594
0.7010800378387007 -0.05426439785914666 -0.08625476985558594
0.43989298400099897 0.04924132596755647 -0.08625476985558594
0.5787631634684925 0.07835231079381676 -0.08409840060919632
0.7281995522432952 -0.20887607282528461 -0.08409840060919632
0.6888521557591736 0.1419652035623116 -0.08409840060919632
0.7825907953522293 0.052716885811737446 -0.08371786485983343
0.6613521056052161 0.13724656027021173 -0.08371786485983343
0.6280679120609429 0.1298007441076782 -0.08371786485983343
0.6475386579033435 0.019914704216657263 -0.08371786485983343
0.36679206654839 -0.0160712931480924 -0.08371786485983343
0.568425275610801 -0.14405815018380733 -0.08371786485983343
0.6267106678882153 0.14044306056486003 -0.0811809598640809
0.7852164920228334 -0.13652354234642242 -0.0811809598640809
0.6612125758304497 0.1375763579196597 -0.0811809598640809
0.6466507411548302 0.14659505517955973 -0.0811809598640809
0.685566863789674 -0.006278839864487566 -0.0811809598640809
0.5112688060564965 0.07684285232134401 -0.0811809598640809
0.3625173816305469 -0.006735482763723039 -0.0811809598640809
0.3829521513713336 0.005454345740867843 -0.0811809598640809
0.7098830981739618 -0.02188080558836567 -0.08054673361514277
0.8425505449268403 0.06164679139678644 -0.08054673361514277
0.6207996792481119 0.141445138038182 -0.07864405486832839
0.7920280819364287 -0.13298455987734767 -0.07864405486832839
0.6160049288061396 0.15086974009740295 -0.07864405486832839
0.7093630326498326 0.10332814047700033 -0.07864405486832839
0.5468742676718833 0.0694477742587254 -0.07864405486832839
0.4449921630424616 -0.13646011972152866 -0.07864405486832839
0.6794148691749741 -0.005340185016059156 -0.07864405486832839
0.37735827585569925 0.09505783019084725 -0.07800982861939024
0.4776040767628605 -0.19217055342825412 -0.07800982861939024
0.8556663437548812 0.02984668727502843 -0.07800982861939024
0.8291810555992245 -0.10523081922381498 -0.07610714987257586
0.6864294114882298 -0.205375143931146 -0.07610714987257586
0.6378476808195689 -0.22449072307414136 -0.07610714987257586
0.8095454109320999 0.04179550980502275 -0.07610714987257586
0.6769921249040304 0.0018519406468991758 -0.07610714987257586
0.3556677381420152 -0.012557679728975132 -0.07610714987257586
0.43894164462759194 -0.12495525556579097 -0.07610714987257586
0.678082994052204 -0.10742524204514094 -0.07547292362363772
0.8041291187661683 0.07709654282091921 -0.07547292362363772
0.7950216298314169 -0.17546503403122382 -0.07547292362363772
0.8284707222004141 0.034248217442659 -0.0735702448768233
0.8782447982170783 -0.045867242323205715 -0.0735702448768233
0.8556282901799447 -0.08800523430265525 -0.0735702448768233
0.8442629557989736 -0.07169293517996647 -0.0735702448768233
0.4261302743990416 0.059338207850651616 -0.0735702448768233
0.511560550131008 -0.15423113921677506 -0.0735702448768233
0.3675277689971581 -0.05569774918174684 -0.0735702448768233
0.39406379525272955 -0.15553764528958755 -0.07293601862788521
0.6926955668277386 0.011530233205695139 -0.07293601862788521
0.9119729501356085 -0.05530452890740512 -0.07293601862788521
0.8172322330692303 -0.1162029333304446 -0.07103333988107077
0.8256040195552137 0.042607319403663656 -0.07103333988107077
0.8289146805746707 0.049647230766876826 -0.07103333988107077
0.8293966925238634 0.014320828701022907 -0.07103333988107077
0.48173923190593704 0.06896576230953247 -0.07103333988107077
0.456141860498794 -0.14656968612960244 -0.07103333988107077
0.36872011434516194 -0.06151994614699893 -0.07103333988107077
0.7282122367682741 -0.2024450186610519 -0.07039911363213264
0.43036690574194836 0.07835231079381676 -0.07039911363213264
0.5110151155569214 -0.17224316468661804 -0.07039911363213264
0.6407016989397905 0.13865454254285425 -0.06849643488531826
0.7774662472608093 -0.15160544254617128 -0.06849643488531826
0.748735798183912 -0.17696180797871774 -0.06849643488531826
0.6431624967856704 -0.2238691813501819 -0.06849643488531826
0.6311883052057184 -0.103201295227213 -0.06849643488531826
0.5817313423135229 0.06590879178965067 -0.06849643488531826
0.3517862734985137 -0.06748167288701735 -0.06849643488531826
0.3832438954458451 -0.08908341892585019 -0.06849643488531826
0.49032665531655945 -0.17967629632417292 -0.06786220863638012
0.5867544142051129 0.07835231079381676 -0.06684744663807912
0.4565985033980295 -0.18894868408364834 -0.06684744663807912
0.4841873452268382 -0.17233195636146945 -0.06595952988956574
0.6669586656458292 -0.08286800168625637 -0.06595952988956574
0.5850800569079164 0.0703356910072387 -0.06595952988956574
0.3598282623350492 -0.04250584320383379 -0.06595952988956574
0.8157988817466302 0.0444085219506479 -0.06595952988956574
0.8817584116361958 -0.04286100990323904 -0.06595952988956574
0.830335347372292 -0.11776312990283247 -0.06595952988956574
0.6408919668144719 -0.22964064021551908 -0.06595952988956574
0.2938306788705473 0.1284688689849079 -0.06431054164232661
0.5774186038207437 -0.15231577594498194 -0.06431054164232661
0.7449050716403258 0.13169073832951383 -0.06431054164232661
0.6372895617205034 0.14278969768593114 -0.06342262489381321
0.6823196253951107 0.13771588769442603 -0.06342262489381321
0.8534338673586188 -0.07171830422992412 -0.06342262489381321
0.6439235682843962 -0.22530253267278208 -0.06342262489381321
0.6475259733783647 -0.09669413391310769 -0.06342262489381321
0.5969400877630593 0.06574389296492669 -0.06342262489381321
0.6664639691716574 -0.08801791882763407 -0.06342262489381321
0.3727791623383659 0.010629631932203018 -0.06342262489381321
0.46212895628876993 0.09505783019084725 -0.06278839864487508
0.8451508725474869 0.07835231079381676 -0.061773636646574044
0.6446719552581431 -0.13883212589255722 -0.061773636646574044
0.3105361982675776 -0.10542108709849643 -0.061773636646574044
0.645534502956699 0.14989303167403825 -0.06088571989806066
0.8544613138818984 -0.0859883948310321 -0.06088571989806066
0.6916934893544162 -0.19392101787532345 -0.06088571989806066
0.5585313461273661 0.06853448846025446 -0.06088571989806066
0.41650271994016075 0.061773636646573954 -0.06088571989806066
0.3360574625248481 -0.035427878265684144 -0.06088571989806066
0.35259808309715457 -0.026903877479955686 -0.06088571989806066
0.8294347460987999 -0.007737560237045206 -0.05923673165082152
0.8284326686254776 0.09505783019084725 -0.05923673165082152
0.7240263435252823 -0.20565420348067884 -0.05923673165082152
0.37735827585569925 0.09505783019084725 -0.05923673165082152
0.810940708679764 0.04329228375251686 -0.05834881490230814
0.8640254457158857 -0.009475340159135693 -0.05834881490230814
0.8735895775498725 -0.04364745045192229 -0.05834881490230814
0.7888442661667596 -0.15766864548601975 -0.05834881490230814
0.6803408394984237 -0.00767413761215145 -0.05834881490230814
0.675305083081855 0.005340185016058975 -0.05834881490230814
0.3558453214917178 -0.03464143771700089 -0.05834881490230814
0.6571535278372456 -0.22920936636624106 -0.057714588653369994
0.6821039884704718 0.14660773970453855 -0.05669982665506901
0.8174732390438265 -0.08871556770146594 -0.05669982665506901
0.6589039922843148 -0.23906524227473966 -0.05669982665506901
0.4565985033980295 0.1284688689849079 -0.05669982665506901
0.7256753317725214 0.11525159395703737 -0.055811909906555615
0.8691373092823269 -0.018811150543505052 -0.055811909906555615
0.6606290876814266 -0.20977667409877673 -0.055811909906555615
0.823016376459546 -0.13443059572492666 -0.055811909906555615
0.5309932423984723 0.07979834664139575 -0.055811909906555615
0.5046347994926037 0.08811939502746394 -0.055811909906555615
0.4359480967326039 0.062306386695682 -0.055811909906555615
0.4555710568747497 -0.16237460425314063 -0.05517768365761747
0.6653984690734414 -0.12212660649552674 -0.054162921659316486
0.2604196400764865 0.07835231079381676 -0.054162921659316486
0.6961203885720046 0.1419652035623116 -0.054162921659316486
0.822065037086139 -0.08871556770146594 -0.054162921659316486
0.708005788477105 0.11221999248711303 -0.053275004910803093
0.8808704948876825 -0.03972793223348466 -0.053275004910803093
0.8514550814619317 -0.06649227993867383 -0.053275004910803093
0.820289203589112 -0.1347857624243319 -0.053275004910803093
0.5293696232011907 -0.15112343059697816 -0.053275004910803093
0.5927668790450464 -0.13956782834132536 -0.053275004910803093
0.37929900817745 -0.09203891324590174 -0.053275004910803093
0.6523334083453158 -0.11211851628728317 -0.05264077866186496
0.8451508725474869 -0.142053995237163 -0.051626016663563964
0.6654618916983351 0.16187990777896888 -0.051626016663563964
0.6403719012903427 -0.1261476009137946 -0.051626016663563964
0.2604196400764865 0.07835231079381676 -0.051626016663563964
0.7702360680229146 0.09028844879883244 -0.05073809991505058
0.864050814765843 0.0155131740490267 -0.05073809991505058
0.7708702942718529 -0.14682337662917763 -0.05073809991505058
0.4657694149576749 -0.1506287341228064 -0.05073809991505058
0.504076680393538 -0.15510637144030973 -0.05073809991505058
0.49878723347739395 -0.16272977095254607 -0.05073809991505058
0.46546498635818456 0.07434400090052773 -0.05073809991505058
0.6654618916983351 0.024658716558714433 -0.050103873666112436
0.7026529189360672 -0.0405904799320405 -0.0490891116678114
0.27712515947351685 -0.18894868408364834 -0.0490891116678114
0.6279537513361341 0.06347336299372815 -0.0490891116678114
0.895267430738578 -0.07401420325108013 -0.0490891116678114
0.7001160139403149 0.1213528504718223 -0.04820119491929801
0.8590404273992319 0.008295679336110723 -0.04820119491929801
0.6502024081488837 -0.22323495510124383 -0.04820119491929801
0.47511790986702285 0.10268122970308359 -0.04820119491929801
0.4457278654912299 0.07802251314436898 -0.04820119491929801
0.4652620339585243 0.10407652745074747 -0.04820119491929801
0.5413057612062064 0.06996783978285463 -0.04820119491929801
0.44594350241586883 0.10211042607903925 -0.047566968670359915
0.6962472338217921 -0.22235972287770917 -0.04655220667205888
0.8785619113415475 0.03144493742235258 -0.04655220667205888
0.6613774746551737 -0.12212660649552674 -0.04655220667205888
0.2604196400764865 0.028235752602725633 -0.04655220667205888
0.7156672415642779 0.1149217963075894 -0.045664289923545494
0.8603596179970231 -0.010490102157436863 -0.045664289923545494
0.6747596485077682 -0.21633457351279697 -0.045664289923545494
0.469980677250624 0.10205968797912414 -0.045664289923545494
0.4537825388527443 0.08730758542882322 -0.045664289923545494
0.4611522478654052 0.10685443842109642 -0.045664289923545494
0.4322949535387203 -0.13311140512713518 -0.045664289923545494
0.42236297048034915 0.06306745819440779 -0.045664289923545494
0.44492874041756786 0.1128795877860086 -0.04503006367460735
0.8262762993790881 0.04494127199975595 -0.04401530167630636
0.6129225892363003 -0.13883212589255722 -0.04401530167630636
0.4234538396285227 0.09505783019084725 -0.04401530167630636
0.6410314965892384 0.14895437682560966 -0.04312738492779297
0.8599283441477452 0.00868889961045226 -0.04312738492779297
0.7909372127882554 -0.13259133960300595 -0.04312738492779297
0.33372350992875577 -0.03507271156627872 -0.04312738492779297
0.33430699807777875 -0.06377779159321864 -0.04312738492779297
0.33009573578482965 -0.005505083840783136 -0.04312738492779297
0.43344924531178763 0.06698697641284541 -0.04312738492779297
0.7322205466615631 -0.20272407821058458 -0.04249315867885483
0.6816219765212788 0.01673088844698778 -0.04249315867885483
0.44901315746072945 -0.19794201229359112 -0.04249315867885483
0.6279537513361341 0.06295329746959892 -0.04249315867885483
0.790049296039742 0.05810780892771153 -0.04059047993204045
0.6481475151023242 -0.21805966890990863 -0.04059047993204045
0.8214561798871584 -0.13829937584344917 -0.04059047993204045
0.6485914734765809 -0.10055022950665156 -0.04059047993204045
0.6652716238236537 -0.08961616897495824 -0.04059047993204045
0.6433781337103094 -0.10913765291727395 -0.04059047993204045
0.45838702142003507 0.0930283061942451 -0.04059047993204045
0.6916934893544162 0.011530233205695139 -0.03995625368310231
0.2938306788705473 0.1284688689849079 -0.03894149168480132
0.4998781026255677 -0.1742980577331775 -0.03894149168480132
0.8378065325847832 0.006824274438574261 -0.03894149168480132
0.8073636726357528 0.05692814810468674 -0.03805357493628793
0.8756064170214958 -0.031368830272480185 -0.03805357493628793
0.6459023541810831 -0.2084828525509429 -0.03805357493628793
0.47951944003465363 0.09505783019084725 -0.03805357493628793
0.5365871179141067 0.08077505506476046 -0.03805357493628793
0.6231590008941618 0.052995945361270294 -0.03805357493628793
0.34146107016580096 -0.0422902062791947 -0.03805357493628793
0.4610127180906389 -0.16374453295084704 -0.03805357493628793
0.7114940328462648 -0.21769181768552456 -0.03741934868734979
0.2938306788705473 -0.07201004830443561 -0.03640458668904876
0.6899557094323258 -0.0051752861913351746 -0.03640458668904876
0.8451508725474869 -0.15553764528958755 -0.03640458668904876
0.733235308659864 0.11270200443630597 -0.035516669940535366
0.8510238076126538 -0.07213689355422331 -0.035516669940535366
0.6481475151023242 -0.20293971513522366 -0.035516669940535366
0.44591813336591135 -0.1547892583158406 -0.035516669940535366
0.33645068279918977 -0.08033109669050398 -0.035516669940535366
0.32172394929884635 -0.020396716165850384 -0.035516669940535366
0.33537249817599485 -0.04783334369491394 -0.035516669940535366
0.7179250870104975 -0.21516759721475084 -0.03488244369159727
0.37735827585569925 0.09505783019084725 -0.03386768169329624
0.6457755089312955 -0.123344320893488 -0.03386768169329624
0.8757713158462197 0.011530233205695139 -0.03386768169329624
0.6914651679047985 0.13553414939807887 -0.03297976494478285
0.8664355054618506 0.0022197918712834265 -0.03297976494478285
0.7763500090626781 -0.14471774548270308 -0.03297976494478285
0.37658451983199465 -0.123775594742766 -0.03297976494478285
0.32287824107191365 -0.035427878265684144 -0.03297976494478285
0.42415148850235457 0.08342612078532188 -0.03297976494478285
0.4852908988999906 0.07858063224343449 -0.03297976494478285
0.36841568574567163 -0.10292223567768015 -0.03297976494478285
0.8785619113415475 -0.10542108709849643 -0.031330776697543715
0.6947885134492343 -0.0051752861913351746 -0.031330776697543715
0.39406379525272955 -0.15732616331159316 -0.031330776697543715
0.8274940137770493 0.058412237527201843 -0.03044285994903033
0.6757363569311329 -0.20543856655603993 -0.03044285994903033
0.6780322559522889 -0.035554723515471835 -0.03044285994903033
0.57632773467257 -0.13732266742008448 -0.03044285994903033
0.44038768047517074 -0.16302151502705756 -0.03044285994903033
0.4504972468832447 0.12170801717122756 -0.03044285994903033
0.646980538804278 0.012633786878847532 -0.03044285994903033
0.7458183574387964 0.12158117192143969 -0.029808633700092187
0.27712515947351685 -0.18894868408364834 -0.028793871701791197
0.7887047363919929 0.09505783019084725 -0.028793871701791197
0.8451508725474869 -0.1428531203108249 -0.028793871701791197
0.45930030721850584 0.08402229345932369 -0.027905954953277808
0.48842397656974496 0.09423333606722753 -0.027905954953277808
0.6865182031630812 -0.03544056279066297 -0.027905954953277808
0.4611268788154477 -0.16602774744702442 -0.027905954953277808
0.4430133771457747 -0.15277241884421744 -0.027905954953277808
0.7401864283482259 -0.19171391052901865 -0.027905954953277808
0.6780322559522889 0.13411348260045752 -0.027905954953277808
0.7572851680195981 -0.19026787468143966 -0.027271728704339665
0.8346354013400925 -0.08125706701395358 -0.026256966706038675
0.787157224344584 0.09619943743893575 -0.026256966706038675
0.5778371931450428 -0.17546503403122382 -0.026256966706038675
0.4447257880179076 0.11130670668864209 -0.02536904995752529
0.5017300432724668 0.08256357308676605 -0.02536904995752529
0.6529168964943389 -0.08940053205031914 -0.02536904995752529
0.43265012023812555 -0.16441681277472142 -0.02536904995752529
0.45588816999921883 0.12049030277326629 -0.02536904995752529
0.4393602339518911 0.08086384673961186 -0.02536904995752529
0.8268090494281961 -0.13505213744888594 -0.02536904995752529
0.6878881318607877 0.12589391041421902 -0.02536904995752529
0.7638430674336184 -0.18685573746215262 -0.024734823708587147
0.7835167656756791 -0.17422195058330492 -0.023720061710286112
0.8576704987015256 0.06164679139678644 -0.023720061710286112
0.8228768466847797 0.023935698634925114 -0.023720061710286112
0.27712515947351685 0.09505783019084725 -0.023720061710286112
0.6775882975780322 -0.04808703419448932 -0.022832144961772723
0.504241579218262 -0.15797307408551006 -0.022832144961772723
0.353638214145413 -0.11664689170470142 -0.022832144961772723
0.4560530688239426 0.1201985586987548 -0.022832144961772723
0.3868082469648775 0.061900481896361645 -0.022832144961772723
0.8030128805680373 -0.14410888828372245 -0.022832144961772723
0.8427154437515644 -0.084491620883538 -0.022832144961772723
0.8135917744003254 0.0393981345840367 -0.022832144961772723
0.8425505449268403 -0.13883212589255722 -0.02219791871283463
0.32724171766460797 0.07835231079381676 -0.021183156714533594
0.697541055369626 -0.0404255811073167 -0.021183156714533594
0.8494382419903086 -0.13883212589255722 -0.021183156714533594
0.5871983725793696 -0.13399932187564867 -0.020295239966020204
0.44993912778417905 -0.16822217026835018 -0.020295239966020204
0.32868775351218693 -0.08408571608421762 -0.020295239966020204
0.45366837812793537 0.10057559855660884 -0.020295239966020204
0.6173748575038459 0.04060316445701914 -0.020295239966020204
0.7568412096453411 -0.15807455028534012 -0.020295239966020204
0.8801474769638928 -0.005758774340358338 -0.020295239966020204
0.7683841273760155 0.09952278298337157 -0.020295239966020204
0.4776040767628605 -0.23906524227473966 -0.018646251718781072
0.2938306788705473 -0.19217055342825412 -0.018646251718781072
0.8163062627457806 0.02643455005574121 -0.018646251718781072
0.7717835800703239 -0.18784513041049614 -0.018646251718781072
0.8170673342445064 -0.13914923901702636 -0.017758334970267683
0.8605118322967682 0.025774954756845648 -0.017758334970267683
0.44073016264959736 -0.18207367154515916 -0.017758334970267683
0.5398724098836062 0.07698238209611034 -0.017758334970267683
0.6689755051174524 0.007965881686662941 -0.017758334970267683
0.5912066824726586 -0.1431956024852515 -0.017758334970267683
0.6223725603454785 0.0362904259642398 -0.017758334970267683
0.825908448154704 -0.09748057446179095 -0.017124108721329544
0.8618563919445174 0.04816314134436172 -0.016109346723028554
0.6446719552581431 -0.13883212589255722 -0.016109346723028554
0.36065275645866873 0.14839625772654397 -0.016109346723028554
0.78053590230567 0.0793543882671391 -0.015221429974515165
0.8250205314061904 0.050015081991261076 -0.015221429974515165
0.8197310844900463 0.061367731847253595 -0.015221429974515165
0.6212055840474323 -0.11357723665984082 -0.015221429974515165
0.46708860555546616 -0.16168963990428742 -0.015221429974515165
0.41687057116454485 -0.15572791316426898 -0.015221429974515165
0.4292760365937748 0.11621561785542324 -0.015221429974515165
0.6189096850262762 -0.11041878994012898 -0.015221429974515165
0.3105361982675776 -0.20887607282528461 -0.013572441727276032
0.2938306788705473 -0.05530452890740512 -0.013572441727276032
0.6989997757421834 -0.02188080558836567 -0.013572441727276032
0.7599616027901168 -0.1734608790845793 -0.012684524978762645
0.8827731736344969 -0.049190587867641536 -0.012684524978762645
0.8279760257262421 -0.1229637851441251 -0.012684524978762645
0.43933486490193346 -0.1753635578313936 -0.012684524978762645
0.3908292413831451 -0.14483190620751196 -0.012684524978762645
0.3652826080759172 0.0647291309666257 -0.012684524978762645
0.48945142309302475 0.09829238406043167 -0.012684524978762645
0.6196453874750445 0.03909370598454639 -0.012684524978762645
0.5611316737480124 0.11176334958787756 -0.011035536731523467
0.4713632904733092 -0.18077984999732533 -0.011035536731523467
0.8385168659835941 -0.13751293529476594 -0.011035536731523467
0.6070877077460696 -0.12094694567250194 -0.01014761998301008
0.4641331112354144 -0.16231118162824687 -0.01014761998301008
0.3860725445161092 -0.15482731189077686 -0.01014761998301008
0.42734798879700286 0.1272511545869466 -0.01014761998301008
0.640460692965194 0.008359101961004478 -0.01014761998301008
0.8070465595112837 0.0591986780758851 -0.01014761998301008
0.8609557906710249 -0.004020994418267851 -0.01014761998301008
0.7573359061195131 -0.18571413021406394 -0.01014761998301008
0.4215004227817933 0.13453207192475652 -0.008498631735770949
0.6929619418522924 -0.06805247651106171 -0.008498631735770949
0.811727149228447 -0.17224316468661804 -0.008498631735770949
0.4304683819417784 0.08787838905286756 -0.00761071498725756
0.5771014906962746 0.07287259600299127 -0.00761071498725756
0.6729203923858477 -0.07240326857877734 -0.00761071498725756
0.37786565685484985 -0.13602884587225064 -0.00761071498725756
0.6737956246093822 -0.025889115481654696 -0.00761071498725756
0.8018332197450125 0.07337997700214186 -0.00761071498725756
0.876570440919882 -0.039740616758463486 -0.00761071498725756
0.6112482319391036 -0.17224316468661804 -0.005961726740018428
0.6340803769008765 0.0555455348820015 -0.005961726740018428
0.895267430738578 0.028235752602725633 -0.005961726740018428
0.6773726606533933 -0.05284373106152532 -0.00507380999150504
0.5334540402443523 -0.15473852021592566 -0.00507380999150504
0.42342847057856525 -0.1963691311962246 -0.00507380999150504
0.42401195872758823 0.09715077681234299 -0.00507380999150504
0.6530944798440416 -0.006748167288701862 -0.00507380999150504
0.887834299101023 -0.03730518796254097 -0.00507380999150504
0.8137439887000706 0.07223836975405318 -0.00507380999150504
0.8359926455128202 -0.15553764528958755 -0.004439583742566898
0.2604196400764865 0.06365094634343095 -0.0034248217442659087
0.8328849368930232 -0.1428531203108249 -0.0034248217442659087
0.3105361982675776 0.14517438838193839 -0.0034248217442659087
0.49254644718784285 0.08478336495804949 -0.00253690499575252
0.6513947534968874 0.007902459061769005 -0.00253690499575252
0.5723447938292386 -0.15047651982306123 -0.00253690499575252
0.44399008556913944 0.08884241295125345 -0.00253690499575252
0.8142640542241998 -0.1328196610526237 -0.00253690499575252
0.8433116164255662 -0.09330736574377813 -0.00253690499575252
0.7965691418788258 0.0854302757319664 -0.00253690499575252
0.2604196400764865 0.04494127199975595 -8.879167485133887E-4
0.8425505449268403 -0.13385979210088234 -8.879167485133887E-4
0.4444086748934386 -0.16927498584158765 0.0
0.42487450642614405 -0.16366842580097446 0.0
0.33684390307353135 0.04796018894470145 0.0
0.47031047490007194 0.09589500883944543 0.0
0.6395474071667231 -0.06882623253476614 0.0
0.8257689183799376 -0.11886668357598486 0.0
0.8455440928218286 0.008029304311556698 0.0
0.5028843350455344 -0.17224316468661804 0.001648988247239176
0.6613774746551737 0.028235752602725633 0.001648988247239176
0.8618563919445174 0.0489622664180238 0.001648988247239176
0.6185545183268709 0.043216176602644284 0.002536904995752565
0.6764086367550073 -0.01737779922090488 0.002536904995752565
0.6437967230346086 -0.08785302000291009 0.002536904995752565
0.4585265511948014 0.08215766828744551 0.002536904995752565
0.8879991979257469 -0.04053974183212557 0.002536904995752565
0.8222933585357567 0.06571852391496923 0.002536904995752565
0.4591607774437395 -0.18514332659001959 0.004185893242991696
0.6112482319391036 0.09505783019084725 0.004185893242991696
0.8622242431689014 0.037952098736457704 0.004185893242991696
0.5002586383749305 0.08298216241106506 0.005073809991505085
0.6041702670009541 0.05682667190485652 0.005073809991505085
0.6800744644738697 -0.03537714016576903 0.005073809991505085
0.6313405195054637 0.02529294280765271 0.005073809991505085
0.8402926994806207 0.029377359850814137 0.005073809991505085
0.8362209669624379 0.018544775518950847 0.005073809991505085
0.5818074494633955 -0.15553764528958755 0.006722798238744216
0.6533354858186382 0.026244282181059765 0.006722798238744216
0.8753400419969419 0.016997263471541808 0.006722798238744216
0.6221696079458182 0.040742694231785476 0.007610714987257605
0.6440884671091202 0.004477637317503142 0.007610714987257605
0.650291199823735 -0.07563782244836174 0.007610714987257605
0.4247983992762715 -0.15528395479001234 0.007610714987257605
0.8368551932113761 0.032167955346141905 0.007610714987257605
0.894316091365171 -0.03395647336814768 0.007610714987257605
0.4776040767628605 -0.22235972287770917 0.009259703234496736
0.47183261789752334 0.10658806339654239 0.009259703234496736
0.8950898473888752 -0.009196280609603025 0.009259703234496736
0.5733088177276245 -0.13927608426681387 0.010147619983010125
0.5085796867609987 -0.15750374666129577 0.010147619983010125
0.44850577646157885 -0.1732832957348765 0.010147619983010125
0.6597538554578921 -0.03730518796254097 0.010147619983010125
0.8470408667693226 0.02894608600153631 0.010147619983010125
0.8473579798937917 -0.0819039777878705 0.010147619983010125
0.2604196400764865 0.028235752602725633 0.011796608230249256
0.6961964957218771 -0.02188080558836567 0.011796608230249256
0.8704945534550546 -0.10542108709849643 0.011796608230249256
0.6346384959999419 -0.0700946850326425 0.012684524978762645
0.6163981490804813 -0.11924721932534775 0.012684524978762645
0.44321632954543483 -0.17834442120140281 0.012684524978762645
0.6579019148109927 -0.039740616758463486 0.012684524978762645
0.8199847749896216 0.052158766712671924 0.012684524978762645
0.851594611236698 0.0016616727722179093 0.012684524978762645
0.6947885134492343 -0.07201004830443561 0.01433351322600182
0.3361969922996144 -0.13883212589255722 0.01433351322600182
0.5748436452500549 0.06751972646195346 0.01522142997451521
0.5149980564002526 0.08535416858209383 0.01522142997451521
0.6422618955121783 0.031039032623032044 0.01522142997451521
0.644354842133674 -0.06850911941029718 0.01522142997451521
0.8331893654925135 -0.11639320120512604 0.01522142997451521
0.8951279009638117 -0.03930934290918548 0.01522142997451521
0.8983244012584599 -0.011885399905100747 0.015855656223453304
0.4897051135926 0.10320129522721282 0.01687041822175434
0.6446719552581431 -0.13883212589255722 0.01687041822175434
0.6289558288094562 -0.07605641177266093 0.017758334970267728
0.5775835026454675 -0.1425106381363983 0.017758334970267728
0.43003710809250056 -0.192551089177617 0.017758334970267728
0.6566080932631588 -0.03691196768819943 0.017758334970267728
0.8380094849844433 0.034070634092956374 0.017758334970267728
0.8945444128147887 -0.05392191568472006 0.017758334970267728
0.4296438878181589 -0.2024450186610519 0.01940732321750686
0.6613774746551737 0.011530233205695139 0.01940732321750686
0.6180978754276355 -0.13883212589255722 0.01940732321750686
0.4350601799840904 -0.16859002149273444 0.02029523996602025
0.30600782285015937 -0.05587533253144946 0.02029523996602025
0.4339058882110231 0.11891742167589979 0.02029523996602025
0.45842507499497137 0.08903268082593489 0.02029523996602025
0.8888744301492817 -0.02311120451130557 0.02029523996602025
0.8986795679578652 -0.051385010688967496 0.02029523996602025
0.27712515947351685 -0.18894868408364834 0.02194422821325938
0.678082994052204 -0.0051752861913351746 0.02194422821325938
0.3239564256951086 0.016248876497794842 0.022832144961772768
0.42308598840413864 0.09489293136612327 0.022832144961772768
0.5080849902868271 0.08608987103086196 0.022832144961772768
0.6546166228414931 -0.014917001375024894 0.022832144961772768
0.619023845751085 0.02095483526491572 0.022832144961772768
0.8619451836193684 -0.08499900188268858 0.022832144961772768
0.6916934893544162 -0.05530452890740512 0.02346637121071091
0.3655236140505136 0.09505783019084725 0.0244811332090119
0.6613774746551737 -0.07629741774725732 0.0244811332090119
0.6474118126535561 -0.044877849374862375 0.02536904995752529
0.6237424890431847 -0.10935328984191288 0.02536904995752529
0.43593541220762505 -0.18732506488636674 0.02536904995752529
0.42899697704424194 0.1151374332322285 0.02536904995752529
0.6110325950144646 0.03187621127163041 0.02536904995752529
0.8863628942034867 -0.05565969560681055 0.02536904995752529
0.6947885134492343 -0.04695811147137947 0.02600327620646343
0.27712515947351685 0.08157418013842253 0.027018038204764463
0.3105361982675776 0.13169073832951383 0.027018038204764463
0.4577908487460331 0.09366253244318337 0.027905954953277853
0.5829617412364629 0.06641617278880108 0.027905954953277853
0.6867592091376777 -0.04294980157809044 0.027905954953277853
0.5734610320273696 -0.1267437735877964 0.027905954953277853
0.8802108995887866 -0.015817602648517014 0.027905954953277853
0.9031825743253258 -0.04589261137316336 0.027905954953277853
0.6533228012936594 -0.09282535379458519 0.029554943200516985
0.44178297822283463 0.12440982099170392 0.029554943200516985
0.32521219366800597 -0.1055352478233053 0.030442859949030374
0.4369248051559686 0.10273196780299852 0.030442859949030374
0.6845013636914579 -0.023910329584967648 0.030442859949030374
0.5837735508351037 -0.14176225116265134 0.030442859949030374
0.5624508643458037 0.06059397582354898 0.030442859949030374
0.8678561722594719 -0.06710113713765446 0.030442859949030374
0.3105361982675776 0.13169073832951383 0.03209184819626951
0.6446719552581431 -0.1253484758401325 0.03209184819626951
0.690589935681264 -0.033690098343593655 0.03297976494478289
0.6563163491886473 -0.04801092704461674 0.03297976494478289
0.6614535818050462 -0.04751623057044498 0.03297976494478289
0.6368456033462466 -0.08068626338990924 0.03297976494478289
0.3147728296104844 -0.031571782672140274 0.03297976494478289
0.878320905366951 -0.04279758727834528 0.03297976494478289
0.6446719552581431 0.04292443252813279 0.03462875319202202
0.4277538935963232 -0.19213249985331785 0.03462875319202202
0.46550303993312087 0.09123978817223967 0.035516669940535414
0.49007296481698404 0.08778959737801616 0.035516669940535414
0.572750698628559 0.07450889972525171 0.035516669940535414
0.6191633755258515 -0.0842506149089416 0.035516669940535414
0.6233365842438644 -0.004020994418267851 0.035516669940535414
0.4776040767628605 -0.19217055342825412 0.03716565818777454
0.2938306788705473 0.011530233205695139 0.03716565818777454
0.5828475805116541 -0.12669303548788127 0.03805357493628793
0.6085337435936483 -0.10845268856842075 0.03805357493628793
0.6054260349738516 -0.11788997515262016 0.03805357493628793
0.6549717895408984 -0.04273416465345135 0.03805357493628793
0.6339789007010462 -0.04987555221649474 0.03805357493628793
0.6279537513361341 -0.15553764528958755 0.039702563183527106
0.3496806423520391 0.087637383078271 0.039702563183527106
0.5886444084269485 -0.11955164792483806 0.0405904799320405
0.6496696580997757 -0.05193044526305437 0.0405904799320405
0.6739605234341061 -0.017568067095586327 0.0405904799320405
0.5818201339883743 -0.11598729640580568 0.0405904799320405
0.6735419341098069 -0.06666986328837646 0.04223946817927963
0.2604196400764865 -0.1368152864209339 0.04223946817927963
0.5799935623914324 0.05516499913263861 0.043127384927793014
0.506055466290225 0.08175176348812516 0.043127384927793014
0.44568981191629364 0.106930545570969 0.043127384927793014
0.5890756822762265 -0.10695591462092664 0.043127384927793014
0.5983100164607658 0.028844609801706084 0.043127384927793014
0.36065275645866873 0.16187990777896888 0.04477637317503215
0.3430339512631675 -0.13231228005347329 0.045664289923545535
0.4066087904567259 -0.16890713461720339 0.045664289923545535
0.4599345334674441 -0.17461517085764663 0.045664289923545535
0.6426804848364776 -0.027144883454552064 0.045664289923545535
0.5980436414362117 0.023643954560413443 0.045664289923545535
0.3440740823114261 -0.15927958015832255 0.04629851617248368
0.30413051315330253 -0.11542917730674017 0.047313278170784664
0.36921481081933366 0.07954465614182037 0.04820119491929806
0.3030903821050439 -0.010934060531693513 0.04820119491929806
0.3055004418510088 -0.09560326476493412 0.04820119491929806
0.5946822423168395 0.016375721747582533 0.04820119491929806
0.5648736086167474 0.056268552805790996 0.04820119491929806
0.6112482319391036 0.09505783019084725 0.049850183166537186
0.2857886900340118 -0.12212660649552674 0.049850183166537186
0.6175904944284849 -0.006951119688361952 0.05073809991505058
0.4946901319092537 0.08615329365575572 0.05073809991505058
0.35049245195068 0.0788343227430097 0.05073809991505058
0.6511283784723334 -0.039283973859228015 0.05073809991505058
0.37093990621644535 -0.17211631943683034 0.05238708816228975
0.35063198172544635 0.09212770492075296 0.05238708816228975
0.350061178101402 -0.14559297770623775 0.05327500491080314
0.43920801965214595 -0.17376530768406961 0.05327500491080314
0.5046094304426461 -0.15886099083402336 0.05327500491080314
0.5844711997089357 0.018164239769587955 0.05327500491080314
0.6372515081455671 -0.04273416465345135 0.05327500491080314
0.6305921325317166 -0.08871556770146594 0.05492399315804227
0.2938306788705473 0.1284688689849079 0.05492399315804227
0.6009483976563483 0.015170691874600096 0.055811909906555664
0.5730424427030705 0.05748626720375226 0.055811909906555664
0.4363286324819668 -0.1651271461735321 0.055811909906555664
0.624478191491953 -0.023884960535010182 0.055811909906555664
0.32724171766460797 -0.15347006771804927 0.05746089815379479
0.6207235720982393 0.017428537320819813 0.05746089815379479
0.5986144450602561 -0.09187401442117794 0.05834881490230818
0.6047791241999347 -0.08792912715278267 0.05834881490230818
0.6038658384014638 -0.10214847965397572 0.05834881490230818
0.40493443315952915 -0.1613852113047973 0.05834881490230818
0.5932362064692608 -0.0036658277188624227 0.05834881490230818
0.6112482319391036 0.09505783019084725 0.059997803149547314
0.6730599221606139 -0.013166536927955764 0.059997803149547314
0.6381394248940804 -0.043266914702559396 0.0608857198980607
0.6731740828854228 -0.03486975916661863 0.0608857198980607
0.6778293035526288 -0.0375335094121587 0.0608857198980607
0.3288907059118472 0.045994087572993225 0.0608857198980607
0.6421984728872846 -0.03739397963739237 0.0608857198980607
0.5822006697377372 0.07061475055677155 0.06253470814529984
0.2604196400764865 -0.07201004830443561 0.06253470814529984
0.5977772664116576 -0.005695351715464583 0.06342262489381321
0.6028003383032476 -0.004147839668055542 0.06342262489381321
0.6313405195054637 -0.015563912148941813 0.06342262489381321
0.5285578136025499 -0.13273086937777248 0.06342262489381321
0.6300340134326511 -0.030848764748350778 0.06342262489381321
0.6613774746551737 0.028235752602725633 0.06507161314105239
0.2604196400764865 -0.12212660649552674 0.06507161314105239
0.5784587348690022 0.03604941998964342 0.06595952988956578
0.5879340750281379 0.034768282966788404 0.06595952988956578
0.5947202958917759 0.03796478326143653 0.06595952988956578
0.5926273492702802 -0.07917680491743648 0.06595952988956578
0.6081151542693491 -0.04618435544767485 0.06595952988956578
0.2604196400764865 0.04494127199975595 0.06760851813680492
0.5521637145880274 0.07835231079381676 0.06760851813680492
0.2963422148163422 -0.03682317601334803 0.0684964348853183
0.2959489945420005 -0.0032091848196269504 0.0684964348853183
0.3133394782878842 0.053452588260505765 0.0684964348853183
0.5050660733418815 0.07072891128158042 0.0684964348853183
0.5245241346593035 0.08540490668200876 0.07014542313255744
0.6175904944284849 -0.07533339384887143 0.07014542313255744
0.2604196400764865 0.04494127199975595 0.07014542313255744
0.47757870771290284 0.08988254399951208 0.07103333988107083
0.6040941598510815 0.012900161903401557 0.07103333988107083
0.6644217606500766 -0.031153193347841092 0.07103333988107083
0.5950754625911813 -0.0888297284262748 0.07103333988107083
0.2719245042322242 -0.0051752861913351746 0.07268232812830995
0.6162839883556724 0.007280917337809733 0.07268232812830995
0.5327944449454568 -0.13420227427530892 0.07357024487682334
0.5343673260428232 -0.13898434019230238 0.07357024487682334
0.44562638929139986 -0.17736771277803812 0.07357024487682334
0.37432667438577494 -0.1809447488220491 0.07357024487682334
0.3177029548805785 -0.11567018328133655 0.07357024487682334
0.5033917160446848 -0.16904666439196991 0.07521923312406248
0.2604196400764865 0.04494127199975595 0.07521923312406248
0.489540214767876 0.10467270012474927 0.07521923312406248
0.5098100856839387 0.07343071510205679 0.07610714987257586
0.48598854777382244 0.0921023358707955 0.07610714987257586
0.5278855337786756 0.07524460217401985 0.07610714987257586
0.29653248269102367 -0.008194203136280678 0.07610714987257586
0.2850403030602647 0.03259922919541991 0.07674137612151401
0.609408975817183 -0.1094420815167641 0.07775613811981504
0.39406379525272955 0.11991949914922195 0.07775613811981504
0.43849768625333513 -0.18631030288806574 0.07775613811981504
0.3370849090481279 -0.14684874567913528 0.07864405486832843
0.3082276147214428 -0.12473961864115188 0.07864405486832843
0.2781652905217753 -0.06297866651955657 0.07864405486832843
0.3001602568349498 -0.0933834728936507 0.07864405486832843
0.2653666048182038 -0.01936926964257057 0.07927828111726652
0.36065275645866873 0.10975919464123306 0.08029304311556756
0.4555710568747497 -0.18894868408364834 0.08029304311556756
0.2757932843507467 0.028235752602725633 0.08029304311556756
0.4421888830221552 0.0972395684871944 0.08118095986408094
0.42973267949301025 0.10277002137793481 0.08118095986408094
0.4872189466967625 0.09716346133732182 0.08118095986408094
0.3404463081675 -0.13089161325585175 0.08118095986408094
0.4555710568747497 -0.18321527879324767 0.08181518611301909
0.46089855736583 -0.18211172512009527 0.08282994811132008
0.24569290657614307 -0.0051752861913351746 0.08282994811132008
0.47835246373660745 0.10855416476825061 0.08282994811132008
0.6278269060863464 -0.03541519374070532 0.08371786485983347
0.6287528764097962 -0.030417490899072953 0.08371786485983347
0.6065422731719827 -0.07964613234165077 0.08371786485983347
0.5743743178258406 -0.1290396726089524 0.08371786485983347
0.2955177206927227 0.002663750245540076 0.08371786485983347
0.2719245042322242 -0.12212660649552674 0.0843520911087716
0.4776040767628605 -0.22235972287770917 0.0853668531070726
0.2938306788705473 0.1284688689849079 0.0853668531070726
0.4651859268086517 -0.18894868408364834 0.0853668531070726
0.33264532530556085 -0.14683606115415646 0.08625476985558599
0.34293247506333746 -0.16122031248007332 0.08625476985558599
0.2959109409670642 -0.13158926212968378 0.08625476985558599
0.30739043607284444 0.04510617082447993 0.08625476985558599
0.4555710568747497 -0.19021713658152473 0.08688899610452414
0.2604196400764865 0.06594684536458696 0.08790375810282512
0.6195439112752145 -0.009449971109178227 0.08790375810282512
0.27848240364624444 -0.13573710179773915 0.08790375810282512
0.36070349455858386 0.09083388337291913 0.08879167485133851
0.26842357533808575 -0.011885399905100747 0.08879167485133851
0.2637683546708798 -0.06765925623671998 0.08879167485133851
0.31904751452832747 0.05629392185574846 0.08879167485133851
0.2850403030602647 -0.14291654293571884 0.08942590110027665
0.6112482319391036 -0.15875951463419333 0.09044066309857768
0.44419303796879966 0.12265935654463461 0.09044066309857768
0.2604196400764865 -0.12212660649552674 0.09044066309857768
0.590496349073848 0.03985477748327217 0.09132857984709107
0.5204143485661844 0.07327850080231163 0.09132857984709107
0.4854684822496932 0.09773426496136615 0.09132857984709107
0.33265800983053967 -0.13867991159281207 0.09132857984709107
0.6227277270448838 -0.011860030855143101 0.09196280609602916
0.3178298001303662 0.09505783019084725 0.09196280609602916
