-0.09366422817200912 0.3706308253990549 -0.1718139161539935
-0.45498632945704925 0.3124192448513587 -0.17070268187041046
0.11918842487030888 0.3799651933811525 -0.17070268187041046
0.15096117742475634 0.36911783718217656 -0.17070268187041046
0.2704530547340437 0.3574498772045545 -0.17070268187041046
0.3331010244600445 0.2673800645421352 -0.17070268187041046
0.5231904706009654 0.44078390051725524 -0.17010432494848113
0.6582738197045255 0.38040113913855816 -0.17010432494848113
0.22733716453102162 0.3563129990528888 -0.17010432494848113
0.1623726987215515 0.36420276246632843 -0.17010432494848113
0.08865512593985787 0.3575439047208578 -0.17010432494848113
0.004543238628649081 0.3416276105975375 -0.17010432494848113
-0.0610708718389157 0.34242257050810077 -0.17010432494848113
-0.437334800260134 0.37173351172661045 -0.17010432494848113
0.14654188415850689 0.37042567445439345 -0.16967692714710303
-0.03842733632190431 0.42500437369037597 -0.16899309066489807
0.2000606368470717 0.38207653851996026 -0.16899309066489807
-0.04987304944280976 0.34890192117699265 -0.16899309066489807
0.6970217043774636 0.3402001019409348 -0.16899309066489807
0.33230606454948136 0.4180121456598304 -0.16839473374296873
0.6716684667997149 0.34161906264151004 -0.16839473374296873
0.31423568550721553 0.33415669702944845 -0.16839473374296873
0.22109715663090143 0.36229656827218215 -0.16839473374296873
0.13866921665712234 0.33641335742072476 -0.16839473374296873
0.056070317562792064 0.3581508095988146 -0.16839473374296873
-0.14407152486654148 0.41314835868014765 -0.16839473374296873
-0.4224528088161488 0.32402736913678765 -0.16839473374296873
-0.4378391296657601 0.4017966730755455 -0.16839473374296873
0.05060817366118007 0.3249078086076266 -0.16796733594159066
0.14170374104690683 0.3912228514694515 -0.1672834994593857
0.012740728459080938 0.33419088885355874 -0.1672834994593857
0.04234230018252775 0.3678270958220147 -0.1672834994593857
0.37813165681324046 0.2336070902772382 -0.1672834994593857
0.39062022056950846 0.2771161864575281 -0.1666851425374564
0.313389437860487 0.38902602677036807 -0.1666851425374564
0.4292056940779228 0.2759964042179175 -0.1666851425374564
0.198923758695406 0.35665491729399135 -0.1666851425374564
0.1076401362770728 0.36310007613877293 -0.1666851425374564
0.028939105131310764 0.3571336028315348 -0.1666851425374564
-0.18785415563971336 0.25692591432042705 -0.1666851425374564
-0.07850870213514197 0.33291724340545203 -0.1666851425374564
-0.43853151410399266 0.40295064713926637 -0.1666851425374564
0.03604245659021458 0.3799651933811525 -0.16625774473607827
0.085415450605412 0.32096720087892056 -0.16557390825387333
-0.054591521170023846 0.3263866050003948 -0.16557390825387333
-0.03842733632190431 0.42500437369037597 -0.16557390825387333
0.6933631791976671 0.3207791458463142 -0.16557390825387333
0.6214150333136789 0.4179352140555823 -0.164975551331944
0.3282799772604997 0.27457744351734226 -0.164975551331944
0.6831312758326755 0.34267046123290007 -0.164975551331944
0.223388008846288 0.34906433234151635 -0.164975551331944
0.13925902562302414 0.3632197475231589 -0.164975551331944
0.04987304944280976 0.35491113426436866 -0.164975551331944
-0.03399094714359977 0.3318914886821446 -0.164975551331944
-0.29775522628607626 0.42604722432573855 -0.164975551331944
-0.1597228323530073 0.41829422820873996 -0.164975551331944
0.27628276074484087 0.329250170269628 -0.16454815353056593
-0.04968499441020335 0.3124192448513587 -0.16454815353056593
0.21283983110827673 0.3757510510595645 -0.16386431704836096
0.6823448638781396 0.3124192448513587 -0.16386431704836096
0.04930033638896305 0.3199927338917785 -0.16386431704836096
-0.2703761231297956 0.4700350060435719 -0.16386431704836096
0.3152785361425782 0.36310007613877293 -0.16326596012643163
0.6665225972711227 0.3807088655555504 -0.16326596012643163
0.2794455044750388 0.35473162718778983 -0.16326596012643163
0.16603977185737542 0.3465341373573581 -0.16326596012643163
0.07661105589702327 0.3486454824961659 -0.16326596012643163
-0.00832998314885897 0.3440894219334754 -0.16326596012643163
-0.22747393182746253 0.4300476677466375 -0.16326596012643163
-0.2515877157812147 0.42473938705352154 -0.16326596012643163
0.029118612207889447 0.3799651933811525 -0.16283856232505353
0.21283983110827673 0.3799651933811525 -0.16283856232505353
-0.05339480732616518 0.3225656686560746 -0.1621547258428486
0.7834329918600865 0.3124192448513587 -0.1621547258428486
0.20066754172502857 0.37152836078194895 -0.1621547258428486
-0.4775016456336472 0.436262031778675 -0.1621547258428486
0.5522791649627585 0.44000603651874703 -0.16155636892091926
0.5543306744093732 0.44661360652805243 -0.16155636892091926
0.6690955320354189 0.3795548914918296 -0.16155636892091926
0.22176389720105127 0.34702991880695666 -0.16155636892091926
0.1335233471285302 0.35188515783061175 -0.16155636892091926
0.04824893779757302 0.3252155350246188 -0.16155636892091926
-0.041538792315936865 0.35095343062360757 -0.16155636892091926
-0.27760769392911294 0.42999638001047213 -0.16155636892091926
-0.16721938978917902 0.42296141219978867 -0.16155636892091926
0.09792111027373497 0.3799651933811525 -0.16112897111954116
0.054531685477830986 0.3799651933811525 -0.1604451346373362
0.2768041860625222 0.4137467156020771 -0.1604451346373362
0.27029919152554754 0.3207791458463142 -0.1604451346373362
0.015151252058853476 0.3097095427906215 -0.1604451346373362
-0.45498632945704925 0.2673800645421352 -0.1604451346373362
0.3338703405025251 0.3599886201447405 -0.15984677771540687
0.3011231209609357 0.28803192630472463 -0.15984677771540687
0.5324393590227874 0.2663970495989656 -0.15984677771540687
0.23430374869348453 0.35475727105587257 -0.15984677771540687
0.14602045884082554 0.3481069612664295 -0.15984677771540687
0.0384786240580698 0.32321531331416925 -0.15984677771540687
-0.0279133504080033 0.3450467930085623 -0.15984677771540687
-0.3892867394292087 0.26337107316520875 -0.15984677771540687
-0.20414655982824623 0.42583352542504943 -0.15984677771540687
-0.26328986758294687 0.26168712582777903 -0.15984677771540687
0.1585688582892864 0.38111916744487334 -0.1594193799140288
0.670847863021069 0.45877734795527286 -0.15873554343182383
0.17547671531180373 0.36870753529285355 -0.15873554343182383
0.04046174985646415 0.38286295047449603 -0.15873554343182383
-0.16227012324922063 0.48129266413187094 -0.15873554343182383
0.5309862064981018 0.2586696973500496 -0.15813718650989453
0.30027687331420694 0.29234009614261586 -0.15813718650989453
0.6727711531272706 0.3184455538507898 -0.15813718650989453
0.2466128053731736 0.35062006033853266 -0.15813718650989453
0.15722682919295922 0.334849081467681 -0.15813718650989453
0.09309151511816253 0.3303357606851283 -0.15813718650989453
0.004782581397420864 0.3412002127961594 -0.15813718650989453
-0.18591376962145678 0.25148941428689775 -0.15813718650989453
-0.44975498036818135 0.27025217776739596 -0.15813718650989453
-0.08159451426109184 0.3109148045905078 -0.15813718650989453
0.04930033638896305 0.3749646391050288 -0.1577097887085164
0.15979976395725534 0.38360662264889384 -0.1577097887085164
0.0448810431227136 0.3845041580317879 -0.15702595222631147
0.21196793959346538 0.3912228514694515 -0.15702595222631147
0.738393811550863 0.30116158676305965 -0.15702595222631147
-0.13975480707262267 0.45877734795527286 -0.15702595222631147
0.3054569346669096 0.30935052863746393 -0.15642759530438213
0.3121841760606006 0.42591045702929753 -0.15642759530438213
0.6946453726018014 0.34510662870075526 -0.15642759530438213
0.40622878827583636 0.3982407233680798 -0.15642759530438213
0.2176095905716562 0.36230511622820977 -0.15642759530438213
0.1498670390532284 0.36733131437241606 -0.15642759530438213
0.09345052927132014 0.338789689196387 -0.15642759530438213
0.0078085578311777575 0.34017445807285207 -0.15642759530438213
-0.44931048665474815 0.2955113878288413 -0.15642759530438213
-0.03381144006702097 0.3362253023881185 -0.15642759530438213
-0.44375431523683295 0.29710130764996784 -0.15642759530438213
-0.3343319301280135 0.4038396345661328 -0.15642759530438213
0.2526220184605496 0.32610452245148525 -0.15600019750300406
0.2768041860625222 0.40248050955775044 -0.1553163610207991
0.22609771090702518 0.3124192448513587 -0.1553163610207991
0.10793076678200997 0.30116158676305965 -0.1553163610207991
0.005107403726468186 0.30212750579417413 -0.1553163610207991
-0.02716967823360539 0.40248050955775044 -0.1553163610207991
0.30231983480479424 0.30019566773194517 -0.15471800409886977
0.3081495408155916 0.30446109778969854 -0.15471800409886977
0.49605071021345654 0.4383477330494001 -0.15471800409886977
0.2785052293120069 0.3503892655257885 -0.15471800409886977
0.16845884341317546 0.340311225369293 -0.15471800409886977
0.08897994826890519 0.3344729714024683 -0.15471800409886977
0.003927785794664725 0.34305511925414034 -0.15471800409886977
-0.4464212775174322 0.4069168987360551 -0.15471800409886977
-0.22632850571976926 0.4423054366901612 -0.15471800409886977
-0.21047204728864208 0.2505576870798934 -0.15471800409886977
-0.28865165311672286 0.30314471256145403 -0.15471800409886977
0.04046174985646415 0.3859487626004458 -0.15429060629749167
0.23052555212930226 0.3124192448513587 -0.15429060629749167
0.6933631791976671 0.2673800645421352 -0.15360676981528673
0.13770329762600786 0.30908554200060956 -0.15360676981528673
0.020570656180327582 0.3077264169922272 -0.15360676981528673
0.029118612207889447 0.3912228514694515 -0.15360676981528673
0.32972458182915776 0.3384648668673397 -0.1530084128933574
0.6030454758104483 0.25853293005360867 -0.1530084128933574
0.46487631458093825 0.3425507898485142 -0.1530084128933574
0.5868727430063013 0.4368774846126594 -0.1530084128933574
0.22708927380622237 0.36024505882556734 -0.1530084128933574
0.15756874743406163 0.37533220121421407 -0.1530084128933574
0.1072725741678876 0.324488958762276 -0.1530084128933574
0.05340335528219278 0.38041823505061334 -0.1530084128933574
-0.42088853286310496 0.3520133771710252 -0.1530084128933574
-0.017843858207535444 0.33211373553886114 -0.1530084128933574
-0.4287782962765445 0.32321531331416925 -0.1530084128933574
-0.4442330007743764 0.4090111479628078 -0.1530084128933574
0.23177355370932629 0.3124192448513587 -0.1525810150919793
-0.44372867136875027 0.24351417131318245 -0.15189717860977434
-0.06094265249850227 0.25612240645383616 -0.15189717860977434
0.24398858287271208 0.312607299883965 -0.15189717860977434
0.2768041860625222 0.4137467156020771 -0.15189717860977434
0.5254471309922417 0.4460408934742057 -0.151298821687845
0.29758426716552494 0.33084009009075444 -0.151298821687845
0.4682698531238805 0.36215980097574113 -0.151298821687845
0.369575152829651 0.2728251125316921 -0.151298821687845
0.20783927683215297 0.32667723550533184 -0.151298821687845
0.08781742624915682 0.34423473718594394 -0.151298821687845
0.026485841751400455 0.3654678599584076 -0.151298821687845
-0.42472656511948026 0.34104634958766333 -0.151298821687845
-0.45202018871548527 0.2960755529266604 -0.151298821687845
-0.039820653154396986 0.33986673165585984 -0.151298821687845
-0.038358952673683853 0.3370715500348471 -0.151298821687845
-0.052762258580125614 0.3434055854512705 -0.151298821687845
0.19074336477702922 0.3691947687864246 -0.15087142388646693
0.8059483080366844 0.33493456102795666 -0.15018758740426197
0.00660329603129161 0.2673800645421352 -0.15018758740426197
0.3034481650004325 0.3556633543947942 -0.14958923048233266
0.30031961309434496 0.30183687528923714 -0.14958923048233266
0.6490762190188689 0.4225682062225209 -0.14958923048233266
0.46433779335120196 0.388188327079667 -0.14958923048233266
0.25292974487754183 0.3552701484175263 -0.14958923048233266
0.2058817949018413 0.3777170809459038 -0.14958923048233266
0.031016258446008253 0.35850127579594465 -0.14958923048233266
0.16587736069285183 0.3288826081604428 -0.14958923048233266
-0.09081775881483103 0.3969585299639455 -0.14958923048233266
-0.4519005173310994 0.358885933817185 -0.14958923048233266
-0.015082868410632898 0.3235828754233545 -0.14958923048233266
-0.0754143420531646 0.3115559012925749 -0.14958923048233266
-0.07103778856705294 0.3736311579647291 -0.14958923048233266
-0.03842733632190431 0.4137467156020771 -0.1484779961987496
0.7834329918600865 0.3461922191162556 -0.1484779961987496
0.3094060903516431 0.342379830727963 -0.14787963927682027
0.32720293480102686 0.3633223229954896 -0.14787963927682027
0.5943009167942526 0.252438237405957 -0.14787963927682027
0.5465776782923747 0.4458613863976269 -0.14787963927682027
0.22574724470989507 0.33698607047457146 -0.14787963927682027
0.20224891359012753 0.3678527396900974 -0.14787963927682027
0.09100581384743744 0.3795976312719674 -0.14787963927682027
-0.29447281117149254 0.3773153270126084 -0.14787963927682027
-0.44931048665474815 0.32483087700337854 -0.14787963927682027
-0.04883019880744721 0.36455322866345846 -0.14787963927682027
0.04158153209607476 0.33595176779523656 -0.14787963927682027
-0.2577422441210592 0.43335572672930395 -0.14787963927682027
-0.02716967823360539 0.436262031778675 -0.14676840499323723
0.6145595725795743 0.22370855719732166 -0.14676840499323723
0.4566275370143412 0.31119688713941734 -0.1461700480713079
0.29903741969021064 0.30198219054170566 -0.1461700480713079
0.6287577275413545 0.4367321693601909 -0.1461700480713079
0.7049456596150133 0.3499276759003001 -0.1461700480713079
0.25012601530050155 0.3537315163325652 -0.1461700480713079
0.15102101311694932 0.3247453974431029 -0.1461700480713079
0.04423994642064644 0.3628094456338359 -0.1461700480713079
-0.426974677554729 0.33776393447307956 -0.1461700480713079
-0.05401880811617726 0.3165222637445883 -0.1461700480713079
-0.45690961956325066 0.3708616202117991 -0.1461700480713079
-0.35858248137820653 0.4209868343574219 -0.1461700480713079
-0.16227012324922063 0.21109177410064023 -0.14505881378772487
-0.0046543620570074305 0.3033242196380328 -0.14505881378772487
0.28798491254657305 0.3505003889541468 -0.14505881378772487
0.39639863884414017 0.3145049461220838 -0.14446045686579553
0.3018582451793059 0.27255157793881013 -0.14446045686579553
0.5558693064943344 0.4569053455852369 -0.14446045686579553
0.5479026114766469 0.2530365943278864 -0.14446045686579553
0.2699401773723899 0.35379989998078565 -0.14446045686579553
0.0952028602569703 0.3335839839756019 -0.14446045686579553
0.041846518732929106 0.33238727013174324 -0.14446045686579553
-0.2955925934111031 0.30593134622643925 -0.14446045686579553
-0.4279149527177608 0.32755767497617067 -0.14446045686579553
-0.08924493490575967 0.2748766219783069 -0.14446045686579553
-0.20861714083066116 0.4393222000365421 -0.14446045686579553
0.7496600175951894 0.42500437369037597 -0.14334922258221247
0.27391497692520633 0.36870753529285355 -0.14334922258221247
-0.33114354252973294 0.44751968986697394 -0.14334922258221247
0.3914750161722646 0.3161205098112929 -0.14275086566028314
0.6551110759743277 0.42020897035891386 -0.14275086566028314
0.295635333191241 0.2748338821981691 -0.14275086566028314
0.6654455548116498 0.3994032453878282 -0.14275086566028314
0.20850601740230282 0.37847784903235676 -0.14275086566028314
0.09552768258601764 0.3736995416129497 -0.14275086566028314
-0.01920298321591771 0.34721797383956304 -0.14275086566028314
-0.4519518050672648 0.33275483224092833 -0.14275086566028314
-0.45197744893534747 0.4195080379646537 -0.14275086566028314
-0.4254360454697679 0.3265490161649184 -0.14275086566028314
0.5470050760937527 0.4834638449628716 -0.1416396313767001
0.2935239880524331 0.436262031778675 -0.1416396313767001
-0.39279994935653667 0.24486474836553723 -0.1416396313767001
0.4577986069901172 0.3150092755277099 -0.1410412744547708
0.6416053054507799 0.27104713767795924 -0.1410412744547708
0.29385735833750815 0.3944026911117045 -0.1410412744547708
0.39530450047261234 0.2650721164146935 -0.1410412744547708
0.27158138492968176 0.33990947143599765 -0.1410412744547708
0.10373372037247709 0.3330112709217552 -0.1410412744547708
0.017681447043011722 0.3256343848699693 -0.1410412744547708
-0.4309836689316555 0.35735584968825135 -0.1410412744547708
-0.09907508433745586 0.41439636026017174 -0.1410412744547708
-0.4583542241319086 0.34571353357871215 -0.1410412744547708
-0.07134551498404516 0.38384596541766564 -0.1410412744547708
0.7721753337717875 0.2899039286747608 -0.13993004017118774
-0.0046543620570074305 0.3055124963810887 -0.13993004017118774
-0.274855252088238 0.22018679931396612 -0.13993004017118774
0.628629508200941 0.4342874539363082 -0.1393316832492584
0.3047303584045668 0.26459343087715 -0.1393316832492584
0.3018753410913611 0.3000076126993388 -0.1393316832492584
0.5967285363060801 0.3637582687528953 -0.1393316832492584
0.2719062072587292 0.33701171434265415 -0.1393316832492584
0.14820018762785392 0.3324043660437983 -0.1393316832492584
-0.3607451142531797 0.31818056721393534 -0.1393316832492584
-0.4522167917041192 0.36717745116392 -0.1393316832492584
-0.029768256865984215 0.3488420854847998 -0.1393316832492584
-0.2721968377636663 0.4363987990751159 -0.1393316832492584
-0.3622239106459479 0.29845188470232265 -0.1393316832492584
-0.46539773989861954 0.2798600803423755 -0.13822044896567537
0.029118612207889447 0.30116158676305965 -0.13822044896567537
0.2776418857532231 0.32023207666055015 -0.13822044896567537
0.3951249933960334 0.38582054326003234 -0.13762209204374604
0.6560940909174973 0.4238076598465173 -0.13762209204374604
0.4115114251008695 0.27894544904742635 -0.13762209204374604
0.5690929944689725 0.2509679889692164 -0.13762209204374604
0.5921639277873622 0.29032277852011124 -0.13762209204374604
0.16586026478079663 0.3687246312049086 -0.13762209204374604
-0.014134045291573494 0.3199927338917785 -0.13762209204374604
-0.03375160437482799 0.34698717902681886 -0.13762209204374604
-0.004440663156318335 0.34494421753623156 -0.13762209204374604
-0.4511141053765637 0.3135817668711071 -0.13762209204374604
-0.25180996263793126 0.24388173342236766 -0.13762209204374604
-0.03894876163958564 0.3477393991572443 -0.13762209204374604
0.28629241725311577 0.34557676628227113 -0.13651085776016297
0.04217988901800403 0.32307854601772834 -0.13651085776016297
0.3035592884287908 0.3560651083280896 -0.13591250083823367
0.29543873020260714 0.3648695030364783 -0.13591250083823367
0.29134425926540486 0.35809952186264926 -0.13591250083823367
0.3864744618961408 0.26373863527439384 -0.13591250083823367
0.5914117076569367 0.4114302195186078 -0.13591250083823367
0.18385371221881439 0.37493044728091857 -0.13591250083823367
-0.35688998608474926 0.30633310015973464 -0.13591250083823367
-0.08268010467659215 0.4070878578566063 -0.13591250083823367
-0.15694474664404967 0.28103115031815146 -0.13591250083823367
-0.3194926784641661 0.2966140741563968 -0.13591250083823367
-0.21769507013193184 0.24000950934188212 -0.13591250083823367
0.8059483080366844 0.3461922191162556 -0.1348012665546506
-0.0046543620570074305 0.41590934847705024 -0.1348012665546506
-0.46624398754534824 0.44751968986697394 -0.1348012665546506
0.635809791264093 0.2675168318385762 -0.13420290963272127
0.29101088898033006 0.3603732781659808 -0.13420290963272127
0.2993622420192578 0.3742551587547412 -0.13420290963272127
0.5553564291326807 0.2477454095468256 -0.13420290963272127
0.5963353303288124 0.445998153694068 -0.13420290963272127
-0.35582149158130405 0.3845725416800083 -0.13420290963272127
-0.30224290320054625 0.43886915836708135 -0.13420290963272127
-0.25089533134298214 0.232675363070234 -0.13420290963272127
-0.4494814457752994 0.41979012051356324 -0.13420290963272127
-0.15461115464852532 0.29292990510851763 -0.13420290963272127
0.5470050760937527 0.4834638449628716 -0.13309167534913824
0.5920357084469486 0.21109177410064023 -0.13309167534913824
-0.4524219426487807 0.436262031778675 -0.13309167534913824
0.394783075154931 0.3848289803608352 -0.1324933184272089
0.5787692806921726 0.45726435973839447 -0.1324933184272089
0.5979167021939114 0.3242838078176145 -0.1324933184272089
0.4047585398390957 0.30535863317259254 -0.1324933184272089
0.6915510125198238 0.3103591874487163 -0.1324933184272089
-0.4386939252685163 0.3318572968580343 -0.1324933184272089
-0.4456690573870068 0.2558232279928715 -0.1324933184272089
-0.18413579476772393 0.23934276877173227 -0.1324933184272089
-0.28018917664943666 0.30307632891323355 -0.1324933184272089
-0.444241548730404 0.4221579043331979 -0.1324933184272089
0.6933631791976671 0.2336070902772382 -0.13138208414362587
0.37813165681324046 0.45440934242518877 -0.13138208414362587
-0.01591202014530635 0.3912228514694515 -0.13138208414362587
-0.40153596041670486 0.2336070902772382 -0.13138208414362587
-0.2667517897741094 0.29804158281299964 -0.13078372722169654
-0.44440395989492765 0.3574584251605821 -0.13078372722169654
-0.2270294381140294 0.23890682301432659 -0.13078372722169654
-0.09885283748073917 0.4219527533885364 -0.13078372722169654
-0.03115302574244917 0.34312350290236093 -0.13078372722169654
0.5045815703289632 0.29744322589107025 -0.13078372722169654
0.571819792441765 0.25292547089952805 -0.13078372722169654
0.30463633088826364 0.428244049024822 -0.13078372722169654
0.29886646056965926 0.4292185160119639 -0.13078372722169654
0.6713521924266951 0.4227477132990997 -0.13078372722169654
0.6890806532278585 0.31157299720463005 -0.13078372722169654
-0.4634146141002252 0.24486474836553723 -0.13035632942031844
0.47439873759564216 0.23577827110823896 -0.1296724929381135
-0.08345796867510023 0.24486474836553723 -0.1296724929381135
-0.4457374410352273 0.44751968986697394 -0.1296724929381135
-0.2703761231297956 0.2979988430328617 -0.12907413601618417
-0.22334526906615024 0.23994112569366152 -0.12907413601618417
-0.15845773486092804 0.4061219388254918 -0.12907413601618417
-0.1559189919207422 0.2368296696996291 -0.12907413601618417
-0.15496162084565532 0.4282696928929047 -0.12907413601618417
0.48212608984455807 0.30409353568051345 -0.12907413601618417
0.3114319559301752 0.36062116889078005 -0.12907413601618417
0.2963704574096112 0.34167889833370285 -0.12907413601618417
0.3011231209609357 0.27256012589483763 -0.12907413601618417
0.7174427713273089 0.3793924803273059 -0.12907413601618417
0.7002357358438268 0.3221981065468894 -0.12907413601618417
0.2866257875381908 0.25612240645383616 -0.12864673821480607
-0.1761178120138709 0.25440426729229626 -0.1279629017326011
-0.3649165167946299 0.45877734795527286 -0.1279629017326011
0.522771620755615 0.3905133711191639 -0.1279629017326011
0.4647822870646351 0.29908443344836216 -0.1279629017326011
0.670847863021069 0.23144445740226505 -0.1279629017326011
-0.27791542034610517 0.2957849224217232 -0.1273645448106718
-0.16264623331443345 0.2732012225969048 -0.1273645448106718
-0.19185459906061236 0.23478670820904177 -0.1273645448106718
-0.198923758695406 0.4536143825146256 -0.1273645448106718
-0.10895652150531732 0.26502082867852816 -0.1273645448106718
0.394783075154931 0.35964670190363796 -0.1273645448106718
0.5290372725238176 0.4536143825146256 -0.1273645448106718
0.3109105306124939 0.3606297168468075 -0.1273645448106718
0.29652432061810735 0.4240042628351512 -0.1273645448106718
0.30114876482901826 0.4396299264535343 -0.1273645448106718
0.5942325331460321 0.2505576870798934 -0.1273645448106718
0.4161615131798633 0.2336070902772382 -0.1269371470092937
0.05164247634051501 0.3574498772045545 -0.12625331052708874
-0.17169851874762143 0.36870753529285355 -0.12625331052708874
0.46036299379838563 0.2673800645421352 -0.12625331052708874
0.6145595725795743 0.21109177410064023 -0.12625331052708874
-0.36602775107821284 0.3000418045234491 -0.1256549536051594
-0.2051210268153883 0.24081301720847287 -0.1256549536051594
-0.4143066067218823 0.43303090440025666 -0.1256549536051594
-0.353051953828374 0.2407873733403902 -0.1256549536051594
-0.15239723403738678 0.27309864712457405 -0.1256549536051594
0.5062740656224205 0.403933662082436 -0.1256549536051594
0.30544838671088204 0.35985185284829946 -0.1256549536051594
0.3124491626974551 0.3376442630886937 -0.1256549536051594
0.7287773610198559 0.3456536978865192 -0.1256549536051594
0.291498122473901 0.43563803098866294 -0.1256549536051594
0.7267343995292685 0.3515090477653991 -0.1256549536051594
0.44567760534303447 0.4700350060435719 -0.12522755580378134
-0.10598183280772579 0.45877734795527286 -0.12454371932157639
0.5807780503586498 0.36870753529285355 -0.12454371932157639
-0.2947292498523194 0.38119609904912144 -0.12394536239964705
-0.2772999675121207 0.29475916769841587 -0.12394536239964705
-0.16016732606644044 0.27297042778416064 -0.12394536239964705
-0.367839917756056 0.24519811865061217 -0.12394536239964705
-0.16179143771167717 0.45089613249786087 -0.12394536239964705
-0.02775948719950718 0.3339173542606767 -0.12394536239964705
0.4862974923860083 0.2995374751178229 -0.12394536239964705
0.30010591419365584 0.3561762317564479 -0.12394536239964705
0.4293937491105291 0.25034398817920445 -0.12394536239964705
0.29268628836173216 0.4250556614265414 -0.12394536239964705
0.6166965615864648 0.24539472163924606 -0.12394536239964705
0.5992587312902383 0.4471008400216235 -0.12394536239964705
0.738393811550863 0.436262031778675 -0.12283412811606399
0.4344199472547354 0.46867588103518965 -0.12283412811606399
-0.281001232472055 0.40248050955775044 -0.12283412811606399
-0.28727543219628543 0.37625538046519064 -0.12223577119413466
-0.4532510943834542 0.32631822135217425 -0.12223577119413466
-0.455712905719392 0.26502082867852816 -0.12223577119413466
-0.030238394447500053 0.32221520245894447 -0.12223577119413466
-0.22357606387889442 0.22464028440432587 -0.12223577119413466
-0.14850791404484603 0.4394504193769555 -0.12223577119413466
0.4734242706085001 0.39354789550894836 -0.12223577119413466
0.3002170376220142 0.4272097463454869 -0.12223577119413466
0.5921211880072244 0.4085922981174572 -0.12223577119413466
0.42904328291339905 0.4489471985235768 -0.12223577119413466
0.6904739700603512 0.4143108806998961 -0.12223577119413466
-0.30565353765554343 0.22234943218893927 -0.12180837339275659
0.47362087359713423 0.2321453897965252 -0.12112453691055163
-0.01591202014530635 0.40248050955775044 -0.12112453691055163
-0.29545582611466215 0.22299052889100643 -0.12112453691055163
-0.27446204611097014 0.29599862132241234 -0.12052617998862229
-0.15838080325668 0.4071989812849646 -0.12052617998862229
-0.2994904613596713 0.445528016112552 -0.12052617998862229
-0.15661992431500235 0.23965904314475212 -0.12052617998862229
-0.46527806851423376 0.2583277791089472 -0.12052617998862229
0.394783075154931 0.3848289803608352 -0.12052617998862229
0.38422634946089224 0.3875899701577377 -0.12052617998862229
0.5934632171035514 0.44447661752116197 -0.12052617998862229
0.4555932343350062 0.24712995671284113 -0.12052617998862229
0.7262899058158354 0.32895953976469083 -0.12052617998862229
0.6716342749756048 0.2867924726807282 -0.12052617998862229
-0.297370568264836 0.4700350060435719 -0.1200987821872442
-0.19827411403731124 0.4669150020935118 -0.11941494570503924
0.5174804359745542 0.281723534756384 -0.11941494570503924
-0.2943018520509413 0.3065724429285063 -0.11881658878310992
-0.27307727723450514 0.3772725872324705 -0.11881658878310992
-0.17185238195611754 0.3926845519501645 -0.11881658878310992
-0.4475068679329326 0.25484876100572945 -0.11881658878310992
-0.15924414681546373 0.2353252294387782 -0.11881658878310992
-0.2850615115851469 0.2292989204393471 -0.11881658878310992
0.39135534478787865 0.3857179677877016 -0.11881658878310992
0.5154802142641046 0.30329002781392256 -0.11881658878310992
0.5931127509064215 0.2535152798654298 -0.11881658878310992
0.3988177103999403 0.25239549762581925 -0.11881658878310992
0.294891661016843 0.3669381083951483 -0.11881658878310992
0.7217082013850622 0.38552991275509535 -0.11881658878310992
0.6073707415603947 0.4167641440798064 -0.11881658878310992
-0.2324830340596139 0.4086093940295124 -0.11770535449952688
0.48245946012963314 0.48129266413187094 -0.11770535449952688
0.738393811550863 0.3912228514694515 -0.11770535449952688
0.5953694112976978 0.2852709365078222 -0.11710699757759754
0.2946181264239612 0.33537905474138985 -0.11710699757759754
0.29347270031626776 0.4326804382031265 -0.11710699757759754
0.7179812925570452 0.3918126604353533 -0.11710699757759754
0.606387726617225 0.2870916511416928 -0.11710699757759754
0.390295398240461 0.30834186982621165 -0.11710699757759754
-0.4574823326170973 0.3482779203869807 -0.11710699757759754
-0.33538332871940363 0.24026594802270898 -0.11710699757759754
-0.06558419262146842 0.40438670375189684 -0.11710699757759754
-0.025836197093305688 0.31133365443585825 -0.11710699757759754
-0.14079765770798533 0.40613903473754703 -0.11710699757759754
-0.26330696349500193 0.29291280919646245 -0.11710699757759754
-0.198513456806083 0.21575041013566146 -0.11599576329401451
0.01786095411959053 0.3933940323004523 -0.11599576329401451
0.5089837676831577 0.22629858787367288 -0.11599576329401451
-0.2789753668935228 0.301623176388548 -0.11539740637208518
-0.43661677195381876 0.3369604266064888 -0.11539740637208518
-0.44754960771307045 0.42264513782676894 -0.11539740637208518
-0.23486791379130365 0.4532981081416058 -0.11539740637208518
-0.13356608690866797 0.24030013984681914 -0.11539740637208518
-0.26918795724196454 0.22442658550363676 -0.11539740637208518
0.39299655234517056 0.38902602677036807 -0.11539740637208518
0.47486887517715815 0.4058911440127476 -0.11539740637208518
0.5902320897251332 0.29905024162425187 -0.11539740637208518
0.44079672245129664 0.4532211765373576 -0.11539740637208518
0.3565309719315917 0.25708832548495064 -0.11539740637208518
0.29140409495759784 0.2601997814789832 -0.11539740637208518
0.5102916049553745 0.22653793064244454 -0.11497000857070708
-0.23257706157591704 0.40869487358978795 -0.11428617208850213
0.4992647416798198 0.47618953438341644 -0.11428617208850213
0.6933631791976671 0.4700350060435719 -0.11428617208850213
-0.2672048314435702 0.38008486476553843 -0.1136878151665728
-0.1650054691780405 0.2785949828502963 -0.1136878151665728
-0.27207716637928037 0.2311709228093831 -0.1136878151665728
-0.152858823662875 0.23716303998470403 -0.1136878151665728
-0.028477515505822403 0.3744603096994027 -0.1136878151665728
-0.143926209614073 0.2806977800330765 -0.1136878151665728
0.4821004459764755 0.30284553410048937 -0.1136878151665728
0.30137955964176255 0.3596296059915829 -0.1136878151665728
0.5878984977296088 0.4525202441430976 -0.1136878151665728
0.4738687643219335 0.4603330759522893 -0.1136878151665728
0.5062911615344755 0.23528248965864043 -0.1136878151665728
0.35006016921872735 0.4483830334257577 -0.1136878151665728
0.6083195646794539 0.2828433169959946 -0.1136878151665728
-0.17352778133751967 0.32231777793127525 -0.11257658088298976
0.5178223542156566 0.48129266413187094 -0.11257658088298976
0.6595902049327702 0.48129266413187094 -0.11257658088298976
0.537713447891793 0.4646583417022356 -0.11197822396106043
0.5883258955309868 0.45656342734413446 -0.11197822396106043
0.5936341762241027 0.2488651917864362 -0.11197822396106043
0.6092171000623481 0.4448356316743196 -0.11197822396106043
0.47315928397164586 0.30650405928028585 -0.11197822396106043
-0.15397860590248563 0.23405158399067147 -0.11197822396106043
-0.1681938567763211 0.3963858169100989 -0.11197822396106043
-0.21820794749358557 0.2351115305380891 -0.11197822396106043
-0.10675114885020638 0.252575004702398 -0.11197822396106043
-0.27089754844747693 0.296024265190495 -0.11197822396106043
-0.4338899739810265 0.3463460823247517 -0.11197822396106043
-0.20730075560241654 0.3912228514694515 -0.11086698967747738
0.4996408517450324 0.415892252564995 -0.11086698967747738
0.6998339819105315 0.406489500934677 -0.11026863275554806
0.4790146338505258 0.2409583324609414 -0.11026863275554806
0.6045328201592441 0.28539915584823566 -0.11026863275554806
0.6109181433118328 0.28424518178451474 -0.11026863275554806
0.394783075154931 0.3848289803608352 -0.11026863275554806
0.47474065583674485 0.4060193633531611 -0.11026863275554806
-0.23816742481794248 0.45487093205067713 -0.11026863275554806
-0.19370950551859326 0.23147864922637532 -0.11026863275554806
-0.0025772087423099397 0.3448330941078732 -0.11026863275554806
-0.10565701047867847 0.43154356005146083 -0.11026863275554806
-0.363685611126661 0.3832305125836811 -0.11026863275554806
-0.22473858589864282 0.4700350060435719 -0.10984123495416996
-0.10598183280772579 0.449254924940569 -0.10915739847196501
0.47619380836143027 0.2863479789672949 -0.10915739847196501
-0.36108703249428215 0.377187107672195 -0.10855904155003568
-0.27440221041877727 0.4007880142642932 -0.10855904155003568
-0.23859482261932055 0.45468287701807086 -0.10855904155003568
-0.10115223765215335 0.24701028532845531 -0.10855904155003568
-0.1815628600034278 0.4488189791831634 -0.10855904155003568
0.3102950777785097 0.3420379124868605 -0.10855904155003568
0.47145824072216097 0.3062048808193212 -0.10855904155003568
0.6669243512044181 0.4325778627307958 -0.10855904155003568
0.480801156660286 0.2403770714510672 -0.10855904155003568
0.670420465219691 0.43830499326926226 -0.10855904155003568
0.7059628663822932 0.3980697642475286 -0.10855904155003568
-0.20730075560241654 0.2899039286747608 -0.10744780726645264
0.5456972388215358 0.48129266413187094 -0.10744780726645264
0.727136153462564 0.42500437369037597 -0.10744780726645264
0.6016350630659008 0.45976891085447014 -0.10684945034452331
0.6062424113647564 0.4493147606327619 -0.10684945034452331
0.527199461977892 0.22543524431488915 -0.10684945034452331
0.39639863884414017 0.3107609413820117 -0.10684945034452331
0.3895431781100356 0.3068545254774159 -0.10684945034452331
-0.16413357766322914 0.2831852352370971 -0.10684945034452331
-0.16073149116425955 0.39687305040366994 -0.10684945034452331
-0.17239090318585398 0.2207851562358954 -0.10684945034452331
-0.07756842697211017 0.41681543181597175 -0.10684945034452331
-0.27714610430362463 0.38676936637909176 -0.10684945034452331
-0.21012158109151208 0.21109177410064023 -0.10642205254314521
-0.2070528648776173 0.4740354494644708 -0.10573821606094026
0.5194208219928105 0.28345022187395147 -0.10573821606094026
0.5994467863228449 0.40060850718771446 -0.10513985913901093
0.5882147721026284 0.2917075473965763 -0.10513985913901093
0.7006460377331498 0.2825868783151677 -0.10513985913901093
0.733085530857747 0.33903757992118627 -0.10513985913901093
0.48114307490138863 0.40308741443570745 -0.10513985913901093
0.29208793143980266 0.3431833385945538 -0.10513985913901093
-0.14021639669811103 0.24708721693270336 -0.10513985913901093
-0.14924303826321644 0.44672472995641066 -0.10513985913901093
-0.060814433158088835 0.2828518649520222 -0.10513985913901093
-0.28894228362166 0.3025549035955522 -0.10513985913901093
-0.44030948895772554 0.3522698158518521 -0.10513985913901093
-0.20730075560241654 0.3912228514694515 -0.1040286248554279
0.4569352634313335 0.40395930595051865 -0.1040286248554279
0.727136153462564 0.44751968986697394 -0.1040286248554279
-0.2711454391722762 0.2955455796529516 -0.10343026793349856
-0.22596094361058416 0.22628149196161768 -0.10343026793349856
-0.1402847803463316 0.45038325513620714 -0.10343026793349856
-0.2721626459395561 0.22441803754760928 -0.10343026793349856
-0.03889747390342027 0.3858803789522253 -0.10343026793349856
0.4729370371149292 0.3917955645232981 -0.10343026793349856
0.6744380045526451 0.2703633011957543 -0.10343026793349856
0.5170017504370106 0.23335919955243892 -0.10343026793349856
0.5819833121585359 0.2284954125727562 -0.10343026793349856
0.736752603993571 0.34270465305701037 -0.10343026793349856
-0.19604309751411764 0.19983411601234133 -0.10231903364991551
-0.02716967823360539 0.26955124537313596 -0.10231903364991551
0.715878495374265 0.253959773578863 -0.10231903364991551
0.49306747355983727 0.4632137371335775 -0.1017206767279862
0.7336411479995385 0.319437116749987 -0.1017206767279862
0.607909262790131 0.4183027761647676 -0.1017206767279862
0.7443260930339908 0.34587594474323574 -0.1017206767279862
0.476937480535828 0.30347808284652894 -0.1017206767279862
-0.2616913998057927 0.45424693126066507 -0.1017206767279862
-0.05000126878322307 0.28217657642584476 -0.1017206767279862
-0.16091099824083835 0.29005779188325687 -0.1017206767279862
-0.030529024952437207 0.3059826339626046 -0.1017206767279862
-0.27090609640350444 0.3029652054848752 -0.1017206767279862
-0.44689141509894814 0.3290364713689389 -0.1017206767279862
-0.17599814062948504 0.2899039286747608 -0.10060944244440315
-0.18937569181261937 0.4765143567124639 -0.10060944244440315
0.738393811550863 0.30116158676305965 -0.10060944244440315
0.556518951152429 0.469564868462056 -0.10001108552247381
0.6788743937309498 0.43332153490519365 -0.10001108552247381
0.5907193232187041 0.2845016204653416 -0.10001108552247381
0.3908937551623903 0.3848289803608352 -0.10001108552247381
0.45922611564671983 0.39510362350596456 -0.10001108552247381
-0.15472227807688355 0.45464868519396046 -0.10001108552247381
-0.16010749037424749 0.28673263698853524 -0.10001108552247381
-0.007723078270902095 0.3183002385983212 -0.10001108552247381
-0.13468586914827857 0.27685974777670125 -0.10001108552247381
-0.3587363445867026 0.2971611433421607 -0.10001108552247381
0.5582627341820517 0.48519908003646667 -0.09958368772109573
-0.12697561281141775 0.22234943218893927 -0.09889985123889078
0.5759057154229393 0.2899039286747608 -0.09889985123889078
0.6168675207070158 0.44582719457351677 -0.09830149431696145
0.5339608951956935 0.2307948127441704 -0.09830149431696145
0.5689818710406143 0.2254865320510545 -0.09830149431696145
0.7472153021713067 0.35399650296941954 -0.09830149431696145
0.5037267747262071 0.29663971802447947 -0.09830149431696145
0.31441519258379447 0.34651704144530293 -0.09830149431696145
-0.1666552246913599 0.22616182057723186 -0.09830149431696145
-0.2430910474898182 0.46092288491819094 -0.09830149431696145
-0.14961914832842915 0.34002914282038343 -0.09830149431696145
-0.2943018520509413 0.3065724429285063 -0.09830149431696145
-0.2781120233347391 0.3910433443928727 -0.09830149431696145
-0.17352778133751967 0.3236769029396576 -0.0971902600333784
-0.1847854394258186 0.4773606043591924 -0.0971902600333784
0.8059483080366844 0.33493456102795666 -0.0971902600333784
-0.2654952402380578 0.28924573606063836 -0.09659190311144907
-0.21335270846993046 0.4621110508060221 -0.09659190311144907
-0.14252434482555282 0.45181931174883755 -0.09659190311144907
-0.1727071775588737 0.21737452178089833 -0.09659190311144907
-0.13146328972588767 0.2371715879407315 -0.09659190311144907
0.48672489018738646 0.29781933595628296 -0.09659190311144907
0.620551689754895 0.24200973105233153 -0.09659190311144907
0.6053192321137798 0.23831701404842479 -0.09659190311144907
0.7551990931010495 0.33977270413955657 -0.09659190311144907
0.706398812139699 0.29912717322849997 -0.09659190311144907
-0.25107483841956096 0.2734234694536214 -0.09548066882786603
0.5695203922703508 0.4860453276831952 -0.09548066882786603
0.6483325468444712 0.4700350060435719 -0.09548066882786603
0.5890268279252467 0.29139982097958406 -0.0948823119059367
0.585941015799297 0.23765882143430256 -0.0948823119059367
0.7327008728365069 0.37888815092167977 -0.0948823119059367
0.45802085384683366 0.3927871274224953 -0.0948823119059367
-0.20979675876246462 0.22163140388262406 -0.0948823119059367
-0.13734428347285024 0.4522723534182983 -0.0948823119059367
-0.19273503853145119 0.2122884879444989 -0.0948823119059367
-0.12828345008363465 0.27450905986912183 -0.0948823119059367
-0.3572148084137966 0.29958876285398833 -0.0948823119059367
-0.17352778133751967 0.20639039828548122 -0.0944549141045586
-0.011056781121651227 0.40248050955775044 -0.09377107762235365
0.715878495374265 0.24486474836553723 -0.09377107762235365
-0.35699256155708003 0.38417933570274054 -0.09317272070042433
-0.20500135543100248 0.22083644397206076 -0.09317272070042433
-0.15607285512923832 0.3951549112421299 -0.09317272070042433
-0.023835975382856256 0.292784589856049 -0.09317272070042433
-0.12977079443243048 0.24281323891892242 -0.09317272070042433
0.5109070577893591 0.29219478089014733 -0.09317272070042433
0.5458083622498942 0.47092399347043845 -0.09317272070042433
0.6832594951730888 0.43359506949807564 -0.09317272070042433
0.612337104012408 0.28370666055477833 -0.09317272070042433
-0.286112910176537 0.40112993250539575 -0.09206148641684128
-0.03842733632190431 0.4384246646536482 -0.09206148641684128
0.7721753337717875 0.33493456102795666 -0.09206148641684128
-0.24684360018591778 0.39620630983352007 -0.09146312949491195
-0.162928315863343 0.4010871927252579 -0.09146312949491195
-0.10344308986753994 0.2388811791462439 -0.09146312949491195
-0.1408062056640128 0.44584429048557184 -0.09146312949491195
0.4566275370143412 0.3145049461220838 -0.09146312949491195
0.47262076274190934 0.3047089885144979 -0.09146312949491195
0.5526467270719435 0.47029144472439877 -0.09146312949491195
0.5851375079327062 0.41502890900621126 -0.09146312949491195
0.6242700506268846 0.2820398091294038 -0.09146312949491195
-0.1559275398767698 0.4137467156020771 -0.09035189521132891
0.5941385056297289 0.27670588456820516 -0.09035189521132891
-0.26909392972566126 0.2901090796194221 -0.08975353828939958
-0.18297327274797556 0.21849430402050893 -0.08975353828939958
-0.1352158424219874 0.4509730641021089 -0.08975353828939958
-0.12056464579074636 0.22790560360685452 -0.08975353828939958
-0.12417188323437744 0.27307300325649136 -0.08975353828939958
0.39639863884414017 0.30788028020072333 -0.08975353828939958
0.614798915348346 0.4617434886968369 -0.08975353828939958
0.7159639749345407 0.4096436967088473 -0.08975353828939958
0.616200780136866 0.25900306763512454 -0.08975353828939958
-0.16370617986185107 0.3574498772045545 -0.08864230400581653
0.5807780503586498 0.33493456102795666 -0.08864230400581653
-0.3642839680485903 0.30533298930450986 -0.0880439470838872
-0.24913445240130436 0.4027369482385773 -0.0880439470838872
-0.08850981068738936 0.24854891741341636 -0.0880439470838872
-0.13625014510132233 0.2747911424180314 -0.0880439470838872
-0.021280136530615203 0.30612794921507314 -0.0880439470838872
0.48010022426602594 0.30381145313160385 -0.0880439470838872
0.7073219913906754 0.2872198704821063 -0.0880439470838872
0.7208790496503886 0.2952805930160971 -0.0880439470838872
0.5940872178935636 0.2998195576667325 -0.0880439470838872
-0.16356941256541005 0.3124192448513587 -0.08693271280030417
0.5299177119946565 0.3912228514694515 -0.08693271280030417
0.6245777770438767 0.4522723534182983 -0.08633435587837483
0.6091658123261827 0.2323334448291316 -0.08633435587837483
0.5930700111262837 0.4163538421904834 -0.08633435587837483
0.7150236997715088 0.40439525170792434 -0.08633435587837483
0.48474176438899214 0.2980757746371098 -0.08633435587837483
-0.13484828031280216 0.4533493958777712 -0.08633435587837483
-0.12567632349522834 0.45488802796273237 -0.08633435587837483
-0.12753977790923687 0.40287371553501833 -0.08633435587837483
-0.36277097983171186 0.3035037267146116 -0.08633435587837483
-0.36100155293400654 0.39137671467794766 -0.08633435587837483
0.029118612207889447 0.3124192448513587 -0.08522312159479178
0.7946906499483853 0.3799651933811525 -0.08522312159479178
-0.35582149158130405 0.2991784609646653 -0.08462476467286247
-0.17104032613349918 0.46152978979614784 -0.08462476467286247
0.0030729901919084655 0.35720198647975526 -0.08462476467286247
-0.11658984623793006 0.42302124789198164 -0.08462476467286247
0.0038679501024717496 0.3392170869977651 -0.08462476467286247
0.5070348337088735 0.29569089490542005 -0.08462476467286247
0.6232186520354942 0.46108529608271465 -0.08462476467286247
0.6136705851527078 0.46774415382818535 -0.08462476467286247
0.6288603030136853 0.24990804242179876 -0.08462476467286247
0.6369466694157588 0.4507422692893647 -0.08462476467286247
0.588924252452916 0.34094377411533255 -0.08351353038927942
-0.17352778133751967 0.3574498772045545 -0.08351353038927942
-0.3641899405322871 0.30754690991564837 -0.08291517346735008
-0.13431830703909337 0.454426438337244 -0.08291517346735008
-0.18070806440067166 0.4687357167273826 -0.08291517346735008
-0.11188847042277106 0.4374160058423958 -0.08291517346735008
0.4566275370143412 0.3077520608603099 -0.08291517346735008
0.47224465267669674 0.3581850014229249 -0.08291517346735008
0.7048858239228203 0.2782958043893317 -0.08291517346735008
0.6186882353408865 0.2830826597647664 -0.08291517346735008
0.7834329918600865 0.3124192448513587 -0.08180393918376705
0.05164247634051501 0.3236769029396576 -0.08180393918376705
0.6629751955196845 0.2545581305007924 -0.08120558226183772
0.592830668357512 0.4655387811730743 -0.08120558226183772
0.6502643849067001 0.4261327038860142 -0.08120558226183772
0.39611655629523074 0.3145305899901665 -0.08120558226183772
0.4846220930046062 0.3033327675940604 -0.08120558226183772
0.003286689092597561 0.3301648015645771 -0.08120558226183772
-0.17894718545899388 0.21219446042819576 -0.08120558226183772
-0.12889890291761913 0.3330112709217552 -0.08120558226183772
-0.28727543219628543 0.37625538046519064 -0.08120558226183772
0.5885395944316759 0.33493456102795666 -0.08077818446045962
0.5811883522479725 0.35474017514381745 -0.08009434797825467
-0.16303089133567375 0.31925760967340816 -0.08009434797825467
-0.2725643998728514 0.38844476576049386 -0.07949599105632534
-0.2811721915926062 0.3764434354977971 -0.07949599105632534
-0.16338990548883123 0.214570792203858 -0.07949599105632534
-0.16881785756633305 0.39499250007760633 -0.07949599105632534
-0.028554447110070463 0.3906928781957427 -0.07949599105632534
0.4837160096656846 0.29816980215341304 -0.07949599105632534
0.7129978341929767 0.2880490222167797 -0.07949599105632534
0.6179787549905988 0.4602561443480411 -0.07949599105632534
0.652623620770307 0.25333577278885105 -0.07949599105632534
-0.1628941240392327 0.3574498772045545 -0.07906859325494725
0.5841203011654265 0.3346182866549368 -0.0783847567727423
-0.28355707132429603 0.28340748209381367 -0.0783847567727423
-0.3592150301242461 0.2990587895802795 -0.07778639985081297
-0.3640959130159839 0.39100060461273495 -0.07778639985081297
0.00485096504564132 0.3299767465319707 -0.07778639985081297
-0.15760293925817193 0.2900321480151742 -0.07778639985081297
-0.10523816063332787 0.42023461422699654 -0.07778639985081297
0.45747378466106975 0.3896756714284628 -0.07778639985081297
0.39494548631945475 0.30781189655250285 -0.07778639985081297
0.7140150409602565 0.2882541731614412 -0.07778639985081297
0.6293047967271185 0.4648720406029244 -0.07778639985081297
0.6040712305337559 0.40203601584431725 -0.07778639985081297
0.6512388518938422 0.4113874797384699 -0.07778639985081297
-0.16878366574222278 0.3574498772045545 -0.07667516556722992
0.5834279167271937 0.33493456102795666 -0.07667516556722992
0.621218430325045 0.2774068169624653 -0.07667516556722992
-0.35582149158130405 0.3846238294161737 -0.0760768086453006
-0.16204787639250404 0.4063612815942636 -0.0760768086453006
-0.09701502693481333 0.44320297207305526 -0.0760768086453006
-0.11455543270337035 0.24804458800779025 -0.0760768086453006
0.39494548631945475 0.30781189655250285 -0.0760768086453006
0.38812421740946035 0.3995742045083795 -0.0760768086453006
0.5934033814113585 0.4702743488123436 -0.0760768086453006
0.6349208038372265 0.45317843675721986 -0.0760768086453006
-0.16878366574222278 0.3606810045829729 -0.0756494108439225
-0.1025797463087562 0.22452061301994003 -0.07496557436171755
0.4712616377335271 0.4137467156020771 -0.07496557436171755
-0.3610442927141443 0.38492300787713846 -0.07436721743978822
-0.2750860469009822 0.2854675394964561 -0.07436721743978822
-0.15996217512177896 0.4106181636959894 -0.07436721743978822
-0.055771139101827426 0.25980657550171543 -0.07436721743978822
-0.08610783504364443 0.4316033957436538 -0.07436721743978822
0.480493430243294 0.3930264701912671 -0.07436721743978822
0.4779803311711907 0.30832477391415647 -0.07436721743978822
0.64539204997099 0.451597064892121 -0.07436721743978822
0.5810601329075592 0.22027227887424178 -0.07436721743978822
0.5834279167271937 0.33493456102795666 -0.07393981963841013
-0.02716967823360539 0.2705940960084985 -0.07325598315620518
0.6483325468444712 0.4687613605954652 -0.07325598315620518
0.6760792121099368 0.2590799992393726 -0.07265762623427585
