0.49681632648323903 0.3578696818725847 -0.2029091628972186
0.09446683903935363 0.7723565274213902 -0.2029091628972186
0.07619285556376702 -0.6105799198932905 -0.2029091628972186
0.2907029582642738 0.7381258875332658 -0.20240850581569567
0.4687151597217596 -0.39212177849277435 -0.20240850581569567
0.45679952118151407 0.728706382156613 -0.20240850581569567
0.405002969975957 -0.4293992743341668 -0.20240850581569567
0.36537238585140686 -0.5937292329780334 -0.20240850581569567
0.05543704341263102 -0.27613383719195683 -0.20240850581569567
0.49093002965333377 0.5443143790317208 -0.20205089361460787
0.17038790933029385 -0.35805564021715036 -0.20147871409286738
8.29660306523697E-4 -0.47109685698100445 -0.20147871409286738
0.5005140366424868 0.17889192747216182 -0.20147871409286738
0.20690011506135841 0.7423242547740365 -0.20097805701134447
0.08713578891705366 0.7562568261284173 -0.20097805701134447
0.3084262189501853 -0.6405764313205353 -0.20097805701134447
0.4815677422288552 -0.30921296579257845 -0.20097805701134447
0.07019212282951362 -0.49499965650171307 -0.20097805701134447
0.050373254645227766 -0.45021945668149854 -0.20097805701134447
0.040131241206073115 0.5735813615687465 -0.20062044481025668
0.33053380522143316 -0.7065916436413435 -0.20004826528851619
0.4058898482346547 -0.28269244495990714 -0.20004826528851619
0.4603398819722833 -0.428483787099382 -0.19954760820699327
0.05101695660718573 -0.46860787606143334 -0.19954760820699327
0.4279259120656849 0.7407793700653373 -0.19954760820699327
0.07075715010723241 -0.43147342510047604 -0.19954760820699327
0.47180492913915834 0.604614948379146 -0.19954760820699327
0.36371306523835945 -0.3071960329784433 -0.19954760820699327
0.4341555166086345 -0.36747514559380307 -0.19861781648416496
0.17038790933029385 -0.676523609773881 -0.19861781648416496
0.26879563482563507 0.715045596075059 -0.19811715940264205
0.06407695419091229 -0.41933606699555603 -0.19811715940264205
0.042441416025100265 0.5681170471361249 -0.19811715940264205
0.4728491567663346 -0.4210454533167557 -0.19811715940264205
0.04529516138978092 0.476854413418518 -0.19811715940264205
0.47211962787611544 0.6133049248655795 -0.19811715940264205
0.38992603957809524 -0.29038825952731656 -0.19811715940264205
-0.01800935044678169 -0.3863141563471085 -0.19718736767981376
0.5068366203577194 0.2636746281060577 -0.19718736767981376
0.0490357850131593 -0.3251839266931597 -0.19668671059829085
0.4138932092949997 0.7386336968588104 -0.19668671059829085
0.04204089035988194 -0.4680356965396928 -0.19668671059829085
0.05271919068436366 -0.2560932494429964 -0.19668671059829085
0.47460860879568667 -0.04003110978976856 -0.19668671059829085
0.47790579328971605 0.5795320285948475 -0.19668671059829085
0.4975816165935669 0.546274093893682 -0.19632909839720303
0.4058898482346547 -0.6707302921162587 -0.19575691887546257
0.23633159921088454 -0.32978997184317055 -0.19575691887546257
0.47377179624514126 -0.40431635454986836 -0.19525626179393965
0.019275297638632453 -0.3643353104682522 -0.19525626179393965
0.4720767144119849 0.1767033408015044 -0.19525626179393965
0.04443689210717017 -0.33715678318557923 -0.19525626179393965
0.49233186948159813 0.12848291160682532 -0.19525626179393965
0.5104914170528366 0.009333678448391567 -0.19489864959285183
0.4341555166086345 -0.3203704664665179 -0.19432647007111137
0.09704164688718579 0.736302065307718 -0.19382581298958845
0.46405189661957474 -0.42523666831350476 -0.19382581298958845
0.4981466438712857 -0.4454560621630091 -0.19382581298958845
0.0536561346512137 -0.46935886168371765 -0.19382581298958845
0.17810518062976866 -0.6119102372813372 -0.19382581298958845
0.1706382378710554 -0.2648332916375823 -0.19382581298958845
0.21749258845757916 -0.7160183012620179 -0.19289602126676017
0.09503186631707242 -0.31095096108986514 -0.19289602126676017
0.15747095662700247 -0.4116187956960813 -0.19239536418523723
0.02683521956962859 -0.14953911800687508 -0.19239536418523723
0.4730780285750309 0.2178144394385582 -0.19239536418523723
0.06163803897949343 -0.43670886772440143 -0.19239536418523723
0.03207781443757579 -0.123040053906269 -0.19239536418523723
0.012709537626660472 -0.16965122819605302 -0.19146557246240895
0.5189310649985088 -0.19790974432601113 -0.19146557246240895
0.09532510832196439 0.7366882864848928 -0.190964915380886
0.27026899709411684 0.7175488814826736 -0.190964915380886
0.48834091731745816 -0.472985049402748 -0.190964915380886
0.07935414742138314 -0.44366084891354834 -0.190964915380886
0.5035823493278202 -0.3985587981123548 -0.190964915380886
0.1393257135438075 -0.24840458711960872 -0.190964915380886
0.15983119715418195 -0.2355949180766436 -0.19003512365805775
0.2687741780935698 0.717598947190826 -0.1895344665765348
0.2501998003690694 0.7120988715380955 -0.1895344665765348
0.4993339163788972 -0.22361490934020228 -0.1895344665765348
0.05760417335122308 -0.4340267762162429 -0.1895344665765348
0.453666838299985 -0.44208735522876197 -0.1895344665765348
0.3587064944231301 -0.26175067446420547 -0.1895344665765348
0.5123724572305585 -0.22949405392608574 -0.18860467485370655
0.36531516789923274 -0.42236146621675885 -0.18860467485370655
0.4035582166835623 -0.4320742135983035 -0.1881040177721836
0.017351343996780143 -0.3918356887319041 -0.1881040177721836
0.4374813100787511 0.729736305295746 -0.1881040177721836
0.07832422428225023 0.6775606851570358 -0.1881040177721836
0.5051916042327153 -0.1955137425787228 -0.1881040177721836
0.481253043491898 -0.6029770844981639 -0.18717422604935532
0.010249165683176338 -0.546452899994226 -0.18717422604935532
0.29058852235992577 0.7369529195136979 -0.1866735689678324
0.19783822188579356 -0.6333598171025835 -0.1866735689678324
0.09907288418936455 0.7469517566561128 -0.1866735689678324
0.0790394486844259 0.6617899870890637 -0.1866735689678324
0.30018683383712236 -0.6476643051460955 -0.1866735689678324
0.3932804420242988 -0.29052415216372995 -0.1866735689678324
0.30226813684745335 -0.35805564021715036 -0.18574377724500413
0.26523381730280066 0.7189864825310467 -0.1852431201634812
0.16377923585419132 0.7421740576495797 -0.1852431201634812
0.49405556029084124 0.5394079396327963 -0.1852431201634812
0.4987116711490045 0.1500755363085068 -0.1852431201634812
0.021113424352223787 -0.3177527451545552 -0.1852431201634812
0.0695198118914686 0.7284846625919386 -0.1852431201634812
0.010249165683176338 -0.24501442345329635 -0.1848855079623934
8.29660306523697E-4 -0.2732729395832544 -0.1843133284406529
0.29432199373928236 0.7473451300773092 -0.18381267135913
0.2444136349554688 0.7330263375457537 -0.18381267135913
0.48496505813918944 -0.48984288856202696 -0.18381267135913
0.2447140292043826 -0.653164380798826 -0.18381267135913
0.1339472260394469 0.748847101321878 -0.18381267135913
0.02738594235930379 -0.2600555926310492 -0.18381267135913
0.5283505703751613 -0.41570987927652575 -0.1828828796363017
0.23633159921088454 -0.7536963227686287 -0.1828828796363017
0.468851052358173 -0.43689482606896707 -0.1823822225547788
0.5129660934843643 -0.33593374945785903 -0.1823822225547788
0.4795150481946113 0.16926500701887817 -0.1823822225547788
0.47955796165874187 -0.43562887887711627 -0.1823822225547788
0.47263458944568193 0.6280456997944188 -0.1823822225547788
0.16920778906670417 -0.23141085532391636 -0.1823822225547788
-0.008589845070128945 -0.33920947721982325 -0.1814524308319505
0.28342912609414794 -0.3957336617237612 -0.1814524308319505
0.29356385587297623 0.7345497655223877 -0.1809517737504276
0.46673398812773326 0.6773675745684483 -0.1809517737504276
0.4623854237625056 0.693324230980986 -0.1809517737504276
0.05023020976479257 0.5002064901495513 -0.1809517737504276
0.018645900164717965 -0.38734407948624133 -0.1809517737504276
0.04126129576151057 -0.4700955428179586 -0.1809517737504276
0.47377894848916285 0.35522335158453494 -0.1809517737504276
0.15866538137863576 -0.22949405392608574 -0.1800219820275993
0.42472885898796 -0.26385343420660173 -0.1800219820275993
0.43606516576244336 0.7466942758713295 -0.1795213249460764
0.46001087874728264 0.6302128297330108 -0.1795213249460764
0.5165207587631769 -0.4017272422139927 -0.1795213249460764
0.05311256410556029 -0.4419872238124574 -0.1795213249460764
0.4840710276364699 0.4467863795510556 -0.1795213249460764
0.5121435854218622 -0.32924640129751714 -0.1795213249460764
0.07351076405560851 0.74486330140176 -0.1795213249460764
0.1584937275221136 -0.2355949180766436 -0.1785915332232481
0.4341555166086345 -0.31095096108986514 -0.1785915332232481
0.18409876112000018 0.7640170108920227 -0.17809087614172517
0.05636683513545927 0.6244767300275623 -0.17809087614172517
0.48742543008267347 -0.3877303006634162 -0.17809087614172517
0.05153907042077397 0.5762992142970138 -0.17809087614172517
0.48021596810874334 0.05595200498219737 -0.17809087614172517
0.12763894681225812 -0.4475016039532313 -0.17809087614172517
0.18922692008359923 -0.6877526328880381 -0.17716108441889689
0.24828299897123882 0.7453997197033916 -0.17666042733737394
0.03709153749682672 0.5433631305768274 -0.17666042733737394
0.47474450143210006 -0.23068132643369724 -0.17666042733737394
0.18252526743521386 -0.6288825123449642 -0.17666042733737394
0.48324136732994616 0.4485458315804076 -0.17666042733737394
0.03378004851475372 -0.3546440198187728 -0.17666042733737394
8.29660306523697E-4 -0.29211195033655973 -0.1757306356145457
0.4341555166086345 -0.3957336617237612 -0.1757306356145457
0.3424494437616787 -0.2327769339320718 -0.17522997853302275
0.46260714332718006 -0.4469651856515996 -0.17522997853302275
0.370936831700333 -0.624197792510714 -0.17522997853302275
0.04184062752727273 -0.47246293558915975 -0.17522997853302275
0.48453592349788405 -0.13770930639489062 -0.17522997853302275
0.13116500311498383 -0.4454059964548568 -0.17522997853302275
0.41530935361130744 -0.6406551060047746 -0.1743001868101945
0.2877276247512233 0.7287993613288959 -0.17379952972867155
0.013567806909271228 -0.3908987447650541 -0.17379952972867155
0.15571865684167233 -0.4264954632613338 -0.17379952972867155
0.34003913752634696 -0.6320438042025803 -0.17379952972867155
0.03630479065443356 0.28320740652947357 -0.17379952972867155
0.08284444250400008 -0.5440282892708506 -0.17379952972867155
0.5290872515094023 -0.3486289825964759 -0.17286973800584327
0.25519921894027686 0.7237141158294272 -0.17236908092432035
0.2873127945979615 -0.23570220173696996 -0.17236908092432035
0.4780345336821077 -0.23068132643369724 -0.17236908092432035
0.40138393450094845 -0.4509632900597612 -0.17236908092432035
0.05485771164686876 -0.4512565320646532 -0.17236908092432035
0.5141748227240409 -0.3153853523833539 -0.17236908092432035
0.5471895811284668 -0.3863141563471085 -0.17143928920149207
0.23814111694838883 0.744891910377847 -0.17093863211996915
0.36466431369325286 -0.6249130169128896 -0.17093863211996915
0.0043914778293582335 -0.3448096842888583 -0.17093863211996915
0.5096689089903346 -0.33466065002198636 -0.17093863211996915
0.038707944645743675 0.07657907674094176 -0.17093863211996915
0.01966867105982908 -0.5181943838642679 -0.17000884039714084
0.09503186631707242 -0.36747514559380307 -0.17000884039714084
0.13763063171065124 -0.2915969887669933 -0.16950818331561793
0.003990952164139813 -0.31564998541215894 -0.16950818331561793
0.03921575397128834 -0.3753497662617565 -0.16950818331561793
0.03398746359138462 -0.23672497263208106 -0.16950818331561793
0.5036252627919507 -0.12638730410845084 -0.16950818331561793
0.5377700757518141 -0.33694221586492656 -0.16857839159278964
0.2540763166288612 0.7605124113213622 -0.16807773451126673
0.5241522031343906 -0.32347454037196 -0.16807773451126673
0.26639963307834685 -0.6837545284798764 -0.16807773451126673
0.02685667630169386 -0.44993336692062835 -0.16807773451126673
0.5029100383897752 -0.1663611959460453 -0.16807773451126673
0.13270988782368318 -0.6783331275113854 -0.16714794278843845
0.2660634776093243 0.7162972387788664 -0.16664728570691553
0.37653703876936784 -0.4282048495825335 -0.16664728570691553
0.051889530377839964 -0.4416081548793043 -0.16664728570691553
0.5153978564517613 -0.32893170256055987 -0.16664728570691553
0.311687642224106 -0.7160183012620179 -0.16571749398408725
0.24375562850546728 0.7464797085506769 -0.16521683690256433
0.14307348941120765 -0.29072441499633905 -0.16521683690256433
0.03779245741095891 -0.4993768298430277 -0.16521683690256433
0.0490357850131593 -0.4975387031294364 -0.16521683690256433
0.481253043491898 -0.5935575791215112 -0.16428704517973605
0.4341555166086345 -0.4051531671004139 -0.16428704517973605
0.14243693969327137 -0.24321921020383555 -0.1637863880982131
0.4738933843935111 -0.4506915047869345 -0.1637863880982131
0.40531766871291414 -0.459031021316302 -0.1637863880982131
0.5419612907485631 -0.35805564021715036 -0.16285659637538483
0.12329038244703044 -0.2732729395832544 -0.16285659637538483
0.3943246696514753 -0.2984345340517921 -0.16235593929386188
0.0027607661923977965 -0.3636629995302071 -0.16235593929386188
0.03011094733159284 -0.2776930263886997 -0.16235593929386188
0.524288095770804 -0.35267000046876806 -0.16235593929386188
0.311687642224106 -0.7236211366571446 -0.16142614757103363
0.24972060001961183 0.7237713337816014 -0.1609254904895107
0.5072085370468505 -0.45376696971628955 -0.1609254904895107
0.4925035233381203 -0.25434810190168794 -0.1609254904895107
0.12457063412692478 -0.5980992540753262 -0.1609254904895107
0.2928486314708006 -0.7330406420337973 -0.15999569876668243
0.24047990074350303 0.7465869922110031 -0.1594950416851595
0.1404986815633755 -0.29499430467732746 -0.1594950416851595
-0.0012659471918508652 -0.37376912033294835 -0.1594950416851595
0.5215845475305801 -0.32274501148174084 -0.1594950416851595
0.44357502198528725 -0.6123965898748166 -0.1585652499623312
0.3682118267280439 -0.3497661893959352 -0.1585652499623312
0.162820835155276 -0.2637604550343189 -0.1580645928808083
0.0035689697668562247 -0.4125414351748878 -0.1580645928808083
0.5020732258392299 -0.30128827941647274 -0.1580645928808083
0.16332864448082068 -0.41457267247706653 -0.15713480115798
0.25517060996418994 -0.3863141563471085 -0.15713480115798
0.1404200068791361 -0.2949084777490664 -0.1566341440764571
-0.0018810401777218733 -0.32868137401979836 -0.1566341440764571
0.4961583200332376 -0.4236846313607837 -0.1566341440764571
0.4341555166086345 -0.3957336617237612 -0.15570435235362878
0.09503186631707242 -0.37689465097045577 -0.15570435235362878
0.1618624344563607 -0.2669002901598698 -0.15520369527210587
-0.009433809864696222 -0.3821873115465552 -0.15520369527210587
0.5018372017865118 -0.32149336877793355 -0.15520369527210587
0.17567341766237157 -0.42399217785371923 -0.15427390354927759
0.2269120938342318 -0.4051531671004139 -0.15427390354927759
0.015413085866884252 -0.44389687296626623 -0.15377324646775467
0.037556433358240944 -0.5095401685979432 -0.15377324646775467
0.4886413115663719 -0.45315187673041857 -0.15377324646775467
0.4209882353645816 -0.43341168323037194 -0.1528434547449264
0.13270988782368318 -0.254433928829949 -0.1528434547449264
0.5274636921164636 -0.3950899597618031 -0.15234279766340347
0.5255540429626547 -0.3083618487539895 -0.15234279766340347
0.045709991543042824 -0.4620921817576136 -0.15234279766340347
0.5382635805893153 -0.41457267247706653 -0.1514130059405752
0.2802535297484883 0.7247154299924732 -0.15091234885905228
0.3765727999894768 -0.4315449475406936 -0.15091234885905228
0.031155174958769228 -0.35089624395137264 -0.15091234885905228
0.12030789668995816 -0.4683074818125196 -0.15091234885905228
0.47183353811524525 -0.574711416124184 -0.149982557136224
0.16976566410040114 -0.2665855914229125 -0.14948190005470105
0.4078066496324853 -0.46360130524620413 -0.14948190005470105
0.49542879114301847 -0.4892635567962648 -0.14948190005470105
0.2928486314708006 -0.337399959482319 -0.14855210833187277
-0.016478770226125906 -0.42399217785371923 -0.14855210833187277
0.12557910053399232 -0.41674695465968037 -0.14805145125034982
0.006022189466318568 -0.32880296216816823 -0.14805145125034982
0.4341555166086345 -0.31924041191108044 -0.14712165952752157
0.23633159921088454 -0.7536963227686287 -0.14712165952752157
0.132008967909551 -0.617195745613415 -0.14662100244599863
0.5107989635457721 -0.47559561847068904 -0.14662100244599863
0.5073301251952204 -0.3625186404867261 -0.14662100244599863
0.3493728159747385 -0.6783331275113854 -0.14569121072317037
0.3867504432324356 -0.2902023011827509 -0.14519055364164743
0.030389884848441337 -0.4108392010977099 -0.14519055364164743
0.5163705616387201 -0.35590281476660174 -0.14519055364164743
0.11591641886059993 -0.4084145903743346 -0.14426076191881915
0.39238641152157927 -0.29092467782894826 -0.14376010483729623
0.5316906683333215 -0.41289189513195385 -0.14376010483729623
0.4680714577598015 -0.4721410846081808 -0.14376010483729623
0.1609684039536412 -0.3863141563471085 -0.14283031311446795
0.39412440681886596 -0.2923551266332995 -0.14232965603294503
0.3669744885122801 -0.6454685662314165 -0.14232965603294503
0.49612255881312883 -0.4553118544249889 -0.14232965603294503
0.14212939320033582 -0.6971721382646907 -0.14139986431011672
0.3677540831106516 -0.24160995529894047 -0.1408992072285938
0.5159914927055671 -0.4598606816228256 -0.1408992072285938
0.12359792893996599 -0.47431536679079467 -0.1408992072285938
0.19865357770427378 -0.7348573120153233 -0.13996941550576553
0.3587064944231301 -0.26584891028867164 -0.1394687584242426
0.48909905518376423 -0.455719532334229 -0.1394687584242426
0.006951981189146819 -0.3747418255199072 -0.1394687584242426
0.3776313321046967 -0.6989888082462168 -0.13853896670141433
0.3946679773645196 -0.28860735076589933 -0.13803830961989141
0.4063690485841124 -0.4263381138928552 -0.13803830961989141
0.04232698012075223 -0.4701098473060021 -0.13803830961989141
0.1629209665715806 -0.4106675472411877 -0.13710851789706313
0.3681403042878264 -0.24150982388263584 -0.13660786081554022
0.44634294042170686 -0.5801614260687621 -0.13660786081554022
0.038207287564220704 -0.466154656361971 -0.13660786081554022
0.09503186631707242 -0.36747514559380307 -0.13567806909271193
0.3985444936243113 -0.3041348725371316 -0.135177412011189
0.31522085077085343 -0.6809651533113916 -0.135177412011189
0.5086103768751148 -0.4024567711042118 -0.135177412011189
0.17980741470694658 -0.3486289825964759 -0.1342476202883607
0.35889960501171764 -0.2629307947277952 -0.13374696320683777
0.18790375493957445 -0.6674044986461423 -0.13374696320683777
0.5113139251153387 -0.40234233519986373 -0.13374696320683777
0.09503186631707242 -0.36747514559380307 -0.1328171714840095
0.3598293967345459 -0.262995164923991 -0.13231651440248657
0.1082134520491687 -0.6088276201079602 -0.13231651440248657
0.46844337444893297 -0.4865170950919104 -0.13231651440248657
0.31169479446812776 -0.33920947721982325 -0.13138672267965829
0.16764859986996133 -0.2604918795163764 -0.13088606559813537
0.059149058059922335 -0.47658978038971306 -0.13088606559813537
0.3904481533916835 -0.42083803824012483 -0.13088606559813537
0.26459011534084254 -0.41457267247706653 -0.1299562738753071
0.42472885898796 -0.2732729395832544 -0.1299562738753071
0.49337609710877445 -0.4624211849826143 -0.12945561679378417
0.2952589377061324 -0.6885393797304312 -0.12945561679378417
0.4058898482346547 -0.26385343420660173 -0.1285258250709559
0.17038790933029385 -0.6689136221347327 -0.1285258250709559
0.1257221454144275 -0.4775982467967807 -0.12802516798943298
0.24815425857884718 -0.7041670329179682 -0.12802516798943298
0.05198966179414462 -0.4865743130440845 -0.12802516798943298
0.21749258845757916 -0.33920947721982325 -0.12709537626660466
0.21749258845757916 -0.7366668297528276 -0.12709537626660466
0.028530301402784834 -0.4387329527825584 -0.12659471918508175
0.49462058756856003 -0.5256112609148289 -0.12659471918508175
0.39204310380853497 -0.6297121726514879 -0.12659471918508175
0.5377700757518141 -0.47937915555819793 -0.12566492746225347
0.1423368082769667 -0.24477839940057838 -0.12516427038073055
0.013954028086445967 -0.4774337451842803 -0.12516427038073055
0.014547664340251808 -0.46461692389729353 -0.12516427038073055
0.25041436768972214 -0.5120148450294706 -0.12516427038073055
0.4450126230336602 -0.4752594630016665 -0.12423447865790227
0.3706507419394628 -0.24695268158319222 -0.12373382157637934
0.04326392408760227 -0.4751307226092749 -0.12373382157637934
0.4075992345558544 -0.5042260512897783 -0.12373382157637934
0.5304390256295141 -0.417168937056964 -0.12373382157637934
0.4341555166086345 -0.41457267247706653 -0.12280402985355107
0.09503186631707242 -0.37689465097045577 -0.12280402985355107
0.2895156857566623 -0.7035233309560102 -0.12230337277202814
0.14921726702589605 -0.421946636063497 -0.12230337277202814
0.10445137169372505 -0.254433928829949 -0.12137358104919986
0.23633159921088454 -0.7536963227686287 -0.12137358104919986
0.04547396749032487 -0.482104160530487 -0.12087292396767695
0.11947823638343447 -0.6177464684030901 -0.12087292396767695
0.14218661115250983 -0.24467111574025205 -0.12087292396767695
0.4058898482346547 -0.2732729395832544 -0.11994313224484864
8.29660306523697E-4 -0.5276138892409206 -0.11994313224484864
0.5280787851023347 -0.4508202451793261 -0.11944247516332572
0.40496720875584824 -0.42851239607546904 -0.11944247516332572
0.37158053366229105 -0.22585356171901194 -0.11944247516332572
0.3233815611996771 -0.4217249164988226 -0.11851268344049744
0.1018694116018711 -0.48887733561908997 -0.11851268344049744
0.26308814409627385 -0.7128427049163583 -0.11801202635897452
0.40502442670802213 -0.4286268319798171 -0.11801202635897452
0.16618238984550135 -0.2399577869299148 -0.11801202635897452
0.1138708770703778 -0.4805163623576571 -0.11708223463614624
0.3200629199735823 -0.4215747193743657 -0.11708223463614624
0.023652470979947205 -0.4174121133537037 -0.11658157755462331
0.4844143353495142 -0.49723830888052273 -0.11658157755462331
0.37158053366229105 -0.22585356171901194 -0.11658157755462331
0.19865357770427378 -0.7065916436413435 -0.11565178583179504
0.44357502198528725 -0.4522506939836773 -0.11565178583179504
0.04544535851423781 -0.5391146976279043 -0.11515112875027211
0.4753953556380797 -0.5150760054707822 -0.11515112875027211
0.14234396052098852 -0.24785386432993342 -0.11515112875027211
0.2120068172928922 -0.4282120018265553 -0.11479351654918431
0.33486091285459557 -0.5086818993153324 -0.11422133702744383
0.33995331059808587 -0.6877526328880381 -0.11422133702744383
0.3921003217607091 -0.6420426413449953 -0.11372067994592092
0.47748381089243247 -0.5123080870343627 -0.11372067994592092
0.3927082625025584 -0.288178216124594 -0.11372067994592092
0.3493728159747385 -0.3185609487290136 -0.1127908882230926
0.27198553565933836 -0.5054133237973899 -0.1127908882230926
0.12035796239811049 -0.5101838705599011 -0.1127908882230926
0.5321841731708226 -0.44314588734398186 -0.11229023114156969
0.15485323531503978 -0.4349351112070059 -0.11229023114156969
0.20438967740972205 -0.4268888366825304 -0.11136043941874141
0.36743223212967246 -0.41457267247706653 -0.11136043941874141
0.1595308029052683 -0.5167496305718732 -0.11136043941874141
0.16471617982104136 -0.49935537311096256 -0.11136043941874141
0.47183353811524525 -0.5095973865501171 -0.1108597823372185
0.14875237116448192 -0.42284781881023825 -0.1108597823372185
0.3459540433323392 -0.5149401128343689 -0.10992999061439021
0.010249165683176338 -0.49935537311096256 -0.10992999061439021
0.3681403042878264 -0.2355949180766436 -0.10992999061439021
0.057110668513721895 -0.520475949707208 -0.10942933353286728
0.0713793953371252 -0.5383279507855111 -0.10942933353286728
0.3887101580943968 -0.24502157569731814 -0.10942933353286728
0.3493728159747385 -0.32978997184317055 -0.10849954181003901
0.33855862301384343 -0.5197035073528584 -0.10849954181003901
0.4906725488685508 -0.5515739067138032 -0.10849954181003901
0.284366070060998 -0.7123849612989659 -0.10799888472851608
0.12025067873778414 -0.4886484638103937 -0.10799888472851608
0.31169479446812776 -0.7442768173919759 -0.10764127252742828
0.43471339164233147 -0.5244812063593914 -0.10764127252742828
0.504032940701191 -0.4463930061298591 -0.10656843592416489
0.4331255934695016 -0.5677093692268849 -0.10656843592416489
0.13506297610684087 -0.2939858382702598 -0.10656843592416489
0.03583989479301943 -0.546452899994226 -0.10621082372307708
0.03764941253052371 -0.5315976891610387 -0.10513798711981366
0.3704862403269624 -0.6557964065988321 -0.10513798711981366
0.2296657077826079 -0.4377101818874473 -0.10513798711981366
0.19432647007111134 -0.4283550467069904 -0.10478037491872588
0.30226813684745335 -0.3203704664665179 -0.10478037491872588
0.37417679824218847 -0.6633563285298283 -0.10370753831546246
0.15319391470199237 -0.43396240602004715 -0.10370753831546246
0.23633159921088454 -0.37689465097045577 -0.10277774659263418
8.29660306523697E-4 -0.5181943838642679 -0.10277774659263418
0.13322484939324952 -0.6478645679787047 -0.10227708951111125
0.40405887376508515 -0.4275182341564449 -0.10227708951111125
0.44357502198528725 -0.5276138892409206 -0.10134729778828298
0.42472885898796 -0.6689136221347327 -0.10134729778828298
0.0540709648044756 -0.5159485792414366 -0.10084664070676005
0.5074445610995686 -0.4439898521385491 -0.10084664070676005
0.22071825051139107 -0.24874789483265294 -0.10084664070676005
0.44357502198528725 -0.4522506939836773 -0.09991684898393177
0.14713596401556506 -0.6555246213260054 -0.09941619190240886
0.42329841018360886 -0.5803616889013713 -0.09941619190240886
0.16543855646723873 -0.2643326345560593 -0.09941619190240886
0.41530935361130744 -0.47109685698100445 -0.09848640017958055
0.5060856347354348 -0.4413149128744123 -0.09798574309805763
0.41523067892706816 -0.6232751530319075 -0.09798574309805763
0.14395321542588357 -0.43261778414395696 -0.09798574309805763
-0.008589845070128945 -0.4899358677343098 -0.09705595137522935
0.0941449880583746 -0.6073614100835004 -0.09655529429370642
0.08102062027845233 -0.5660572008578593 -0.09655529429370642
0.38134334675198805 -0.42873411564014346 -0.09655529429370642
0.481253043491898 -0.6029770844981639 -0.09562550257087815
0.273723530956625 -0.7157036025250607 -0.09512484548935522
0.08670665427574838 -0.5969691995198888 -0.09512484548935522
0.41191918994499493 -0.4283407422189469 -0.09512484548935522
0.44357502198528725 -0.6406551060047746 -0.09419505376652693
0.02024085058156955 -0.5034893701555375 -0.093694396685004
0.02376690688429524 -0.4280904136781854 -0.093694396685004
0.2228496192298744 -0.4243140288346982 -0.093694396685004
0.18922692008359923 -0.7178278189995222 -0.09276460496217574
0.10445137169372505 -0.28269244495990714 -0.09276460496217574
0.12847575936280353 -0.5941297586432517 -0.09226394788065283
0.1873101186857686 -0.4373311129542942 -0.09226394788065283
0.029088176436481723 -0.5841309215008367 -0.09133415615782452
0.2276058615043421 -0.4266313558977472 -0.09133415615782452
0.34465233492037955 -0.6877526328880381 -0.0908334990763016
0.2129723702358293 -0.4301502599564512 -0.0908334990763016
0.14408195581827518 -0.2985775789322273 -0.0908334990763016
0.1609827084416847 -0.41457267247706653 -0.08990370735347335
0.09565411154696511 -0.5804546680736542 -0.08940305027195042
0.4693517094396959 -0.5401017073029066 -0.08940305027195042
0.38750142885471994 -0.2742384925261915 -0.08940305027195042
0.3682118267280439 -0.36747514559380307 -0.08847325854912212
0.4385183854619058 -0.6115240161041623 -0.08797260146759919
0.137315932973694 -0.6205644525476619 -0.08797260146759919
0.13866055484978415 -0.24625176166906015 -0.08797260146759919
0.3074392092751829 -0.4222827915325195 -0.0870428097447709
0.05984997797405442 -0.536539889780072 -0.08654215266324797
0.12680928650573445 -0.6185260630014615 -0.08654215266324797
0.34797812839049613 -0.44280257963093755 -0.08654215266324797
0.1207012701111548 -0.6500746113814273 -0.08561236094041971
0.019568539643524528 -0.4390333470314721 -0.0851117038588968
0.4052747552487836 -0.6056520237623007 -0.0851117038588968
0.2097967738901696 -0.4277614104531846 -0.0851117038588968
0.4403636644195187 -0.6218160952514692 -0.08418191213606849
0.2928486314708006 -0.337399959482319 -0.08418191213606849
0.2771709125751114 -0.7213252663261609 -0.08368125505454557
0.14051298605141896 -0.6269514064590901 -0.08368125505454557
0.14252991886555413 -0.24626606615710364 -0.08368125505454557
0.3493728159747385 -0.32978997184317055 -0.08275146333171732
0.1138708770703778 -0.46167019936033 -0.08275146333171732
0.1586153156704835 -0.674213434954854 -0.08225080625019439
0.4086434621830307 -0.4307224394781916 -0.08225080625019439
0.17158948632594892 -0.6905706170326099 -0.08189319404910655
0.5303746554333184 -0.4805163623576571 -0.08132101452736609
0.42138160878577824 -0.6010745875883767 -0.08082035744584316
0.023223336338641827 -0.43647999591570524 -0.08082035744584316
0.2097896216461478 -0.4320813658423253 -0.08082035744584316
0.47183353811524525 -0.6218160952514692 -0.07989056572301487
0.33053380522143316 -0.31095096108986514 -0.07989056572301487
0.1731200665466047 -0.6820665988907421 -0.07938990864149194
0.4089080952118357 -0.6169597215606969 -0.07938990864149194
0.16603934496506625 -0.2591114964201775 -0.07938990864149194
0.1798860893911859 -0.4209024084363206 -0.07846011691866368
0.5341796492528926 -0.47109685698100445 -0.07846011691866368
0.3253555805496818 -0.699453704107631 -0.07795945983714077
0.3272580774594689 -0.6663674232629876 -0.07795945983714077
0.16144760430309882 -0.3040204366327836 -0.07795945983714077
0.35879232135139116 -0.7065987958853652 -0.07702966811431246
0.12218893686768004 -0.29211195033655973 -0.07702966811431246
0.13002064407150288 -0.654509002674916 -0.07652901103278954
0.3381151838844946 -0.6648225385542883 -0.07652901103278954
0.14107086108511596 -0.24683109343482232 -0.07652901103278954
0.31776704964259866 -0.4201228138379492 -0.07559921930996129
0.2740096207174952 -0.74246014741045 -0.07559921930996129
0.2524742139679878 -0.7243220565712767 -0.07509856222843836
0.1886261315857718 -0.6665033158994009 -0.07509856222843836
0.3747060642997983 -0.43445591085754826 -0.07509856222843836
0.2928486314708006 -0.32978997184317055 -0.07416877050561006
0.21638399063420696 -0.7160183012620179 -0.07416877050561006
0.06580779724417718 -0.5458449592523767 -0.07366811342408713
0.027214288502781743 -0.5184947781131816 -0.07366811342408713
0.15440264394166914 -0.43457034676189643 -0.07366811342408713
0.28342912609414794 -0.37689465097045577 -0.07273832170125884
0.23633159921088454 -0.7536963227686287 -0.07273832170125884
0.005450009944578098 -0.4806307982620052 -0.07223766461973591
0.037785305166937115 -0.5387856944029035 -0.07223766461973591
0.17924238742922782 -0.4386185168782103 -0.07223766461973591
0.4142722782281527 -0.41222673643793056 -0.07130787289690765
0.18922692008359923 -0.7178278189995222 -0.07130787289690765
0.1931821110276304 -0.666117094722226 -0.07080721581538474
0.37676591057806413 -0.6578419483890544 -0.07080721581538474
0.3766443224296943 -0.42118134595316914 -0.07080721581538474
0.44357502198528725 -0.5276138892409206 -0.06987742409255643
0.2904812386995994 -0.42831928548688164 -0.06987742409255643
0.17623844494009036 -0.685471067045098 -0.06937676701103351
0.5059711988310868 -0.4445405749282243 -0.06937676701103351
0.017136776676127452 -0.4523293686679166 -0.06937676701103351
0.14296620575088131 -0.24012944078643694 -0.06937676701103351
0.5318909311659306 -0.4805163623576571 -0.06844697528820526
0.1358711796812993 -0.24333364610818367 -0.06794631820668233
0.47661838936580014 -0.5305892227539711 -0.06794631820668233
0.3177455929105334 -0.6858000702700986 -0.06794631820668233
0.15734221623461087 -0.6833253938385712 -0.06701652648385403
0.44357502198528725 -0.44283118860702464 -0.06701652648385403
0.14345255834436071 -0.2979481814583127 -0.0665158694023311
0.4517428846581326 -0.5638686141872018 -0.0665158694023311
0.31124420309475714 -0.6851349115760754 -0.0665158694023311
-0.008589845070128945 -0.4778700320696073 -0.06558607767950281
0.4906725488685508 -0.5935575791215112 -0.06558607767950281
0.14285892209055495 -0.24278292331850848 -0.06508542059797988
0.4160317302575048 -0.6115168638601406 -0.06508542059797988
0.29238373560938646 -0.7146307659217972 -0.06508542059797988
-0.00890454380708629 -0.4707750060000254 -0.06508542059797988
0.3964703428580019 -0.6877526328880381 -0.06415562887515162
0.17038790933029385 -0.3203704664665179 -0.06415562887515162
0.4104386754324915 -0.43101568148308367 -0.06365497179362871
0.2644113092402986 -0.7263103804093248 -0.06365497179362871
0.036211811482150795 -0.48813350224082724 -0.06365497179362871
0.4164251036787014 -0.41457267247706653 -0.0627251800708004
0.2796098277865302 -0.7348573120153233 -0.0627251800708004
0.12364799464811822 -0.4367160199684232 -0.06222452298927748
0.47121844512937416 -0.5721652172524389 -0.06222452298927748
0.13382563789107707 -0.6602379501363426 -0.06222452298927748
0.30226813684745335 -0.3203704664665179 -0.06129473126644923
0.15734221623461087 -0.6600734485238422 -0.06129473126644923
0.37713067502317377 -0.43828236140918775 -0.06079407418492631
0.2947582806246095 -0.6970791590924079 -0.06079407418492631
0.15302226084547021 -0.6444958610444577 -0.06079407418492631
0.16473763655310664 -0.6574843361879666 -0.059864282462098004
0.4058898482346547 -0.31095096108986514 -0.059864282462098004
0.12096590313995971 -0.4941342349750805 -0.059363625380575075
0.27674177793380605 -0.7285633372761781 -0.059363625380575075
0.021728517338094794 -0.5116071671202306 -0.059363625380575075
0.509511559621856 -0.5652919107475314 -0.05843383365774678
0.13163705122041974 -0.28715544522948283 -0.05793317657622385
0.5319696058501698 -0.47380755746525 -0.05793317657622385
0.25770965659191325 -0.7107256406859185 -0.05793317657622385
0.029088176436481723 -0.574711416124184 -0.0570033848533956
0.09503186631707242 -0.41457267247706653 -0.0570033848533956
0.33134916103991335 -0.4324890437515654 -0.05650272777187267
0.42762551781677116 -0.6238616370416914 -0.05650272777187267
0.025769535210386937 -0.5366543256844202 -0.05650272777187267
0.5271704501115716 -0.49854716953650413 -0.055572936049044376
0.4034580852672576 -0.2952160242420019 -0.05507227896752145
0.3349109785627478 -0.43756713700701216 -0.05507227896752145
0.25192349117831264 -0.7028295632858997 -0.05507227896752145
-0.008589845070128945 -0.5087748784876153 -0.0541424872446932
0.3211142998447805 -0.4051531671004139 -0.0541424872446932
0.12612982332366762 -0.4365586705999446 -0.05364183016317028
0.503181823662602 -0.4700955428179586 -0.05364183016317028
0.14756509865687045 -0.6456688290640257 -0.05364183016317028
0.24998523304841674 -0.7372533137626115 -0.052712038440341974
0.40782810636455047 -0.29211195033655973 -0.052712038440341974
0.11990021878071805 -0.43608662249450864 -0.052211381358819045
0.4998703346805288 -0.47142586020600524 -0.052211381358819045
0.1244275892464897 -0.6174460741541763 -0.052211381358819045
0.4906725488685508 -0.5841309215008367 -0.05128158963599075
0.3632767783530323 -0.26109982025822565 -0.05078093255446782
0.164287045179736 -0.4456134115314877 -0.05078093255446782
0.5373051798903999 -0.4578795100287993 -0.05078093255446782
0.1244848071986637 -0.6278096757417008 -0.05078093255446782
0.5130733771446905 -0.5298811505958173 -0.04985114083163957
0.39451778024006257 -0.24482131286470893 -0.04935048375011664
0.20744368560701193 -0.47759109455275894 -0.04935048375011664
0.5097547359185957 -0.5081883944778312 -0.04935048375011664
0.009412353132630953 -0.5169498934044824 -0.048992871549028816
0.5162418212463284 -0.5234941966843891 -0.048420692027288346
0.15943782373298543 -0.26037744361202825 -0.04792003494576542
0.2340142721478355 -0.47784857533754216 -0.04792003494576542
0.2975405035490726 -0.6987384797054553 -0.04792003494576542
0.2504787378859179 -0.7386408491028322 -0.04699024322293717
0.3682118267280439 -0.3486289825964759 -0.04699024322293717
0.02278704945331466 -0.46867224625762915 -0.04648958614141424
0.5053990193093464 -0.4715331438663315 -0.04648958614141424
0.12769616476443216 -0.3018175454740827 -0.04648958614141424
0.46241403273859255 -0.631235600628122 -0.045559794418585944
0.08157849531214932 -0.5780300573502789 -0.045059137337063015
0.49109453126583436 -0.5544777177866362 -0.045059137337063015
0.27140620389357606 -0.4378031610597301 -0.045059137337063015
0.09503186631707242 -0.3863141563471085 -0.04412934561423472
0.12395554114105377 -0.6689136221347327 -0.04412934561423472
0.18581529968522167 -0.7030441306065525 -0.04362868853271179
0.11634555350190531 -0.49103731331366024 -0.04362868853271179
0.5099478465071832 -0.5370333946175734 -0.04327107633162401
0.5189310649985088 -0.546452899994226 -0.04269889680988354
-0.008446800189693852 -0.4672847109174085 -0.04219823972836061
0.48765430189136955 -0.5509874227040193 -0.04219823972836061
0.36192500423292046 -0.26053479298050697 -0.04219823972836061
0.5123724572305585 -0.5418325503561716 -0.04126844800553232
0.08006937182355871 -0.5765137816176665 -0.04076779092400939
0.38542012584438895 -0.6443528161640225 -0.04076779092400939
0.3468337693470151 -0.43124455329177985 -0.04076779092400939
0.09503186631707242 -0.4051531671004139 -0.03983799920118114
0.08561236094041967 -0.6406551060047746 -0.03983799920118114
0.26858821974900415 -0.7372676182506551 -0.03933734211965821
0.41106092066238437 -0.4945776741044295 -0.03933734211965821
0.3915567512150557 -0.2355949180766436 -0.038407550396829915
0.42472885898796 -0.6689136221347327 -0.038407550396829915
0.05776152271970165 -0.532234238878975 -0.037906893315306986
0.4227762963700206 -0.6308207704748601 -0.037906893315306986
0.12571499317040571 -0.2870624660572 -0.037906893315306986
0.5000920542452033 -0.574711416124184 -0.03697710159247869
0.06197419444851604 -0.5513235781730418 -0.03647644451095576
0.38027051014872465 -0.6456402200879385 -0.03647644451095576
0.20747944682712066 -0.4381178597966874 -0.03647644451095576
0.038507681813134464 -0.5841309215008367 -0.03554665278812751
0.25517060996418994 -0.37689465097045577 -0.03554665278812751
0.20094944803525744 -0.6937247566462044 -0.035045995706604584
0.38115023616340055 -0.4267100305819865 -0.035045995706604584
0.12561486175410116 -0.28699094361698246 -0.035045995706604584
0.4975816165935669 -0.566092962077968 -0.03411620398377629
0.1392327343715246 -0.6374652051710714 -0.03361554690225336
0.5184017989408988 -0.5160773196338281 -0.03361554690225336
0.3188899519540143 -0.4342914092450479 -0.03361554690225336
0.12329038244703044 -0.26385343420660173 -0.03268575517942511
0.4341555166086345 -0.3203704664665179 -0.03268575517942511
0.3161291857616165 -0.43590781639396475 -0.03218509809790218
0.32094264598825833 -0.6912643847027203 -0.03218509809790218
0.2250453581445535 -0.22616826045596916 -0.031827485896814355
0.23633159921088454 -0.7536963227686287 -0.031255306375073885
0.3996030257395312 -0.2870481615691565 -0.03075464929355096
0.49289689675931675 -0.4948566116212779 -0.03075464929355096
0.003869364015769989 -0.493390401596818 -0.03075464929355096
0.44357502198528725 -0.4805163623576571 -0.029824857570722656
0.2091173107081028 -0.23455069044946722 -0.029824857570722656
0.28935118414416194 -0.7116053667005944 -0.02932420048919973
0.21287939106354645 -0.4410288231135421 -0.02932420048919973
0.40681963995748294 -0.28269244495990714 -0.02839440876637148
0.39482532673299814 -0.6767667860706208 -0.02839440876637148
0.05542273892458744 -0.5747042638801623 -0.027893751684848558
0.4961797767653028 -0.5137027746186051 -0.027893751684848558
0.16581762540039177 -0.2633313203930135 -0.027893751684848558
0.42186796137925775 -0.6500746113814273 -0.026963959962020254
0.12105888231224257 -0.2837581293191488 -0.026963959962020254
0.24216783033263736 -0.7046819944875347 -0.02646330288049733
0.33506117568720467 -0.48955679880115677 -0.02646330288049733
0.18692389750859387 -0.6833182415945493 -0.02610569067940955
0.3829382971688396 -0.6783331275113854 -0.025533511157669078
0.09503186631707242 -0.33920947721982325 -0.025533511157669078
0.2826423792517548 -0.7358014082261951 -0.025032854076146156
0.3799343546797021 -0.480873974558745 -0.025032854076146156
0.3644425941285786 -0.6939679329429441 -0.02467524187505832
0.1131771094002674 -0.46167019936033 -0.024103062353317852
0.37924058700959173 -0.6877526328880381 -0.024103062353317852
0.03347250202181827 -0.5306321362181016 -0.02360240527179493
0.4871536448098467 -0.5259545686278732 -0.02360240527179493
0.1338041811590118 -0.24402741377829398 -0.02360240527179493
0.1609684039536412 -0.3863141563471085 -0.022672613548966627
0.14212939320033582 -0.5022949454039042 -0.022672613548966627
0.13818135450032645 -0.666910993808641 -0.0221719564674437
0.4663191579744715 -0.5914047536709626 -0.0221719564674437
0.30701722687789934 -0.43852553770592745 -0.0221719564674437
0.13270988782368318 -0.6783331275113854 -0.021814344266355923
0.33855862301384343 -0.671896107891805 -0.02124216474461545
0.3334090073181791 -0.23433612312881452 -0.02124216474461545
0.25562835358158226 -0.7314313871289022 -0.020741507663092528
0.33068400234589 -0.4417011340515872 -0.020741507663092528
0.16473763655310664 -0.6821881870391119 -0.020383895462004694
0.445806522120075 -0.6270801468514817 -0.019811715940264225
0.42472885898796 -0.24501442345329635 -0.019811715940264225
0.23889210257067311 -0.7332266003783628 -0.0193110588587413
0.12190284710680975 -0.44009187914669207 -0.0193110588587413
0.45689965259781873 -0.6218160952514692 -0.01895344665765352
0.18322618734934593 -0.65949411675808 -0.018381267135913048
0.23406433785598782 -0.4217249164988226 -0.018381267135913048
0.16455167820854102 -0.6832252624222666 -0.017880610054390126
0.12105173006822079 -0.4892635567962648 -0.017880610054390126
0.29721150032407184 -0.25203792708266076 -0.017880610054390126
0.2867835285403515 -0.4271534697113354 -0.016950818331561823
0.4058898482346547 -0.6783331275113854 -0.016950818331561823
0.4215961761064309 -0.6029699322541421 -0.0164501612500389
0.40895100867596623 -0.4270890995151396 -0.0164501612500389
0.13417609784814316 -0.24198187198807175 -0.0164501612500389
0.349651753491587 -0.5028528204376012 -0.015520369527210597
0.20107103618362726 -0.23013060364402202 -0.015520369527210597
0.35709008727421326 -0.6913716683630466 -0.015019712445687672
0.3330513951170913 -0.7017495744386146 -0.015019712445687672
0.3789187360286128 -0.42556567153850555 -0.015019712445687672
0.43841110180157933 -0.6406551060047746 -0.014662100244599892
0.19564963521513623 -0.7160183012620179 -0.01408992072285942
0.3894754482047247 -0.5087748784876153 -0.01408992072285942
0.1345551667812962 -0.6344183492178034 -0.013589263641336497
0.07479816797952454 -0.6088776858161126 -0.013589263641336497
0.36984253836500436 -0.3023396592876709 -0.013589263641336497
0.19432647007111134 -0.5087748784876153 -0.013231651440248664
0.44357502198528725 -0.5276138892409206 -0.012659471918508195
0.15885849196722315 -0.6858000702700986 -0.012158814836985271
0.1314510928758541 -0.6384522148460738 -0.012158814836985271
0.3844331161693866 -0.43060800357384355 -0.012158814836985271
0.38383232767155906 -0.5055063029696727 -0.01180120263589749
0.44357502198528725 -0.5087748784876153 -0.01122902311415702
0.36188924301281167 -0.6869229725815144 -0.010728366032634095
0.0864134122708563 -0.621265372461794 -0.010728366032634095
0.3596076771698714 -0.24634474084134292 -0.010728366032634095
0.12803232023345465 -0.254433928829949 -0.009798574309805793
0.3598580057106328 -0.7000115791413279 -0.009798574309805793
0.15998139427863883 -0.6532359032390435 -0.00929791722828287
0.40627606941182953 -0.49001454241854914 -0.00929791722828287
0.4341555166086345 -0.6500746113814273 -0.008940305027195087
0.08561236094041967 -0.43341168323037194 -0.008368125505454568
0.18940572618414317 -0.7043744479945991 -0.007867468423931642
0.12211026218344065 -0.4988618682734613 -0.007867468423931642
0.2117994022162613 -0.24505018467340509 -0.007867468423931642
0.4341555166086345 -0.4051531671004139 -0.006937676701103392
0.2580815732810446 -0.736008823302826 -0.006437019619580467
0.4049600565118264 -0.4402635330032142 -0.006437019619580467
0.16605364945310974 -0.2567584081370197 -0.006437019619580467
0.10445137169372505 -0.6689136221347327 -0.0055072278967521655
0.21157768265158683 -0.7144090463571228 -0.005006570815229241
0.4672704064293649 -0.5892090147562835 -0.005006570815229241
0.13457662351336147 -0.288850527062639 -0.005006570815229241
0.4173835043776166 -0.47109685698100445 -0.00407677909240099
0.3090556164240998 -0.7014491801897008 -0.0035761220108780655
0.38331736610199263 -0.4939840378506238 -0.0035761220108780655
0.16596782252484865 -0.2622942450098589 -0.0035761220108780655
0.22672613548966616 -0.26385343420660173 -0.0026463302880497634
0.13314617470901025 -0.6685917711537537 -0.0021456732065268393
0.3848407940786266 -0.4313947504162367 -0.0021456732065268393
0.15154889857698847 -0.6989888082462168 -0.0012158814836985372
0.31115122392247435 -0.23167548835272128 -0.0012158814836985372
0.14581995111556198 -0.49419860517127645 -7.152244021756131E-4
0.12618704127584163 -0.30061596847842775 -7.152244021756131E-4
0.15714195340200177 -0.42399217785371923 2.145673206526382E-4
0.16923639804279123 -0.6947832887614243 7.152244021755624E-4
0.29844168629581386 -0.4433819113966998 7.152244021755624E-4
0.39033371748733525 -0.6877526328880381 0.0016450161250038645
0.3957551184558264 -0.6374795096591149 0.0021456732065267886
0.4101954991357519 -0.4351067650635281 0.0021456732065267886
0.17427873007812922 -0.2341573170282707 0.0021456732065267886
0.31508495813444015 -0.42953516697058014 0.00307546492935504
0.14177178099924803 -0.6808435651630217 0.003576122010877964
0.38696501055308835 -0.45736454845923286 0.003576122010877964
0.24575110458753718 -0.41457267247706653 0.004505913733706266
0.419336066995556 -0.6125038735351429 0.005006570815229191
0.38316716897753583 -0.4752451585136229 0.005006570815229191
0.23633159921088454 -0.7460863351294802 0.005936362538057492
0.2081517577651657 -0.2556140490935388 0.005936362538057492
0.3936452064694084 -0.24412754519459864 0.006437019619580417
0.16080390234114084 -0.30467844308278513 0.006437019619580417
0.23633159921088454 -0.3957336617237612 0.007366811342408668
0.4148444577498933 -0.6381947340612906 0.007867468423931592
0.1637363223900608 -0.4896283212413743 0.007867468423931592
0.1795284771900981 -0.7100676342359169 0.008797260146759894
0.1529650428932962 -0.6553672719575268 0.009297917228282819
0.3636200860660766 -0.2619580895408364 0.009297917228282819
0.2928486314708006 -0.7536963227686287 0.01022770895111107
0.40922994619281483 -0.28269244495990714 0.01022770895111107
0.39101318066940205 -0.2450287279413398 0.010728366032633994
0.12286840004974685 -0.30253992212028 0.010728366032633994
0.410073910987382 -0.29211195033655973 0.011658157755462296
0.2033883632466762 -0.7085370540152611 0.01215881483698522
0.12535738096931795 -0.44049955705593213 0.01215881483698522
0.09503186631707242 -0.31095096108986514 0.013088606559813523
0.13424762028836065 -0.6736698644092004 0.013589263641336446
0.41194779892108213 -0.44125769492223826 0.013589263641336446
0.17899205888846637 -0.5079809794012002 0.014519055364164698
0.326228154320336 -0.7138225623473388 0.015019712445687622
0.3396600685931938 -0.23658907999566775 0.015019712445687622
0.3052720793365909 -0.7348573120153233 0.015377324646775454
0.35382866400029256 -0.5087748784876153 0.015949504168515923
0.38406119948025536 -0.6644363173771134 0.01645016125003885
0.38351047669058014 -0.4954931613392143 0.01645016125003885
0.3682118267280439 -0.3486289825964759 0.0173799529728671
0.14200065280794422 -0.6632275881374367 0.017880610054390022
0.3630765155204232 -0.2394714343364354 0.017880610054390022
0.1609684039536412 -0.32798045410566623 0.018810401777218325
0.26160762958377026 -0.744541450420781 0.01931105885874125
0.12791073208508483 -0.2857393009131752 0.01931105885874125
0.3493728159747385 -0.31095096108986514 0.02024085058156955
0.1665614587786544 -0.6648940609945058 0.020741507663092476
0.16844249895637628 -0.5051558430126066 0.020741507663092476
0.2497992747038511 -0.7512216463371011 0.021671299385920727
0.1536731150514501 -0.6805503231581298 0.022171956467443653
