-0.06461480396245647 -0.01727917530566698 -0.10941224867604052
0.0243943507085874 -0.3436686040260119 -0.10941224867604052
0.48436134150507576 0.10383274965295908 -0.1088865892795187
0.5640663248576833 0.0851943693362856 -0.1088865892795187
0.4474900895490454 0.1118903572596434 -0.1088865892795187
0.18322609207762877 0.038298041746589406 -0.1088865892795187
0.10352110872502104 0.5445756253766496 -0.1079103646859782
0.07385139050133982 0.32889006556379874 -0.1079103646859782
-0.054724897887896 -0.27633914475151783 -0.1079103646859782
0.00461453855946655 -0.07972000219250831 -0.1079103646859782
0.20035507898428964 0.14171777330228116 -0.10738470528945639
0.27553939152680973 0.05294141064969711 -0.10738470528945639
-0.2537019983113034 0.13851125098349817 -0.10738470528945639
0.06396148442677933 0.24976330754736503 -0.10640848069591588
-0.030920036645408103 0.22807610273086498 -0.10640848069591588
0.0243943507085874 -0.15574536976946327 -0.10640848069591588
0.10352110872502104 -0.14894934471443125 -0.10640848069591588
-0.07883764534834664 0.15467903213651915 -0.10588282129939407
-0.041650997754403445 -0.041729846663881666 -0.10588282129939407
0.06396148442677933 0.26763572702910665 -0.10490659670585356
-0.042567146988341464 0.23062179609402061 -0.10490659670585356
0.00461453855946655 -0.0884159104949691 -0.10490659670585356
0.26176711533793817 0.020373056325195527 -0.10490659670585356
-0.2206980976296838 0.13629597209815622 -0.10438093730933175
-0.046006461325584176 -0.038928833022415496 -0.10438093730933175
0.09958617267105774 0.4258892430619742 -0.10340471271579124
-0.042567146988341464 0.23796600880542546 -0.10340471271579124
0.10352110872502104 -0.11809313813860077 -0.10340471271579124
0.27165702141249853 0.03946200183888771 -0.10340471271579124
0.16787683769919182 0.14554757747694014 -0.10287905331926943
0.46949269000345856 0.09533208626920626 -0.10287905331926943
0.11341101479958152 0.4456690552110949 -0.1019028287257289
-0.031708525740190854 0.21601597429066455 -0.1019028287257289
0.054071578352218964 -0.17743257458596332 -0.1019028287257289
-0.054724897887896 -0.12798304421316115 -0.1019028287257289
0.43000065048476976 0.11065130296784205 -0.10137716932920707
0.03253456193472513 0.023909993121792334 -0.10137716932920707
-0.044834991813335626 0.6731519137658853 -0.10040094473566658
-0.03863221093437816 0.21020368324912334 -0.10040094473566658
0.10352110872502104 -0.30720286074729863 -0.10040094473566658
0.20242767889057564 -0.0092966618984858 -0.10040094473566658
-0.2208708142885409 0.13628846267820588 -0.09987528533914475
0.2752615429886482 0.05321925918785858 -0.09987528533914475
-0.044834991813335626 0.23796600880542546 -0.09949981434162916
-0.026819893352538007 0.22807610273086498 -0.09889906074560424
-0.2624279442935656 0.10685153647298436 -0.09889906074560424
-0.06461480396245647 -0.01727917530566698 -0.09889906074560424
-0.04430182299686351 0.2298558352590888 -0.09837340134908243
-0.14642242490115137 0.14631353831187197 -0.09837340134908243
0.5096755961575761 0.08593780191136637 -0.09837340134908243
-0.24448043061232075 0.059940190043387576 -0.09799793035156684
-0.032564599614526415 0.24785591487998593 -0.09739717675554192
-0.2429860560422087 0.0896099082670688 -0.09739717675554192
-0.04721547793758436 -0.06863609834584825 -0.09739717675554192
-0.23171441669679094 0.07961487031320398 -0.09687151735902011
-0.23727138746002158 0.10287154389931918 -0.09687151735902011
0.06344333445020792 0.15258390397038213 -0.09687151735902011
-0.24955679849873139 0.06983009611794794 -0.09649604636150452
-0.054724897887896 0.30720286074729874 -0.0958952927654796
-0.2434816777589293 0.0896099082670688 -0.0958952927654796
-0.022516995721009386 -0.06863609834584825 -0.0958952927654796
0.40148738293343655 0.11050862398878608 -0.09536963336895779
0.5324291386070203 0.09659366882085867 -0.09536963336895779
0.4984940698515621 0.08478135123901841 -0.09536963336895779
-0.044834991813335626 0.24785591487998593 -0.0949941623714422
-0.12140854704666339 0.15693936754156287 -0.09439340877541726
0.26176711533793817 5.932441760746772E-4 -0.09439340877541726
0.054071578352218964 -0.17743257458596332 -0.09439340877541726
-0.21960172231693828 0.1334874490367397 -0.09386774937889544
-0.022892466718524945 0.16061898331721564 -0.09386774937889544
0.4725565333431858 0.0963008014427965 -0.09386774937889544
-0.24264813214444472 0.06347712683998427 -0.09349227838137988
0.09363120265046067 0.24785591487998593 -0.09289152478535494
-0.034945085738775146 -0.5038220033063081 -0.09289152478535494
-0.14374156197889013 0.020373056325195527 -0.09289152478535494
-0.21960172231693828 0.13349495845668993 -0.09236586538883312
0.1625151118546693 0.15373284522277986 -0.09236586538883312
0.4235800964272532 0.10354739169484714 -0.09236586538883312
-0.02703766653109702 -0.06863609834584825 -0.09199039439131752
0.12330092087414189 0.2775331425236175 -0.09138964079529262
-0.2503603064334147 0.09340216534197614 -0.09138964079529262
-0.03610153641112311 -0.048555909398714986 -0.09138964079529262
0.6672833020747168 0.07972000219250842 -0.09138964079529262
-0.22088583312844157 0.13631850035800716 -0.09086398139877079
0.18767166868821325 0.1408091334882935 -0.09086398139877079
-0.19937134497079873 0.1342684287115721 -0.09086398139877079
-0.030920036645408103 0.24626391785051974 -0.0904885104012552
0.07385139050133982 0.32889006556379874 -0.08988775680523028
-0.10418193768064841 0.0025006368434538693 -0.08988775680523028
-0.022516995721009386 -0.06863609834584825 -0.08988775680523028
0.3418175320082601 0.11791291205979339 -0.08936209740870847
0.4977281090166302 0.08870877787303136 -0.08936209740870847
0.013423088161182112 0.018142758599952992 -0.08936209740870847
0.43510705605098154 0.099687549840387 -0.08936209740870847
-0.259041195895975 0.085494746134298 -0.08898662641119288
0.10352110872502104 0.3467624850455404 -0.08838587281516797
-0.24520884434750093 0.07758732692661988 -0.08838587281516797
0.00461453855946655 -0.09831332598947992 -0.08838587281516797
0.47504966076668925 0.09156235745414985 -0.08786021341864615
0.2354916549317977 0.02429297353925824 -0.08786021341864615
0.331957663613501 0.11635846213007882 -0.08786021341864615
0.056069084059001795 0.014260388485641802 -0.08786021341864615
-0.03868477687403038 -0.07852600442040872 -0.08748474242113057
0.08374129657590018 0.3467624850455404 -0.08688398882510562
-0.26270579283172707 0.09949981434162916 -0.08688398882510562
0.04417416285770825 -0.04885628619672739 -0.08688398882510562
0.0243943507085874 -0.4642548695881162 -0.08688398882510562
0.2389610069488417 0.14710953682660496 -0.0863583294285838
-0.1419468106107657 0.0300301703812963 -0.0863583294285838
0.3999930083633244 0.08363240998662068 -0.0863583294285838
0.2098244575416326 0.14499938982056745 -0.0863583294285838
0.10352110872502104 0.5742453436003309 -0.0853821048350433
-0.13385165590432974 0.16873666628350253 -0.0853821048350433
-0.005275367515093928 -0.07972000219250831 -0.0853821048350433
-0.044834991813335626 -0.3554659027679515 -0.0853821048350433
0.1533836571950903 0.018022607880747967 -0.08485644543852149
0.2473790667131411 0.13736230973110045 -0.08485644543852149
0.37921444336081217 0.106626253874475 -0.08485644543852149
0.1413310381748402 0.019742265049369326 -0.08485644543852149
-0.044834991813335626 0.5940251557494516 -0.08388022084498098
0.09363120265046067 0.24785591487998593 -0.08388022084498098
-0.054724897887896 -0.09831332598947992 -0.08388022084498098
0.12330092087414189 -0.24666942652783658 -0.08388022084498098
-0.2365279548849407 0.09602295290463492 -0.08335456144845917
0.44715967507123183 0.08981266260572722 -0.08335456144845917
0.3908765725436461 0.07548468934053261 -0.08335456144845917
0.38243598451949584 0.08000536015062024 -0.08335456144845917
-0.04091507459927291 -0.06714172377573624 -0.08335456144845917
-0.04246952452898748 0.23426386476992186 -0.08237833685491866
-0.03868477687403038 0.23897227107876712 -0.08237833685491866
0.20242767889057564 -0.019186567973046173 -0.08237833685491866
0.06396148442677933 -0.4661622622554953 -0.08237833685491866
-0.24438280815296665 0.09486650223228696 -0.08185267745839683
0.4544438124230341 0.09197537555141694 -0.08185267745839683
0.3696624611840158 0.09120941471648512 -0.08185267745839683
0.13199682917660277 0.15141243445813357 -0.08185267745839683
-0.04060718838131016 -0.06921432368202234 -0.08185267745839683
0.10352110872502104 0.20829629058174423 -0.08087645286485633
-0.2798272703184376 0.08145467820103038 -0.08087645286485633
-0.1536314680534506 0.026643421983705694 -0.08087645286485633
-0.037212930563769314 0.2566945021615027 -0.08035079346833451
0.13247743205342277 0.010257867652125798 -0.08035079346833451
0.0938865229287712 0.16756519677125387 -0.08035079346833451
0.278655800806189 0.05960977556557378 -0.08035079346833451
0.3519327206813299 0.07862362687976292 -0.08035079346833451
-0.03759591098123522 -0.07118930112895422 -0.08035079346833451
-0.022516995721009386 0.2577458209545462 -0.07937456887479398
-0.3019875685918072 0.0884159104949692 -0.07937456887479398
-0.029816151912712356 -0.06714172377573624 -0.07937456887479398
0.3947439238180565 0.09298914724470905 -0.07884890947827217
-0.25402490336916683 0.08134954632172604 -0.07884890947827217
-0.2826958687394566 0.08978262492592594 -0.07884890947827217
0.338535915489974 0.09182518715241074 -0.07884890947827217
0.14579163362532527 0.016302950712126608 -0.07884890947827217
-0.042567146988341464 0.26763572702910665 -0.07847343848075661
0.00461453855946655 0.24666942652783658 -0.07787268488473166
0.09363120265046067 -0.15765276243684245 -0.07787268488473166
-0.054724897887896 -0.2664492386769574 -0.07787268488473166
-0.2527933584973157 0.09654110288120644 -0.07734702548820985
0.24972200573763834 0.04858594707851638 -0.07734702548820985
0.3787113122241412 0.09026322780274593 -0.07734702548820985
0.3304783078832896 0.11009560589151889 -0.07734702548820985
0.08326820311903053 0.15891434498849485 -0.07734702548820985
0.10352110872502104 0.5050084916584575 -0.07637080089466934
0.10352110872502104 0.3467624850455404 -0.07637080089466934
0.12330092087414189 -0.06863609834584825 -0.07637080089466934
-0.044834991813335626 -0.45436496351355576 -0.07637080089466934
0.32701646528619605 0.0674646288335998 -0.07584514149814753
0.24672574717746398 0.15388303362178607 -0.07584514149814753
0.3072441625570254 0.09548978408816282 -0.07584514149814753
0.33925681980520395 0.07473374734550149 -0.07584514149814753
-0.03763345808098675 -0.07707668636999859 -0.07584514149814753
-0.06461480396245647 0.20829629058174423 -0.07486891690460702
-0.29884112163262666 0.07972000219250842 -0.07486891690460702
-0.054724897887896 -0.0884159104949691 -0.07486891690460702
0.34787012448821136 0.09695412097847353 -0.07434325750808521
-0.2546481852250427 0.07968996451270714 -0.07434325750808521
-0.09557614241759127 0.02399259674124573 -0.07434325750808521
-0.09895538139523154 0.03291378764221597 -0.07434325750808521
0.293426829848452 0.1137151463075691 -0.07434325750808521
0.09363120265046067 0.6138049678985725 -0.0733670329145447
-0.019272926302474742 0.2775331425236175 -0.0733670329145447
-0.054724897887896 -0.14776285636228198 -0.0733670329145447
-0.044834991813335626 -0.3554659027679515 -0.0733670329145447
0.02199884574443797 0.0017196571686214652 -0.07284137351802288
0.4522360429576424 0.08981266260572722 -0.07284137351802288
0.32454586612254344 0.10011558677755478 -0.07284137351802288
0.27164200257259796 0.08222814845591242 -0.07284137351802288
0.23935149678625794 0.14981292800871715 -0.07284137351802288
-0.012784787465405564 0.26525524090485786 -0.07186514892448236
0.00461453855946655 0.2775331425236175 -0.07186514892448236
-0.04633687580339797 -0.07852600442040872 -0.07186514892448236
0.3170064084924306 0.10142973526885929 -0.07133948952796053
-0.02279484425917096 0.16075415287632125 -0.07133948952796053
-0.25636033297371374 0.1027589026000645 -0.07133948952796053
0.28208760572348146 0.09958241796108266 -0.07133948952796053
0.24478080741033326 0.024360558318811048 -0.07133948952796053
-0.044834991813335626 0.5754318319524799 -0.07036326493442002
0.10352110872502104 0.23987340147280453 -0.07036326493442002
-0.023155296416785934 -0.09410805081730539 -0.07036326493442002
-0.044834991813335626 -0.3257886751243199 -0.07036326493442002
-0.0726874304090414 0.02698134588146973 -0.06983760553789821
0.4459281301993806 0.08979013434587628 -0.06983760553789821
0.3032191134636584 0.09833585424933096 -0.06983760553789821
-0.09806176042114445 0.03295884416191784 -0.06983760553789821
-0.023155296416785934 0.27350809343025045 -0.06946213454038262
-0.11407184375520889 0.1786265723580629 -0.0688613809443577
0.08374129657590018 -0.10820323206404028 -0.0688613809443577
0.12330092087414189 -0.13787295028772162 -0.0688613809443577
-0.23456048685795905 0.10352486343499621 -0.06833572154783589
0.3016045881743413 0.08971504014637313 -0.06833572154783589
0.5210148202825469 0.08945221044811225 -0.06833572154783589
0.03359339014771911 3.0788621796285984E-4 -0.06833572154783589
-0.042567146988341464 0.2775331425236175 -0.0679602505503203
0.12330092087414189 0.22807610273086498 -0.06735949695429538
-0.005275367515093928 -0.0884159104949691 -0.06735949695429538
0.12330092087414189 -0.17743257458596332 -0.06735949695429538
0.02788623098548223 0.17457148558489458 -0.06683383755777357
-0.05044452851621842 0.022182826533220627 -0.06683383755777357
-0.2730162264235049 0.0800654355102227 -0.06683383755777357
0.24501359942879286 0.01976479330922026 -0.06683383755777357
-0.02814155126379287 0.28081475904190356 -0.06645836656025798
0.04822924963087647 0.2577458209545462 -0.06585761296423306
0.09363120265046067 -0.15765276243684245 -0.06585761296423306
0.04417416285770825 -0.04885628619672739 -0.06585761296423306
0.5456006611998669 0.08957236116731727 -0.06533195356771125
0.2501124955750545 0.1557303509295628 -0.06533195356771125
0.25609750327545283 0.12949994704312418 -0.06533195356771125
0.22897347841492724 0.09066122706011243 -0.06533195356771125
-0.09848228793836188 0.14583293543505196 -0.06533195356771125
0.04417416285770825 0.3467624850455404 -0.06435572897417072
-0.012619580226498665 -0.10820323206404028 -0.06435572897417072
0.2623378312541618 0.12271894082799284 -0.06435572897417072
0.6474959805056456 0.0884159104949692 -0.06435572897417072
-0.06571117927520198 0.15268903584968657 -0.0638300695776489
-0.014947500411095289 0.0014718463102611718 -0.0638300695776489
0.2571112749687449 0.06898153166356273 -0.0638300695776489
-0.021503224027717382 0.16127230285289276 -0.0638300695776489
-0.044834991813335626 0.5148983977330178 -0.0628538449841084
0.09363120265046067 -0.17552518191858413 -0.0628538449841084
0.26176711533793817 0.15884676020894206 -0.0628538449841084
-0.054724897887896 -0.25655933260239694 -0.0628538449841084
0.2870062757909356 0.09117937703668395 -0.06232818558758658
0.2516444172449181 0.06717927087548797 -0.06232818558758658
0.2569085206300865 0.12893674054685078 -0.06232818558758658
0.2291161573939832 0.07505665240336483 -0.06232818558758658
-0.03479489733976895 -0.10250358232175376 -0.06232818558758658
-0.022674693539965936 0.29731295467273827 -0.06135196099404607
0.26953185556656034 0.11927962649075001 -0.06135196099404607
-0.11407184375520889 0.01239054291801424 -0.06135196099404607
0.06396148442677933 -0.4661622622554953 -0.06135196099404607
0.23130139859952387 0.08909175829049727 -0.06082630159752425
0.2547307888444962 0.12274897850779401 -0.06082630159752425
-0.2423402459264819 0.10296916635867316 -0.06082630159752425
0.20815736631266335 0.012060128440200551 -0.06082630159752425
-0.019272926302474742 -0.10522950176371687 -0.060450830600008665
-0.034802406759719295 0.2924693788047874 -0.05985007700398375
0.2680675186762496 0.0940780131375042 -0.05985007700398375
0.10352110872502104 -0.14894934471443125 -0.05985007700398375
0.31197509712572175 0.08785270399869591 -0.05932441760746193
-0.1790133074855039 0.1386839676423553 -0.05932441760746193
-0.23107611600101444 0.05270861863123741 -0.05932441760746193
0.25795983942313017 0.020087698367083708 -0.05932441760746193
0.11011437944139466 6.908666354287677E-4 -0.05932441760746193
0.11341101479958152 0.46544886736021585 -0.058348193013921426
-0.12396174982976926 0.023909993121792334 -0.058348193013921426
-0.019272926302474742 -0.11809313813860077 -0.058348193013921426
0.0243943507085874 -0.45436496351355576 -0.058348193013921426
0.2484228760862344 0.08008045435012329 -0.05782253361739961
0.14374907139884047 0.17324231825368946 -0.05782253361739961
-0.06888015449423347 0.020868678041916115 -0.05782253361739961
0.03949579422866407 -0.003566974476397984 -0.05782253361739961
-0.01821409808948087 -0.10911187187802796 -0.057447062619884026
-0.01804889085057397 0.29045685425810386 -0.05684630902385908
-0.030920036645408103 -0.11809313813860077 -0.05684630902385908
0.10352110872502104 -0.10938972041618954 -0.05684630902385908
0.3458726187814285 0.08654606492734164 -0.056320649627337266
-0.11532591688691095 0.14495433330086557 -0.056320649627337266
-0.06541080247718947 0.023421880825022095 -0.056320649627337266
0.2598447038306584 0.07395276767066908 -0.056320649627337266
0.1179241761897188 0.04368229585096284 -0.056320649627337266
-0.018116475630126777 0.16794066776876945 -0.056320649627337266
-0.044834991813335626 0.6632620076913248 -0.05534442503379676
0.09363120265046067 0.2577458209545462 -0.05534442503379676
0.13319082694870238 -0.019186567973046173 -0.05534442503379676
-0.054724897887896 -0.2862290508260783 -0.05534442503379676
-0.03236935469581823 0.2921765114267251 -0.05481876563727494
-0.04345325854247831 0.011534469043678683 -0.05481876563727494
0.04876992786729893 0.18794576251639963 -0.05481876563727494
-0.23293845214869172 0.08960239884711844 -0.05481876563727494
0.15525350276271796 0.038650984484254025 -0.05481876563727494
0.23370441298362354 0.10133962222945556 -0.05481876563727494
0.09363120265046067 0.603915061824012 -0.05384254104373443
-0.022516995721009386 0.3095833468715476 -0.05384254104373443
-0.054724897887896 -0.01513899061982819 -0.05384254104373443
-0.044834991813335626 -0.3060088629751991 -0.05384254104373443
0.3471417107530311 0.0896099082670688 -0.05331688164721262
0.2502026086144582 0.07268367569906634 -0.05331688164721262
-0.2366631244440463 0.06500153908989756 -0.05331688164721262
0.14119586861573458 0.03434057743277517 -0.05331688164721262
0.13147867920003126 0.17237122553945333 -0.05331688164721262
-0.23416999702054284 0.09398039067815012 -0.05331688164721262
0.04417416285770825 0.33877997163835927 -0.052340657053672114
0.27165702141249853 0.06983009611794794 -0.052340657053672114
0.00461453855946655 -0.09831332598947992 -0.052340657053672114
0.3658777135290586 0.0881155336969568 -0.0518149976571503
-0.20433507155795472 0.13313450629907508 -0.0518149976571503
0.2563227858739622 0.16447131575172544 -0.0518149976571503
0.03824172109696201 0.024067690940748884 -0.0518149976571503
0.20006972102617773 0.1648092396494895 -0.0518149976571503
-0.040562131861608286 0.16035615361895475 -0.0518149976571503
-0.02654204481437643 -0.11280650649358132 -0.0518149976571503
0.00461453855946655 0.3269826728964197 -0.050838773063609795
-0.054724897887896 -0.0092966618984858 -0.050838773063609795
0.12330092087414189 -0.17743257458596332 -0.050838773063609795
0.5097957468767813 0.09114933935688267 -0.050313113667087975
0.02900513455807867 0.1844538822395047 -0.050313113667087975
0.22210235916039214 0.17145507630551532 -0.050313113667087975
-0.22681827488918774 0.09750981805479668 -0.050313113667087975
0.030356830149134813 0.16881176048300559 -0.050313113667087975
0.22739650022536184 0.07836079718150193 -0.050313113667087975
0.10928083382691013 -0.004317916471429105 -0.050313113667087975
-0.044834991813335626 0.5346857193020891 -0.04933688907354745
0.10352110872502104 -0.14894934471443125 -0.04933688907354745
0.26665574772559103 0.06983009611794794 -0.04933688907354745
-0.029823661332662597 -0.45436496351355576 -0.04933688907354745
0.244870920449737 0.10088154761248659 -0.04881122967702563
0.012582033126747142 0.15925977830620924 -0.04881122967702563
-0.20433507155795472 0.13227092300478918 -0.04881122967702563
0.25090849408978755 0.16883428874285653 -0.04881122967702563
-0.1906679272483876 0.04832311738025539 -0.04881122967702563
0.00922532240895782 0.00960454811644866 -0.04881122967702563
0.1590757975174266 0.13560510546272755 -0.04881122967702563
0.09363120265046067 0.5841352496748913 -0.04783500508348512
-0.018784814005704503 0.2897059122630725 -0.04783500508348512
0.2671063129226097 0.02907647404760665 -0.04783500508348512
-0.037408175482477386 -0.10929960737678579 -0.04783500508348512
-0.044834991813335626 -0.42469524528987446 -0.04783500508348512
-0.0014831104401864797 0.16238369700553887 -0.04730934568696331
0.2309935123815611 0.16565029468392445 -0.04730934568696331
0.01741059015479753 0.1550995596537366 -0.04730934568696331
-0.2243852228252868 0.13172273534841647 -0.04730934568696331
-0.051030263272342745 0.013546993590362206 -0.04730934568696331
-0.10790660997600306 0.04101645176860218 -0.04730934568696331
-0.022614618180363474 -0.12772021451490026 -0.04693387468944772
0.08374129657590018 0.6731519137658853 -0.0463331210934228
-0.0151652735896543 0.19022111676134404 -0.0463331210934228
0.2680675186762496 0.16873666628350253 -0.0463331210934228
-0.0151652735896543 -0.02716908138022746 -0.0463331210934228
0.5542515129826261 0.0895122858077147 -0.04580746169690098
0.25141913464640875 0.016633365189940297 -0.04580746169690098
0.09592908515525601 0.15234360253197218 -0.04580746169690098
0.23045283414513865 0.1700057582551052 -0.04580746169690098
0.23223256667336248 -0.0013066390713541672 -0.04580746169690098
-0.008083890576510443 0.16264652670379975 -0.04580746169690098
-0.21702599127398137 0.0920354509110194 -0.04580746169690098
0.18264786674145478 0.18557278581210115 -0.045431990699385395
0.04417416285770825 0.3467624850455404 -0.04483123710336048
0.08169122492946514 0.1683687047059372 -0.04483123710336048
0.08945596515808742 0.01048315025063505 -0.04483123710336048
0.12330092087414189 -0.05874619227128787 -0.04483123710336048
0.0243943507085874 -0.46390192685045156 -0.04483123710336048
-0.00414895452254714 0.16789561124906757 -0.04430557770683866
0.2553165236006204 0.015506952197393616 -0.04430557770683866
-0.226270087232815 0.07322435393548879 -0.04430557770683866
-0.06519302929863045 0.013757257348970974 -0.04430557770683866
0.1508604920917856 0.13800811984682723 -0.04430557770683866
-0.22026255127256572 0.05923430456805822 -0.04430557770683866
-0.008879889091243437 0.018345512938611416 -0.04430557770683866
-0.044834991813335626 0.5742453436003309 -0.04332935311329816
6.796025055032465E-4 0.22807610273086498 -0.04332935311329816
-0.054724897887896 -0.0884159104949691 -0.04332935311329816
0.006341705148038149 0.001907392667379192 -0.04332935311329816
0.08374129657590018 -0.4840421911571874 -0.04332935311329816
0.029140304117184285 0.1824263388529206 -0.04280369371677634
0.2560299184959 0.016257894192424738 -0.04280369371677634
-0.099713832810213 0.034588388291135454 -0.04280369371677634
-0.17083554915961452 0.13948747557703864 -0.04280369371677634
-0.011740978092312171 -0.0027709759616649917 -0.04280369371677634
-0.09000415281446011 0.14639614193132536 -0.04280369371677634
-0.18252771602224976 0.130483681056615 -0.04280369371677634
0.10352110872502104 0.5742453436003309 -0.04182746912323581
-0.0151652735896543 0.19840638450718376 -0.04182746912323581
-0.034802406759719295 -0.13787295028772162 -0.04182746912323581
0.014504444634026921 -0.33567858119888033 -0.04182746912323581
0.24074824889701588 0.09367250446018736 -0.041301809726713996
0.05980877519425703 0.018353022358561656 -0.041301809726713996
0.24722887831413481 0.16797821486852108 -0.041301809726713996
-0.10702049842186621 0.0378324577096701 -0.041301809726713996
0.15406701441056872 0.047181685547808015 -0.041301809726713996
-0.14341114750107642 0.08011049202992457 -0.041301809726713996
-0.14624970824229422 0.12609817980563298 -0.041301809726713996
0.06396148442677933 0.6533721016167646 -0.04032558513317349
-0.054724897887896 0.2775331425236175 -0.04032558513317349
0.03428425678314777 -0.04885628619672739 -0.04032558513317349
-0.054724897887896 -0.2169921988842049 -0.04032558513317349
0.4419631564656161 0.0896099082670688 -0.03979992573665167
-0.0022715995349692313 0.17496948484226119 -0.03979992573665167
0.20441767517740822 0.1698931169558505 -0.03979992573665167
-0.20919366626580632 0.11941479604985562 -0.03979992573665167
0.17076796438006173 0.1208040387406633 -0.03979992573665167
-0.15608704837720247 0.1214348300164895 -0.03979992573665167
-0.19300335685293446 0.09238088422873378 -0.03979992573665167
-0.03283493873273764 0.3112354192606161 -0.03979992573665167
0.12330092087414189 0.37643220326922167 -0.038823701143111164
0.005763479811864167 0.1700433053548567 -0.038823701143111164
-0.054724897887896 -0.0884159104949691 -0.038823701143111164
0.0243943507085874 -0.46390192685045156 -0.038823701143111164
-0.00473468927867147 0.178243591940597 -0.03829804174658935
0.11695546101612857 0.18398829820258553 -0.03829804174658935
-0.007483136980485526 0.17980555129026182 -0.03829804174658935
-0.20110602097932076 0.12315448718511086 -0.03829804174658935
0.16144126480177473 0.09172005527310641 -0.03829804174658935
-0.02596381947820245 -0.004715915728795708 -0.03829804174658935
-0.18824238460443687 0.09020315244314336 -0.03829804174658935
-0.044834991813335626 0.5247883038075783 -0.037321817153048845
0.054071578352218964 0.22807610273086498 -0.037321817153048845
-0.039187908010701204 -0.12894424996680104 -0.037321817153048845
-0.044834991813335626 -0.3851356209916328 -0.037321817153048845
0.1689056282323845 0.07197028080378673 -0.036796157756527025
-0.0051627262158392495 0.02131173381898448 -0.036796157756527025
0.05958349259574767 0.02425542643950661 -0.036796157756527025
0.06417174818538811 -0.018000079620896923 -0.036796157756527025
-0.18946642005633765 0.05330937222726233 -0.036796157756527025
0.15362395863350026 0.05725932712112622 -0.036796157756527025
-0.013370522221529893 0.021191583099779455 -0.036796157756527025
-0.02514529270361852 -0.1338554106143048 -0.036796157756527025
-0.02703766653109702 0.32606652366248157 -0.035819933162986525
-0.14374156197889013 0.15085673738181055 -0.035819933162986525
0.00461453855946655 -0.05874619227128787 -0.035819933162986525
0.5933455532439483 0.08963243652691973 -0.035294273766464705
0.2390285917283945 0.08954983290746633 -0.035294273766464705
0.02830675850269977 -0.011602053823231382 -0.035294273766464705
0.1480369501904684 -0.00931168073838639 -0.035294273766464705
0.2362050498270773 0.16878923222315464 -0.035294273766464705
0.2547533171043471 0.17318975231403727 -0.035294273766464705
-0.12622208523481307 0.10703176255179174 -0.035294273766464705
-0.04369355998088825 0.001216526031950531 -0.035294273766464705
0.12330092087414189 0.3962120154183426 -0.03431804917292417
-0.13187667845739776 0.14232603631825644 -0.03431804917292417
-0.054724897887896 -0.06863609834584825 -0.03431804917292417
0.12330092087414189 -0.17743257458596332 -0.03431804917292417
0.45630614857071133 0.08850602353437294 -0.03379238977640236
0.15123596308930115 0.043209202394093184 -0.03379238977640236
0.12049990723267572 0.1819457359761007 -0.03379238977640236
0.15574912447943845 0.10690410241263647 -0.03379238977640236
-0.12505061572256454 0.11924958881094884 -0.03379238977640236
0.12130341516735905 0.14536735139813267 -0.03379238977640236
-0.01659957280016384 0.1602284934797994 -0.03379238977640236
-0.019272926302474742 0.33687257897097994 -0.0334169187788868
0.12330092087414189 0.24785591487998593 -0.03281616518286185
-0.013468144680883877 0.3145470734587036 -0.03281616518286185
-0.1650382769579739 0.046378177613124676 -0.03281616518286185
-0.054724897887896 -0.2862290508260783 -0.03281616518286185
0.15852010044110343 0.10893164579922059 -0.03229050578634004
0.08003915254039659 -0.015732234795902866 -0.03229050578634004
-0.046637252601410384 -0.004753462828547232 -0.03229050578634004
0.17618225616423644 -0.010783527048647453 -0.03229050578634004
-0.08602416024079494 0.02774730671640155 -0.03229050578634004
0.2522301520010423 0.0022753542449445116 -0.03229050578634004
-0.034802406759719295 0.3269826728964197 -0.03191503478882445
-0.034802406759719295 0.32847704746653156 -0.03131428119279953
-0.11407184375520889 0.15884676020894206 -0.03131428119279953
0.12330092087414189 -0.02907647404760665 -0.03131428119279953
-0.054724897887896 -0.19721238673508407 -0.03131428119279953
0.15599693533779874 0.122531205329235 -0.030788621796277716
0.11881779716380589 0.1851672771347843 -0.030788621796277716
-0.12115322676835275 0.05635068730713855 -0.030788621796277716
0.028524531681258777 -0.013674653729517473 -0.030788621796277716
0.1407528128386661 0.11976773878752037 -0.030788621796277716
0.48352779589059103 0.08948975754786377 -0.030788621796277716
0.10352110872502104 0.5544655314512099 -0.02981239720273721
0.00461453855946655 0.24666942652783658 -0.02981239720273721
-0.13964141868602 0.050050283968827096 -0.02981239720273721
-0.012619580226498665 -0.14776285636228198 -0.02981239720273721
-0.044834991813335626 -0.45436496351355576 -0.02981239720273721
0.07139581017758792 -0.018060154980499385 -0.029286737806215393
0.10903302296854984 -0.014560765283654208 -0.029286737806215393
0.004787255218323689 0.16094939779502931 -0.029286737806215393
0.1128102612035566 0.0336497107973465 -0.029286737806215393
0.24122885177383585 0.08160486660003657 -0.029286737806215393
0.05838949482364818 0.20596086097719726 -0.028911266808699806
0.12330092087414189 0.3269826728964197 -0.028310513212674887
-0.12396174982976926 0.13905943863987086 -0.028310513212674887
-0.0032628429684104046 0.0016445629691183104 -0.028310513212674887
-0.044834991813335626 -0.3158987690497595 -0.028310513212674887
0.10703551726176691 0.18653399156574116 -0.02778485381615307
-0.012199052709281233 -0.016640874609890537 -0.02778485381615307
0.14431227789511386 0.04426052118713682 -0.02778485381615307
-0.1172107812944391 0.10833089220319567 -0.02778485381615307
-0.10993415336258716 0.12321456254471332 -0.02778485381615307
0.48995585936805774 0.09271129870654747 -0.02778485381615307
0.10352110872502104 0.33687257897097994 -0.02680862922261254
0.038219192837111074 0.23796600880542546 -0.02680862922261254
0.04400895561880135 -0.03684872369617917 -0.02680862922261254
0.09363120265046067 -0.16754266851140284 -0.02680862922261254
0.17226984837012407 0.12044358658304832 -0.026282969826090723
-0.043881295479645976 0.1773950274862118 -0.026282969826090723
-0.01724538291589063 -0.018863662915182725 -0.026282969826090723
0.17241252734918003 0.13031096439775786 -0.026282969826090723
-0.02188620444518329 0.1828769040499393 -0.026282969826090723
0.5636683256003168 0.08822066557626113 -0.026282969826090723
0.11341101479958152 0.4456690552110949 -0.025306745232550217
0.04656215840190733 0.21067677670599308 -0.025306745232550217
0.07385139050133982 -5.932441760745705E-4 -0.025306745232550217
-0.01538304676821331 -0.16754266851140284 -0.025306745232550217
0.14328348736192115 0.04947956805260346 -0.0247810858360284
0.05696270503308888 -0.024368067738761184 -0.0247810858360284
0.01002883034364116 -0.017256647045816045 -0.0247810858360284
-0.10857494835158078 0.12280154444744623 -0.0247810858360284
0.12726589460790647 0.05101899914241733 -0.0247810858360284
0.23911870476779826 0.08938462566855944 -0.0247810858360284
-0.044834991813335626 0.5754318319524799 -0.023804861242487894
0.12330092087414189 0.3170927668218592 -0.023804861242487894
-0.16352137412801096 0.09949981434162916 -0.023804861242487894
0.12330092087414189 -0.14776285636228198 -0.023804861242487894
-0.044834991813335626 -0.46306838123596694 -0.023804861242487894
-0.01605889456374138 -0.014080162406834316 -0.023279201845966078
0.1377640636984421 0.12832096811092528 -0.023279201845966078
-0.14627223650214516 0.08403791866393753 -0.023279201845966078
0.12794174240343453 0.11715446064481191 -0.023279201845966078
0.2567958793308318 0.07500408646371272 -0.023279201845966078
-0.005275367515093928 0.3467624850455404 -0.02290373084845049
0.08374129657590018 0.3566523911201009 -0.022302977252425575
-0.17341128020257143 0.11927962649075001 -0.022302977252425575
-0.04857468294859075 -0.017992570200946578 -0.022302977252425575
0.10352110872502104 -0.3653558088425119 -0.022302977252425575
0.04379118244024234 -0.023159051126761 -0.02177731785590376
0.06869992841542598 -0.02084614978206507 -0.02177731785590376
-0.015570782266971143 0.17888940205632378 -0.02177731785590376
0.12348865637289973 0.13123462305164624 -0.02177731785590376
0.2602577219279255 0.08380512664547793 -0.02177731785590376
0.1205149260725763 0.02381988008238859 -0.02140184685838817
0.11086532143642588 0.020373056325195527 -0.020801093262363252
-0.044834991813335626 -0.4642548695881162 -0.020801093262363252
0.05995145417331299 0.014718463102610865 -0.020801093262363252
-0.02473227460635133 0.3208099296972635 -0.020801093262363252
-0.029290492516190487 0.33536318556096734 -0.020275433865841436
0.029680982353606743 0.19528246580785413 -0.020275433865841436
0.03127297938307284 0.20300214951677445 -0.020275433865841436
-0.043258013623770124 -0.015221594239281586 -0.020275433865841436
-0.026121517297159 0.17535997467967734 -0.020275433865841436
0.5804969357089652 0.08962492710696938 -0.020275433865841436
-0.0336084089876197 -0.16111460503393613 -0.01989996286832585
-0.005275367515093928 0.33687257897097994 -0.019299209272300905
0.08557359504377622 0.16873666628350253 -0.019299209272300905
-0.0076558536393426645 0.0017872419481742723 -0.019299209272300905
0.011793544031964497 -0.03896638012216702 -0.019299209272300905
0.12330092087414189 -0.24666942652783658 -0.019299209272300905
0.12990170101046586 0.11774770482088649 -0.01877354987577909
0.02387620073201588 0.19919487360196642 -0.01877354987577909
-0.04295012740580737 -0.012766013915529695 -0.01877354987577909
0.0935561084509575 0.024818632935780006 -0.01877354987577909
0.10830460923336956 0.12446863567641538 -0.01877354987577909
-0.0064318181874418925 0.3467624850455404 -0.018398078878263526
0.02344065437489775 0.014928726861219634 -0.018398078878263526
0.12330092087414189 0.19840638450718376 -0.017797325282238582
-0.11407184375520889 0.1786265723580629 -0.017797325282238582
-0.03520040601708579 0.19649899183980468 -0.017797325282238582
-0.005275367515093928 -0.17008836187455847 -0.017797325282238582
0.08679012107572676 -0.012052619020250097 -0.017797325282238582
0.6672833020747168 0.07972000219250842 -0.017797325282238582
0.08001662428054565 0.02912903998725887 -0.017271665885716766
0.17271290414719243 0.12463384291532227 -0.017271665885716766
0.01883737994535672 0.20695210441063844 -0.017271665885716766
0.11366633507789205 0.05354967366567227 -0.017271665885716766
0.48696711022783373 0.0887313061328823 -0.017271665885716766
0.019558284260586666 0.2115779071000303 -0.01689619488820118
0.05450712470933699 -0.012232845099057584 -0.01689619488820118
-0.030920036645408103 -0.03229801520629025 -0.01629544129217626
0.08850226882439777 -0.3158987690497595 -0.01629544129217626
0.08169122492946514 -0.0284381733518301 -0.01629544129217626
-0.019272926302474742 0.23796600880542546 -0.01629544129217626
-0.005275367515093928 0.3665422971946612 -0.01629544129217626
-0.2548584489836514 0.0936950327200383 -0.015769781895654443
0.12017700217481227 0.1258503689472727 -0.015769781895654443
-0.02375605001281085 0.1786415911979635 -0.015769781895654443
-0.1508755109316862 0.08899413583114328 -0.015769781895654443
0.11259248802499748 0.04628806457372093 -0.015769781895654443
0.5689324289854854 0.09090152849852237 -0.015769781895654443
0.05450712470933699 0.20829629058174423 -0.015394310898138858
0.02344065437489775 -0.06863609834584825 -0.015394310898138858
0.1192533435209239 0.33687257897097994 -0.014793557302113939
0.050624754595025905 0.29731295467273827 -0.014793557302113939
0.0933383352723985 0.23383582783275397 -0.014793557302113939
0.035095274137781456 -0.0884159104949691 -0.014793557302113939
-0.019272926302474742 -0.10820323206404028 -0.014793557302113939
0.540058709276537 0.08970753072642289 -0.014267897905592122
-0.006687138465752533 -0.021559544677344666 -0.014267897905592122
0.03881243701318575 0.015033858740523966 -0.014267897905592122
0.11570889730437686 0.1291695325653105 -0.014267897905592122
0.0809553017743346 0.14575033181559857 -0.014267897905592122
0.0189500212446114 0.1508191902820589 -0.014267897905592122
-0.0151652735896543 0.29731295467273827 -0.013892426908076535
0.035095274137781456 -0.0884159104949691 -0.013892426908076535
-0.009525699206970332 -0.16414090127391165 -0.013291673312051618
-0.044834991813335626 -0.3257886751243199 -0.013291673312051618
0.07780134539520371 -0.15765276243684245 -0.013291673312051618
0.03428425678314777 0.29731295467273827 -0.013291673312051618
-0.009570755726672204 0.34422430110233515 -0.013291673312051618
0.10352110872502104 0.5148983977330178 -0.013291673312051618
-0.01723787349594039 0.16827108224658313 -0.012766013915529801
-0.019505718320934447 0.0034393143372428237 -0.012766013915529801
-0.12308314769558287 0.12826089275132282 -0.012766013915529801
0.09732583726601392 0.14155256606337438 -0.012766013915529801
0.09625949963306969 0.04206777056164581 -0.012766013915529801
0.12330092087414189 -0.04272859951727319 -0.012390542918014214
-0.034802406759719295 -0.11809313813860077 -0.012390542918014214
0.11663255595826522 0.3170927668218592 -0.012390542918014214
0.03897764425209254 0.38632210934378214 -0.011789789321989269
-0.019272926302474742 -0.18732248066052368 -0.011789789321989269
-0.037325571863023994 0.33687257897097994 -0.011789789321989269
0.12104058546909807 0.22688961437871583 -0.011789789321989269
0.007911173917653305 -0.20710229280964454 -0.011789789321989269
0.5857084731544814 0.08960239884711844 -0.011264129925467452
-0.12190416876338386 0.12609817980563298 -0.011264129925467452
0.042522090468639695 -0.07546216108068156 -0.011264129925467452
-7.772249648572303E-4 0.16136992531224675 -0.011264129925467452
0.011020073777082333 0.2024990183801035 -0.011264129925467452
-0.007167741342572425 0.0032365599985844018 -0.011264129925467452
-0.028224154883246266 3.754709975156671E-4 -0.011264129925467452
0.01567591414627558 -0.17743257458596332 -0.010888658927951891
-0.02703766653109702 0.3665422971946612 -0.010888658927951891
-0.044834991813335626 -0.0884159104949691 -0.010287905331926948
-0.005275367515093928 0.3962120154183426 -0.010287905331926948
-0.016133988763244535 0.366730032693419 -0.010287905331926948
0.11711315883508512 0.029527039244625367 -0.010287905331926948
-0.027435665788463515 -0.2193801944284041 -0.010287905331926948
0.0243943507085874 -0.45436496351355576 -0.010287905331926948
-0.04462472805472686 -0.012060128440200445 -0.009762245935405131
0.026031404257755256 -0.12054120904240231 -0.009762245935405131
0.10614189628767982 0.08447346502105565 -0.009762245935405131
-0.01316776788287147 -0.08779262863909323 -0.009762245935405131
4.3930106709330066E-4 0.1615426419711039 -0.009762245935405131
0.046239253344043885 0.05734193074057972 -0.009762245935405131
-0.05421425733127482 -0.019832378088772962 -0.009386774937889544
0.05450712470933699 0.38632210934378214 -0.009386774937889544
0.10323575076690922 0.14982794684861783 -0.008786021341864627
0.08169122492946514 -0.22688961437871574 -0.008786021341864627
0.042860014366403625 -0.2664492386769574 -0.008786021341864627
-0.14306571418336203 0.11927962649075001 -0.008786021341864627
0.08440963495147791 0.39656495815600723 -0.008786021341864627
0.054071578352218964 0.6533721016167646 -0.008786021341864627
-0.11661002769841418 0.13399808959336088 -0.00826036194534281
-0.11876523122415367 0.13606318007969662 -0.00826036194534281
0.017620853913406297 -0.019186567973046173 -0.00826036194534281
0.005110160276187136 -0.10930711679673615 -0.00826036194534281
0.04659970550165886 -0.016558270990437142 -0.00826036194534281
0.06638702707073005 0.13923215529872812 -0.00826036194534281
0.002639561112534551 0.18262158377162868 -0.00826036194534281
0.05654217751587145 0.2729148492541758 -0.00826036194534281
-0.024619633307096652 -0.17215345236089422 -0.00826036194534281
0.007911173917653305 0.41486541457491655 -0.00788489094782725
1.464336890311358E-4 -0.23595348425874182 -0.00788489094782725
0.11341101479958152 0.15085673738181055 -0.007284137351802278
-0.00761830653959114 0.4753387734347763 -0.007284137351802278
-0.04738068517649126 0.37643220326922167 -0.007284137351802278
-0.04721547793758436 -0.24904991265208531 -0.007284137351802278
-0.019272926302474742 -0.2862290508260783 -0.007284137351802278
0.5662515660632239 0.09108175457732987 -0.006758477955280461
0.11590414222308493 0.12551244504950876 -0.006758477955280461
0.18062783277482092 0.12800557247301217 -0.006758477955280461
0.057931420206679116 -0.14502191808041828 -0.006758477955280461
0.04305525928511181 -0.03633057371960764 -0.006758477955280461
-0.0011677148022734857 0.2113451150815708 -0.006758477955280461
0.09590655689540507 0.052085336775361556 -0.006758477955280461
0.0942995410260384 0.0422479966404533 -0.006758477955280461
0.042860014366403625 0.4377090700637646 -0.0063830069577649005
0.014504444634026921 -0.3060088629751991 -0.0063830069577649005
0.12330092087414189 0.0896099082670688 -0.005782253361739983
0.0933383352723985 -0.2751451469794182 -0.005782253361739983
-0.054724897887896 -0.22569561660661613 -0.005782253361739983
-0.037490779101930785 0.4381596352607833 -0.005782253361739983
0.031205394603520027 0.5050084916584575 -0.005782253361739983
0.5472001676492835 0.09162243281375232 -0.005256593965218166
0.11359875029833924 0.12567765228841557 -0.005256593965218166
0.18070292697432408 0.1278929311737575 -0.005256593965218166
0.06010915199226954 -0.06898153166356262 -0.005256593965218166
0.07314550502601046 -0.03257586374445183 -0.005256593965218166
0.06360854168911471 0.16049883259801062 -0.005256593965218166
-0.0018135249180002751 0.35864989682688375 -0.005256593965218166
5.6320649627392755E-5 0.40282781439456716 -0.005256593965218166
-0.030529546807991952 -0.1292371173448632 -0.005256593965218166
0.09722070538670959 0.4525101367858288 -0.0048811229677025525
0.6672833020747168 0.07972000219250842 -0.004280369371677634
0.054071578352218964 0.6533721016167646 -0.004280369371677634
0.019558284260586666 0.5445756253766496 -0.004280369371677634
-0.05208909148533662 -0.10820323206404028 -0.004280369371677634
0.0960116887747094 -0.34556848727344075 -0.004280369371677634
0.5729875157586536 0.08814557137675808 -0.0037547099751558174
-0.09177637592273359 0.15851634573112838 -0.0037547099751558174
0.17266784762749057 0.12592546314677586 -0.0037547099751558174
0.00643932760739224 0.44237241985290815 -0.0037547099751558174
0.051345658910255845 0.16468157951033421 -0.0037547099751558174
-0.023463182634748687 0.37499039463876177 -0.0037547099751558174
0.10003673786807644 0.3760266945919048 -0.0037547099751558174
0.03788126893934704 0.027116515440575344 -0.0037547099751558174
0.10443725795895906 -0.19272926302474805 -0.0037547099751558174
0.007911173917653305 0.5050084916584575 -0.003379238977640257
0.02344065437489775 -0.3653558088425119 -0.003379238977640257
0.12330092087414189 0.059940190043387576 -0.002778485381615339
-0.0037359364252800556 -0.3950255270661932 -0.002778485381615339
-0.052231770464392584 -0.14776285636228198 -0.002778485381615339
0.03897764425209254 0.5346857193020891 -0.002778485381615339
0.05838949482364818 0.5346857193020891 -0.002778485381615339
0.07695278094081849 0.1280881760924656 -0.0022528259850935223
0.10865755197103417 0.11862630695507298 -0.0022528259850935223
-0.08859989128375176 0.1651471635472535 -0.0022528259850935223
0.0970404793079021 0.04562723561809355 -0.0022528259850935223
0.05544580220312594 0.15784800735555066 -0.0022528259850935223
-0.033172862630501676 0.2992278567600677 -0.0022528259850935223
0.0976712705837283 0.4093610097513383 -0.0022528259850935223
0.011583280273355727 0.0339651064352596 -0.0022528259850935223
-0.014053879437008206 -0.14114705738605743 -0.0022528259850935223
0.057225534731349864 -0.0095294539169454 -0.0022528259850935223
0.10178643271649909 0.5086881074341101 -0.0018773549875779087
0.02344065437489775 -0.37524571491707237 -0.0018773549875779087
0.07385139050133982 0.58651573579914 -0.0012766013915529908
-0.011500676653902225 0.5940251557494516 -0.0012766013915529908
0.09035709555212475 0.15858393051068118 -0.0012766013915529908
-0.019272926302474742 -0.41480533921531404 -0.0012766013915529908
0.08374129657590018 -0.4642548695881162 -0.0012766013915529908
0.1697692115266703 0.11864132579497358 -7.509419950311742E-4
0.08912555068027363 -0.10376516487340616 -7.509419950311742E-4
0.09404422074772775 0.1316926976686152 -7.509419950311742E-4
0.011523204913753268 0.5017343845601216 -7.509419950311742E-4
-0.001002507563366588 0.04835315506005667 -7.509419950311742E-4
-0.06562857565574848 0.0043479541512304945 -7.509419950311742E-4
-0.02115028129005265 -0.23792846170567383 -7.509419950311742E-4
0.06708540312610906 0.44489558495621295 -7.509419950311742E-4
0.03588376323256421 0.10163999902746806 -7.509419950311742E-4
0.019227869782772977 -0.2776758215026732 -7.509419950311742E-4
-0.0663795176507797 0.1649444092085951 -7.509419950311742E-4
0.07123060293868103 0.6830418198404458 -3.7547099751561377E-4
-0.042567146988341464 0.4440320016619271 -3.7547099751561377E-4
0.10110307550102067 -0.3339514146103087 -3.7547099751561377E-4
-0.037325571863023994 0.5940251557494516 2.252825985093576E-4
0.01567591414627558 0.603915061824012 2.252825985093576E-4
0.09719817712685865 0.020373056325195527 2.252825985093576E-4
-0.0076558536393426645 -0.45674544963780456 2.252825985093576E-4
0.07003660516658154 -0.4345851513644349 2.252825985093576E-4
0.5752478511636974 0.09088650965862179 7.509419950311742E-4
0.09655236701113186 0.4724851938536577 7.509419950311742E-4
0.17381678887988827 0.04880372025707539 7.509419950311742E-4
-0.044467030235770304 0.41053247926358677 7.509419950311742E-4
0.013918709877902592 0.04247327923896265 7.509419950311742E-4
-0.017117722776735362 0.500780688226432 7.509419950311742E-4
-0.037813684159794234 -0.15404824086069285 7.509419950311742E-4
0.03963847320772003 0.04172233724393153 7.509419950311742E-4
0.013978785237505158 0.15293684670804686 7.509419950311742E-4
-0.044489558495621244 0.04703149714880181 7.509419950311742E-4
-0.031077734464364654 0.38300294572574434 7.509419950311742E-4
0.012454372987591875 -0.34625184448891916 7.509419950311742E-4
0.031205394603520027 -0.5038220033063081 0.0011264129925467345
1.464336890311358E-4 0.6731519137658853 0.0011264129925467345
0.10352110872502104 0.5742453436003309 0.0011264129925467345
0.05838949482364818 0.6434821955422041 0.0017271665885716526
0.09022943541296947 0.02110897948032606 0.0017271665885716526
-0.09429203160608804 -0.0092966618984858 0.0017271665885716526
-0.044834991813335626 -0.42469524528987446 0.0017271665885716526
0.0977688930430824 -0.3921344003853232 0.0017271665885716526
0.05059471691522462 0.04296890095568324 0.002252825985093469
-0.044234238217310706 -0.2533002443439617 0.002252825985093469
-0.06679253574804679 0.019494454191009033 0.002252825985093469
0.020211603796263803 0.5192313330443479 0.002252825985093469
-0.04096764053892513 0.06847089110694156 0.002252825985093469
-0.033060221331246996 -0.28205381333370494 0.002252825985093469
0.07644214038419732 0.29552571272456407 0.002252825985093469
0.048469551069286416 0.04419293640758401 0.002252825985093469
0.020046396557356905 -0.33859223613960127 0.002252825985093469
0.022547033400810667 0.13753502638995768 0.002252825985093469
-0.023665936973407107 0.5050084916584575 0.002252825985093469
0.17477048521357783 0.04970485065111282 0.002252825985093469
0.10648732960539421 0.06325935366142527 0.002252825985093469
-0.02703766653109702 -0.4226001171237376 0.002628296982609083
