0.6549629661450836 0.0558062337126617 -0.21882597172670487
0.54372081959499 0.08808025908117458 -0.21882597172670487
0.21301305617006727 -0.04826515407161836 -0.21882597172670487
0.3612872902431416 -0.2753840690345302 -0.21882597172670487
0.34210915764411925 -0.3135832284067201 -0.21882597172670487
0.49027117327015424 -0.3395056896728067 -0.21882597172670487
0.39053141754159265 -0.2745424306817352 -0.21882597172670487
0.4383476978250536 0.14130546851193151 -0.2182648794915082
0.5137809379248952 -0.1778550167126434 -0.2182648794915082
0.6108386727692167 -0.14898121028942238 -0.21736713191519347
0.4383476978250536 -0.16352472102572022 -0.21736713191519347
0.19343093716170312 -0.07881101535572567 -0.21736713191519347
0.36291445772521214 0.17320917300521488 -0.21736713191519347
0.5660074031770019 0.11349773733558415 -0.21736713191519347
0.6012552173920576 0.14109225346255702 -0.21736713191519347
0.5613278939354616 0.2803216807042608 -0.21658160278591812
0.40503004089907485 0.21517887219792625 -0.21658160278591812
0.5023795437056987 0.3003526735007822 -0.21658160278591812
0.6679129749334229 0.03590990305258734 -0.21658160278591812
0.6358521646142847 0.06576000996505078 -0.21658160278591812
0.6064621533346827 -0.12361984125853241 -0.21658160278591812
0.2023074163225147 0.019267907356653947 -0.21658160278591812
0.6734116788383502 -0.06350441917956022 -0.21658160278591812
0.17475778757435761 -0.05781494391466583 -0.21658160278591812
0.410079871015845 -0.19919896533952508 -0.21658160278591812
0.44833513961155447 -0.20725624983694943 -0.21658160278591812
0.41449005598449074 -0.35453173973137375 -0.21658160278591812
0.3656525878329719 -0.2930921399773374 -0.21658160278591812
0.3412338537572124 -0.22982337953655982 -0.21602051055072147
0.49057416307716045 0.11349773733558415 -0.21602051055072147
0.33767652898606537 -0.1820968740107303 -0.21512276297440677
0.5253843253487624 -0.15253853506056925 -0.21512276297440677
0.6811771953734723 0.1282881286553686 -0.21512276297440677
0.5253843253487624 0.11394661112374156 -0.21512276297440677
0.3338947673208399 0.1874048065556907 -0.21512276297440677
0.3462949057186864 0.21696314550585194 -0.21512276297440677
0.5283917797294166 0.30775909100537835 -0.21433723384513143
0.46079138723292073 0.1560846379870121 -0.21433723384513143
0.41528680695847014 0.29611081620269547 -0.21433723384513143
0.1662852948228878 -0.04779383659405313 -0.21433723384513143
0.197852343975053 -0.06646698618139864 -0.21433723384513143
0.21212653043845658 -0.11510246112824682 -0.21433723384513143
0.6462323709654231 0.04352953560655826 -0.21433723384513143
0.7000298944760809 -0.02853715108210317 -0.21433723384513143
0.5085066709140463 -0.35316267467749385 -0.21433723384513143
0.3640366421956054 -0.2542757791464311 -0.21433723384513143
0.5765447153539958 -0.22195686639910245 -0.21433723384513143
0.548591100196497 -0.15098992049142634 -0.21377614160993472
0.15401981856148836 -0.023924972908786455 -0.21377614160993472
0.4731578600966556 0.1201522912450168 -0.21377614160993472
0.33755308869432216 -0.2264343824359718 -0.21287839403362005
0.4209426166892526 -0.14559221318883434 -0.21287839403362005
0.14063215782969563 0.039601889960181574 -0.21287839403362005
0.43793248957100817 0.10934565479512882 -0.21287839403362005
0.5895059459870391 0.16497233899252753 -0.2120928649043447
0.3712859538743465 0.24877707524150341 -0.2120928649043447
0.4044465049744702 0.16591497394765797 -0.2120928649043447
0.21057791586931368 0.03433884479403679 -0.2120928649043447
0.16701471472864346 0.0029962325359502206 -0.2120928649043447
0.18685493616519805 -0.07405295320125775 -0.2120928649043447
0.1446159126995921 -0.05250701136970526 -0.2120928649043447
0.5344627977142447 0.09365751589902957 -0.2120928649043447
0.5185726656134748 -0.34205304842059964 -0.2120928649043447
0.4471119585388258 -0.18480133858437828 -0.2120928649043447
0.41729551716047414 -0.3041119914766002 -0.2120928649043447
0.5309054729430979 -0.2193085110489741 -0.2120928649043447
0.38336065877577913 -0.1507767054420517 -0.21153177266914802
0.40933922926538535 0.10922221450338546 -0.21153177266914802
0.3264546842821318 -0.23023858779060544 -0.21063402509283335
0.13807357723719882 -0.06386351821008605 -0.21063402509283335
0.35131107030134473 0.13478557673894623 -0.21063402509283335
0.3638346489909346 0.22727602078876669 -0.209848495963558
0.5636171502550641 0.16809201182022096 -0.209848495963558
0.4042445117697994 0.22684959069001742 -0.209848495963558
0.553001285165143 0.2653292961798057 -0.209848495963558
0.7067854449878489 0.008057284497424193 -0.209848495963558
0.7174686411459936 4.039864093416243E-4 -0.209848495963558
0.7024762566215382 -0.05835359246045466 -0.209848495963558
0.6867768958807352 0.016372671423038974 -0.209848495963558
0.3912271719132365 -0.31242737840221496 -0.209848495963558
0.3716450529048723 -0.275586062239201 -0.209848495963558
0.5841867915973744 -0.20581985371484593 -0.209848495963558
0.35131107030134473 0.13478557673894623 -0.2092874037283613
0.3264546842821318 -0.21521253773203822 -0.20838965615204663
0.1363341913080891 0.02145616707392092 -0.20838965615204663
0.8437592814440621 0.012893899564819697 -0.20838965615204663
0.7107355343236336 -0.1377593655854888 -0.20838965615204663
0.5551446575035943 0.2658006136573709 -0.20760412702277128
0.4958372082433054 -0.15838511615131864 -0.20760412702277128
0.5681171099813416 0.11671840676561315 -0.20760412702277128
0.166240407444072 -0.06170892402693088 -0.20760412702277128
0.6701349001848019 -0.09319742026616848 -0.20760412702277128
0.1994121803888997 0.05577256817854989 -0.20760412702277128
0.5313655685759591 -0.13530178159532724 -0.20760412702277128
0.4813498067305272 -0.1737814870851155 -0.20760412702277128
0.4136259739422879 -0.16410825695032483 -0.20760412702277128
0.39055386123100044 -0.2600325854795491 -0.20760412702277128
0.5169118325972927 -0.1848686696526019 -0.20760412702277128
0.4607352780094011 0.09323108580028013 -0.20760412702277128
0.5051176738134584 -0.13020706409974145 -0.20760412702277128
0.40491782245203545 0.1536382758415547 -0.20760412702277128
0.57886763720771 0.1388591063664741 -0.20760412702277128
0.5059144247874378 0.13983540685571622 -0.20760412702277128
0.6124209528724714 0.09938065669803575 -0.2070430347875746
0.6078761057673784 -0.1406882670532154 -0.20614528721125988
0.1905693667622001 -0.0934218571602471 -0.20614528721125988
0.3397076828774775 0.10389183826901706 -0.20614528721125988
0.5709562366914367 -0.14427925735847408 -0.20535975808198453
0.16441124675733088 0.02425040640520049 -0.20535975808198453
0.6849701788834018 -0.07670130855138613 -0.20535975808198453
0.149037319512942 -0.010840301983999934 -0.20535975808198453
0.6762844710825572 -0.09041440277959291 -0.20535975808198453
0.3957495753289218 0.08389451100660746 -0.20535975808198453
0.5547967803177724 0.09521735231287645 -0.20535975808198453
0.4870729475295332 0.1319464500288512 -0.20535975808198453
0.4271931841893436 0.2204082518299594 -0.20535975808198453
0.5032324039031976 0.260728339851193 -0.20535975808198453
0.4742576008776411 -0.1694498550293972 -0.20535975808198453
0.3520741557412122 -0.21733346638108175 -0.20535975808198453
0.5913463285184841 -0.18930129831065562 -0.20535975808198453
0.5736158138862691 -0.252087519429164 -0.20535975808198453
0.6779004167199237 -0.06329120413018541 -0.20535975808198453
0.7698634340686596 0.05438105943526202 -0.20390091827047319
0.29908460504923784 -0.1820968740107303 -0.20390091827047319
0.2525588369067292 0.1282881286553686 -0.20390091827047319
0.3981286064061556 -0.26756244327588846 -0.20311538914119784
0.1678563530814385 0.03332887877068273 -0.20311538914119784
0.730104438282623 -0.017966173370997655 -0.20311538914119784
0.16012450208042836 -0.07235845465096383 -0.20311538914119784
0.4203254152305363 0.2619066335451059 -0.20311538914119784
0.151730562241886 -0.07095572406297213 -0.20311538914119784
0.37422607718677714 -0.20110667893919382 -0.20311538914119784
0.3847521675190668 -0.23012636934356603 -0.20311538914119784
0.5941517896944675 0.14389771463854042 -0.20311538914119784
0.560115934707437 0.21736713191519355 -0.20311538914119784
0.5061051961474046 0.125673438839352 -0.20311538914119784
0.6716610710645369 -0.07931599836740254 -0.20311538914119784
0.37035454076392005 0.0876089416036095 -0.20311538914119784
0.529536407889218 0.09488069697175842 -0.20311538914119784
0.5591284123734906 0.12142035969656129 -0.20311538914119784
0.31181017694349855 -0.14122691559900424 -0.20255429690600113
0.134314259261381 -0.07864268768516666 -0.20165654932968646
0.8437592814440621 -0.05192347544510079 -0.20165654932968646
0.5428118501739713 0.13175567866888405 -0.20087102020041112
0.7150447226899439 -0.04075773996468683 -0.20087102020041112
0.160853921986184 -0.06712907501893069 -0.20087102020041112
0.5729986124275528 0.23149543439744577 -0.20087102020041112
0.32506317553884406 -0.19012049297404285 -0.20087102020041112
0.19612417989064726 0.04155449093866593 -0.20087102020041112
0.1932626094911441 0.02880647535499743 -0.20087102020041112
0.5951841994072296 -0.17975150846760815 -0.20087102020041112
0.5348443404341785 -0.16034893897450697 -0.20087102020041112
0.555862855564646 -0.1449301243513023 -0.20087102020041112
0.5983824251478506 -0.1649835608372315 -0.20087102020041112
0.4343078337316375 0.10374595428786587 -0.20087102020041112
0.6326763825630713 0.07112405173353098 -0.20087102020041112
0.3467998887303634 0.14553610396531458 -0.20087102020041112
0.5015715708870154 0.20039970272284596 -0.20087102020041112
0.3448585095965829 -0.074860926019941 -0.20087102020041112
0.3737659815539159 -0.20432734836922267 -0.20087102020041112
0.29908460504923784 0.10328585865500463 -0.20030992796521443
0.13661473742568753 0.039601889960181574 -0.19941218038889977
0.7255147037987139 -0.1349090170306896 -0.19941218038889977
0.37434951747852035 0.12098270775310803 -0.19862665125962442
0.527314482637839 0.13336040246154654 -0.19862665125962442
0.17240120018653163 0.019918774349482013 -0.19862665125962442
0.6917706167739859 0.033586981198873156 -0.19862665125962442
0.16704838026275526 -0.07713896049483955 -0.19862665125962442
0.4254986856390497 0.23613005626017047 -0.19862665125962442
0.1979757842667962 -0.11263365529338144 -0.19862665125962442
0.3352862760641276 0.10624842565684305 -0.19862665125962442
0.21826487949150822 -0.11310497277094667 -0.19862665125962442
0.575635745932977 0.10881822809404398 -0.19862665125962442
0.3938530835739569 -0.238060213549247 -0.19862665125962442
0.37909635778828427 -0.21047691926697829 -0.19862665125962442
0.5003147242801749 -0.27022202047072064 -0.19862665125962442
0.4073080753739734 0.03610067441255432 -0.19862665125962442
0.3971298622275055 0.10330830234441243 -0.19862665125962442
0.41876557881668947 0.1850369973231609 -0.19862665125962442
0.13661473742568753 0.024822720485100962 -0.1980655590244277
0.15688138896099155 0.0112779539274532 -0.19716781144811305
0.8585384509191427 -0.034293957415221 -0.19716781144811305
0.3568097742062723 0.10528334701230477 -0.1963822823188377
0.3682448339595805 -0.1751505521389954 -0.1963822823188377
0.16924786182472623 -0.06397573665712544 -0.1963822823188377
0.3393485838469515 0.15884521178417987 -0.1963822823188377
0.42632910214714076 -0.26695646366187603 -0.1963822823188377
0.15311084914046988 0.03869292053916292 -0.1963822823188377
0.42396129291461077 -0.27068211610358206 -0.1963822823188377
0.15065326515030833 0.03741363024291444 -0.1963822823188377
0.34815773193953947 0.14925053456231646 -0.1963822823188377
0.33175139498238854 -0.17691238175751295 -0.1963822823188377
0.5724375201923559 -0.23380713440645629 -0.1963822823188377
0.6601362365535969 0.05738851381591623 -0.1963822823188377
0.31886871726227284 -0.07259411338974645 -0.1963822823188377
0.34991956155805704 0.08716006781545209 -0.1963822823188377
0.7107355343236336 0.0987185678605037 -0.1949234425073263
0.1608875875202958 0.051530710880463 -0.1949234425073263
0.37748041215091793 -0.16137012684256502 -0.19413791337805095
0.37321611116342307 0.12149891260948888 -0.19413791337805095
0.37735697185917455 0.17359071572514853 -0.19413791337805095
0.5959136193129851 -0.134493808776644 -0.19413791337805095
0.1589013210076995 -0.007585967019859124 -0.19413791337805095
0.656399362267187 0.07243700756389126 -0.19413791337805095
0.16159456373664366 -0.025080822913291553 -0.19413791337805095
0.71703098920254 0.024340181162831907 -0.19413791337805095
0.3325818114904796 0.10793170236243314 -0.19413791337805095
0.5594762895593126 0.20771634546981052 -0.19413791337805095
0.35316267467749385 -0.1303641699255965 -0.19413791337805095
0.4655382275426847 -0.24848530727920135 -0.19413791337805095
0.5864760479169769 -0.15406470594030416 -0.19413791337805095
0.37935446021647484 -0.07508536291401963 -0.19413791337805095
0.17865176768662266 0.11349773733558415 -0.1926790735665396
0.6663980258983917 -0.16446735598085066 -0.1926790735665396
0.4142992846245239 -0.06844203084929097 -0.19189354443726425
0.35441952128433435 -0.16672294676634122 -0.19189354443726425
0.524127478741922 0.14360594667623802 -0.19189354443726425
0.1708076982385731 -0.06499692452518332 -0.19189354443726425
0.3037304487566664 0.09724850620428839 -0.19189354443726425
0.6771261094353525 -0.09745049940895921 -0.19189354443726425
0.4058716792518699 -0.23556896402497382 -0.19189354443726425
0.1645795744278899 0.004331632055718315 -0.19189354443726425
0.3257701517551919 -0.13828679228657362 -0.19189354443726425
0.5611034570413831 -0.23823976306451 -0.19189354443726425
0.3025633769074573 0.0872161770389717 -0.19189354443726425
0.4812375882834878 0.15765569624556297 -0.19189354443726425
0.5822678561530018 -0.14221443793295033 -0.19189354443726425
0.14241643113762112 0.015284152486757482 -0.19133245220206757
0.3048975206058755 -0.16731770453564984 -0.1904347046257529
0.315109399286455 -0.06191091723160169 -0.18964917549647753
0.3699954417333942 -0.1450198991089337 -0.18964917549647753
0.544237024451371 0.14517700493478858 -0.18964917549647753
0.1735794938804447 -0.05853314197571766 -0.18964917549647753
0.22271995183896975 0.08781093480828016 -0.18964917549647753
0.6203884626122641 0.09507146833172525 -0.18964917549647753
0.6062264945959 0.111500248978284 -0.18964917549647753
0.37497794078194074 0.09534079260461967 -0.18964917549647753
0.20167899301909428 0.039680442873109165 -0.18964917549647753
0.527999015164779 0.18630506577470538 -0.18964917549647753
0.5888214134600991 -0.1364239660657207 -0.18964917549647753
0.5138819345272306 -0.22725357709935903 -0.18964917549647753
0.32913670516637195 -0.13664840295979933 -0.18964917549647753
0.18381381625043203 -0.09067250520778333 -0.18819033568496618
0.3596601227610713 -0.15717315692329376 -0.18819033568496618
0.3241654279625294 0.03653832635600775 -0.18740480655569083
0.37048920290036724 0.10401527856076029 -0.18740480655569083
0.542194648715255 0.12103881697662765 -0.18740480655569083
0.3809591840091372 0.12735671554494213 -0.18740480655569083
0.1661842982205524 0.010166991301763732 -0.18740480655569083
0.31431264831247574 0.11962486454393195 -0.18740480655569083
0.6846447453869878 -0.10122103922948103 -0.18740480655569083
0.3190258230881279 0.11323963490739372 -0.18740480655569083
0.3069623400313992 -0.1306222723537869 -0.18740480655569083
0.48624253102144216 -0.2164244969600631 -0.18740480655569083
0.6618419569485949 -0.1020738994269799 -0.18740480655569083
0.5213220175659385 0.14550243843120292 -0.18740480655569083
0.14883532630827118 -0.0677911638564629 -0.18740480655569083
0.13803991170308702 -6.733106822360405E-4 -0.18594596674417949
0.8142009424939012 -0.04907312689030161 -0.18594596674417949
0.3398199013245167 -0.06615277452968858 -0.1851604376149041
0.52951396419981 0.11894033201699193 -0.1851604376149041
0.17394981475567453 -0.058297483236935045 -0.1851604376149041
0.36303789801695535 0.1405423830720642 -0.1851604376149041
0.34767519261727026 -0.1717278895042956 -0.1851604376149041
0.14684905979567486 -0.023375102518293635 -0.1851604376149041
0.3010147623383144 0.10541800914875198 -0.1851604376149041
0.45546101099855235 -0.20553930759724753 -0.1851604376149041
0.49824990485465115 0.1649386734584159 -0.1851604376149041
0.5788003061394864 0.14311218550926483 -0.1851604376149041
0.6983017303916751 -0.07596066680092649 -0.1851604376149041
0.2966494647484843 0.08964009549502146 -0.1851604376149041
0.2973452191201281 -0.15253853506056925 -0.18370159780339274
0.134314259261381 0.05001576184543191 -0.18370159780339274
0.7255147037987139 0.0987185678605037 -0.18370159780339274
0.3645752907413942 0.12725571894260687 -0.18291606867411736
0.6853292779139278 0.0556266841973987 -0.18291606867411736
0.3493809130122682 -0.15002484184688808 -0.18291606867411736
0.19552942212133884 0.07538835272102569 -0.18291606867411736
0.14700616562152988 0.0015149490350309317 -0.18291606867411736
0.6115905363643803 0.10864990042348498 -0.18291606867411736
0.5240713695184022 0.1130488635474269 -0.18291606867411736
0.2018473206896533 0.05486359875753124 -0.18291606867411736
0.49112403346765326 0.15418814623204755 -0.18291606867411736
0.4610158241269994 -0.15598364138467688 -0.18291606867411736
0.7005348774877577 0.03613433994666612 -0.18291606867411736
0.15580409186941388 -0.06385229636538206 -0.18235497643892074
0.1393192019993355 0.039601889960181574 -0.181457228862606
0.6959563648485529 -0.17016805309044886 -0.181457228862606
0.4102369768417 0.02885136273381322 -0.18067169973333067
0.7033964478872611 -0.07950676972736953 -0.18067169973333067
0.19960295174886672 -0.1165500790950543 -0.18067169973333067
0.3702086567827688 0.11846901453942686 -0.18067169973333067
0.3242664245648648 0.10851523828703777 -0.18067169973333067
0.19041226093634508 -0.11323963490739387 -0.18067169973333067
0.5974061246586081 0.10927832372690523 -0.18067169973333067
0.48056427760125175 0.13440403401901257 -0.18067169973333067
0.604689101871461 -0.13759103791492977 -0.18067169973333067
0.6865524589866567 0.04452827978520834 -0.18067169973333067
0.5957116261083143 -0.14515456124538093 -0.18067169973333067
0.31168673665175534 0.026752877774177664 -0.18067169973333067
0.18816789199555833 0.034394954017556406 -0.18067169973333067
0.16387259821154204 -0.0934218571602471 -0.17921285992181932
0.6959563648485529 0.1430672981304492 -0.17921285992181932
0.14778047290610133 -0.03726774626176341 -0.17842733079254394
0.16264941713881334 -0.018190610265076443 -0.17842733079254394
0.19007560559522704 0.044281399201721895 -0.17842733079254394
0.745781355334018 0.007933844205680971 -0.17842733079254394
0.17452212883557516 -0.07217890513570083 -0.17842733079254394
0.20429368283511085 -0.07271755368148966 -0.17842733079254394
0.5193581947427502 -0.17352338465692507 -0.17842733079254394
0.33051699206495583 0.04051085938120023 -0.17842733079254394
0.5849947644160576 0.088517911024628 -0.17842733079254394
0.6057776208077427 0.09461137269886401 -0.17842733079254394
0.14117080637548446 0.0455719113426742 -0.17696849098103257
0.347035547469146 -0.1692590836694302 -0.17696849098103257
0.315446054627573 0.02720175156233492 -0.17618296185175725
0.16288507587759596 -0.045560689497970375 -0.17618296185175725
0.15843000353013426 0.013410104421200554 -0.17618296185175725
0.34467896008132004 0.10673096497911226 -0.17618296185175725
0.7009388638970994 -0.09803403533356383 -0.17618296185175725
0.2190840741548953 0.025989792334310206 -0.17618296185175725
0.2549154242945552 -0.12722205340849507 -0.17618296185175725
0.5361797399539466 0.1225313223222506 -0.17618296185175725
0.5531583909909982 -0.16296362879052356 -0.17618296185175725
0.6668132341524373 0.06412162063827648 -0.17618296185175725
0.4615544726727882 0.16010205839102037 -0.17472412204024587
0.16387259821154204 -0.0934218571602471 -0.17472412204024587
0.5718090968889359 -0.19301572890765767 -0.17472412204024587
0.4030998836099983 -0.07495070077757242 -0.17393859291097052
0.6355379529625744 -0.13187911896062757 -0.17393859291097052
0.16705960210745927 -0.07107916435471535 -0.17393859291097052
0.18599085412299518 0.04199214288211936 -0.17393859291097052
0.7305533120707802 -0.07089961483945235 -0.17393859291097052
0.1632441749081218 -0.02790872777868292 -0.17393859291097052
0.21452800520509835 -0.09901033582280609 -0.17393859291097052
0.3455430421235229 -0.07838458525697607 -0.17393859291097052
0.7490244684534547 -0.014958718990343449 -0.17393859291097052
0.20042214641225378 0.07821625758641707 -0.17393859291097052
0.4141870661774847 0.11133192130772498 -0.17393859291097052
0.4194276676542216 -0.015228043263237864 -0.17393859291097052
0.5776107906008695 0.1502043913621509 -0.17247975309945915
0.37298045242464045 0.14178800783420073 -0.17247975309945915
0.35131107030134473 -0.15978784673931035 -0.17247975309945915
0.5369877127726299 -0.1968760434858109 -0.17247975309945915
0.7994217730188206 0.06916022891034264 -0.17247975309945915
0.21146444160092437 0.04609933804375905 -0.1716942239701838
0.22323615669535077 0.03704330936768478 -0.1716942239701838
0.21969005376890774 -0.0717524750369514 -0.1716942239701838
0.19551820027663483 -0.08356907751019342 -0.1716942239701838
0.16668928123222942 0.008371496149134398 -0.1716942239701838
0.5047810184723405 0.1255612203923128 -0.1716942239701838
0.6110406659738875 -0.15281908117816764 -0.1716942239701838
0.15375049428859394 4.6009563286124116E-4 -0.1716942239701838
0.17160444921255236 0.034192960812885594 -0.1716942239701838
0.38746785393741884 -0.14418948260084266 -0.1716942239701838
0.20886097362961178 0.040275200642417616 -0.1716942239701838
0.21003926732352485 -0.08994308530202767 -0.1716942239701838
0.23522108683915183 0.08948298966916628 -0.1716942239701838
0.5369877127726299 0.1430672981304492 -0.17023538415867243
0.467356166384722 0.1390835432605529 -0.17023538415867243
0.143291735024528 0.03505704285508846 -0.17023538415867243
0.3541614188561439 -0.16731770453564984 -0.17023538415867243
0.5369877127726299 -0.18211931770013812 -0.17023538415867243
0.8289801119689815 0.027673069039900147 -0.17023538415867243
0.5697891648422277 0.06441338860057871 -0.16944985502939708
0.2274331266146219 0.03091618215933697 -0.16944985502939708
0.7585293709176866 -0.02281401028309699 -0.16944985502939708
0.6349880825720818 -0.13990273792393995 -0.16944985502939708
0.16319928752930618 -0.062449565777390366 -0.16944985502939708
0.1546594637096126 0.03800838801222305 -0.16944985502939708
0.590695461525656 0.06773505463294312 -0.16944985502939708
0.5882715430696063 -0.11209500674759261 -0.16944985502939708
0.46802947706695786 0.05095839680056236 -0.16944985502939708
0.43046996284289224 -0.09429716104715397 -0.16944985502939708
0.2178496712374626 0.10898655576460284 -0.16888876279420043
0.6959563648485529 -0.17016805309044886 -0.16799101521788573
0.3855713621824539 -0.17822533758787323 -0.16799101521788573
0.13998129083686756 -0.0021658160278591574 -0.16799101521788573
0.3952221486278368 0.13875810976413885 -0.16799101521788573
0.5836481430515855 -0.08749672315657027 -0.16720548608861038
0.19564164056837804 0.04832126329513798 -0.16720548608861038
0.2808715510947536 -0.13825312675246182 -0.16720548608861038
0.1736356031039643 0.007541079641043335 -0.16720548608861038
0.538805651614667 -0.1652079977313103 -0.16720548608861038
0.16989872881755444 -0.04910679242441341 -0.16720548608861038
0.5060715306132927 -0.16990995066225845 -0.16720548608861038
0.14838645252011376 0.013073449080082535 -0.16720548608861038
0.7281630591488424 0.023464877275925056 -0.16720548608861038
0.3266678993315066 -0.06590589394620198 -0.16720548608861038
0.3154684983169808 -0.06574878812034696 -0.16720548608861038
0.3222913798969725 -0.15896865207592326 -0.16664439385341367
0.31648968618503887 0.1282881286553686 -0.16664439385341367
0.7550730427488751 -0.1406097141402878 -0.165746646277099
0.5021775505010279 0.0862062110156178 -0.165746646277099
0.49637585678909424 -0.07637587505497194 -0.165746646277099
0.13953241704871014 -0.07864268768516666 -0.165746646277099
0.4055238020660479 -0.06526624879807774 -0.16496111714782366
0.31992357066444255 0.03590990305258734 -0.16496111714782366
0.5865994882087201 0.053068103604901905 -0.16496111714782366
0.5777117872032047 -0.09003286005965926 -0.16496111714782366
0.4997985194237939 0.11263365529338128 -0.16496111714782366
0.6185929674596348 -0.14448125056314487 -0.16496111714782366
0.18893097743542578 -0.1262569747639568 -0.16496111714782366
0.17026904969278428 -0.0022780344748985506 -0.16496111714782366
0.3149635153053038 0.11408127326018877 -0.16496111714782366
0.22027358969351235 0.01988510881537021 -0.16496111714782366
0.5956891824189063 0.07284099397323289 -0.16496111714782366
0.14014961850742658 -0.034293957415221 -0.16350227733631228
0.5427894064845634 0.039601889960181574 -0.16350227733631228
0.4017532622455262 -0.08665508480377522 -0.16350227733631228
0.8361059833559795 0.010043551010020512 -0.16350227733631228
0.4997872975790901 0.11372217422966294 -0.16271674820703694
0.765206368516527 -0.02162449474448009 -0.16271674820703694
0.34466773823661606 0.11019851499262771 -0.16271674820703694
0.23326848586066745 -0.04437117395935347 -0.16271674820703694
0.17126779387143434 -0.06119271917054986 -0.16271674820703694
0.14941886223287562 0.038401152576860685 -0.16271674820703694
0.6003462479710387 0.06544579831334059 -0.16271674820703694
0.6003799135051506 -0.14820690300485093 -0.16271674820703694
0.32886738089347756 -0.06615277452968858 -0.16271674820703694
0.43146870702154233 0.04043230646827264 -0.16271674820703694
0.3745178451490793 -0.16731770453564984 -0.16215565597184026
0.40352631370874775 0.13229432721467288 -0.1612579083955256
0.40933922926538535 -0.1820968740107303 -0.1612579083955256
0.2033173823458686 -0.07526491242928263 -0.16047237926625021
0.5770048109868571 -0.0859705522768352 -0.16047237926625021
0.5811681153720162 0.11927698735810995 -0.16047237926625021
0.19717903329281697 -0.1320137810970748 -0.16047237926625021
0.577352688172679 -0.15711704769977414 -0.16047237926625021
0.1534699481709957 -0.030265315166508905 -0.16047237926625021
0.7765628753569078 -0.017797845700438648 -0.16047237926625021
0.17570042252948806 -0.0068902126482152685 -0.16047237926625021
0.5963512712564384 0.06334731335370503 -0.16047237926625021
0.32886738089347756 -0.06615277452968858 -0.16047237926625021
0.3150420682182314 0.02724663894115071 -0.16047237926625021
0.39192292628488035 0.1315873509983252 -0.15991128703105353
0.6899077905531329 -0.15253853506056925 -0.15901353945473884
0.4003617535022385 -0.10820102663532773 -0.15901353945473884
0.1448964588171905 0.012108370435544264 -0.15901353945473884
0.4444411594992896 -0.08564511878042116 -0.1582280103254635
0.4086434748937415 -0.07554545854688087 -0.1582280103254635
0.1986378731043283 -0.11833435240297965 -0.1582280103254635
0.5661196216240415 -0.10651774992973762 -0.1582280103254635
0.5825484022706002 0.11971463930156337 -0.1582280103254635
0.19438479396153754 0.09266999356508347 -0.1582280103254635
0.5461447380510397 -0.16296362879052356 -0.1582280103254635
0.1651294448183827 -0.037189193348835976 -0.1582280103254635
0.15501856274013845 0.0024575839901613884 -0.1582280103254635
0.17898842302774068 -0.06930611289149383 -0.1582280103254635
0.6005145756415979 -0.1502941661197825 -0.1582280103254635
0.4090137957689712 0.13448258693194015 -0.15766691809026684
0.4482565866986269 0.13876933160884253 -0.15676917051395214
0.5596670609192794 -0.12298019611040817 -0.15676917051395214
0.15982151227342214 0.01089641120751939 -0.15676917051395214
0.22061024503463036 0.03200470109561846 -0.1559836413846768
0.5953525270777883 -0.13530178159532724 -0.1559836413846768
0.16445613413614668 -0.0059251340036769965 -0.1559836413846768
0.19438479396153754 0.09296176152738571 -0.1559836413846768
0.40715096954811825 -0.16097736227792722 -0.1559836413846768
0.19458678716620836 -0.1363678568422009 -0.1559836413846768
0.15498489720602662 -0.025653136993192185 -0.1559836413846768
0.6008961183615316 0.06734229006830533 -0.1559836413846768
0.20001816000291217 0.028885028267925023 -0.1559836413846768
0.41089906567923207 -0.07128115755938616 -0.1559836413846768
0.44345363716534336 0.04029764433182543 -0.1559836413846768
0.15401981856148836 -0.06297699247847537 -0.1554225491494801
0.7698634340686596 -0.1377593655854888 -0.15452480157316542
0.5751195410765961 -0.06386351821008605 -0.15452480157316542
0.134314259261381 0.021265395713954097 -0.15452480157316542
0.1979421187326844 0.08334464061611464 -0.15373927244389007
0.5874411265615154 -0.09116626637475654 -0.15373927244389007
0.16465812734081747 -0.03329521323657093 -0.15373927244389007
0.4246233817521428 -0.15811579187842423 -0.15373927244389007
0.1908162473456867 0.07743072845714162 -0.15373927244389007
0.5479177895142611 0.1324850985746397 -0.15373927244389007
0.7313051756659438 0.05208058127095566 -0.15373927244389007
0.2217548731944315 -0.041150504529324464 -0.15373927244389007
0.6010756678767943 0.06663531385195764 -0.15373927244389007
0.4065674336235138 0.03188126080387524 -0.15373927244389007
0.4203254152305363 -0.07148315076405698 -0.15373927244389007
0.4670868421118276 0.060676514314168845 -0.15373927244389007
0.8585384509191427 -0.002962567001838578 -0.1522804326323787
0.4519149080721093 0.14163090200834585 -0.1522804326323787
0.4299200924523994 -0.18032382254750878 -0.1522804326323787
0.519391860276862 -0.16165067296016328 -0.15149490350310335
0.5821107503271467 -0.08421994450302164 -0.15149490350310335
0.6368172432588228 0.10652897177444144 -0.15149490350310335
0.20091590757922684 -0.1334501772191783 -0.15149490350310335
0.4320634647908508 0.1202645096920562 -0.15149490350310335
0.19419402260157073 0.08691318723196549 -0.15149490350310335
0.31160818373882776 -0.1506981525291241 -0.15149490350310335
0.1675533632744323 -0.016597108317117762 -0.15149490350310335
0.43918933617784867 0.13230554905937686 -0.15149490350310335
0.6331364781959327 -0.1376022597596336 -0.15149490350310335
0.6009971149638671 0.06405428957005288 -0.15149490350310335
0.4704309518335998 -0.08983086685498844 -0.15149490350310335
0.44807703718336406 0.040308866176529415 -0.15149490350310335
0.7994217730188206 0.06916022891034264 -0.150036063691592
0.4299200924523994 0.06738717744712111 -0.150036063691592
0.14257353696347616 0.005049830116769985 -0.150036063691592
0.5150265626870317 0.12465225097129429 -0.14925053456231666
0.1504176064115257 -0.024553396212206705 -0.14925053456231666
0.16681272152397267 -0.005756806333117987 -0.14925053456231666
0.3951211520255014 0.11760493249722384 -0.14925053456231666
0.2453544126068039 -0.13842145442302084 -0.14925053456231666
0.18661927742641543 -0.12796269515895473 -0.14925053456231666
0.15562454235415088 -0.011300397616861173 -0.14925053456231666
0.5962053872752873 0.13053249759615548 -0.14925053456231666
0.17858443661839907 -0.06347075364544841 -0.14925053456231666
0.6346402053862599 -0.14285408308107456 -0.14925053456231666
0.4070050855669672 -0.06216901965979212 -0.14925053456231666
0.4371918478205485 0.0397926613201484 -0.14925053456231666
0.3126181497621818 -0.07680230515372154 -0.14925053456231666
0.8437592814440621 -0.06386351821008605 -0.14779169475080528
0.5783963197301447 0.0987185678605037 -0.14779169475080528
0.18959306627295783 0.04254201327261218 -0.1470061656215299
0.23075479264698628 -0.045538245808562555 -0.1470061656215299
0.22000426542061793 -0.06556923860508397 -0.1470061656215299
0.15621930012345947 -0.057298739058284975 -0.1470061656215299
0.1935207119193347 0.026584550103618657 -0.1470061656215299
0.46802947706695786 0.051631707482798404 -0.1470061656215299
0.4051422593461141 0.03846848364508429 -0.1470061656215299
0.5941405678497634 -0.09715873144665697 -0.1470061656215299
0.4566729702265771 0.12908487962934784 -0.1470061656215299
0.5003820553483985 -0.16786757492614252 -0.1470061656215299
0.29712078222604954 0.10918854896927364 -0.1470061656215299
0.7595281150963367 -0.06482859685462432 -0.1470061656215299
0.5932877076522646 -0.0934330790049511 -0.1470061656215299
0.6044983305114942 -0.14293263599400216 -0.1470061656215299
0.8289801119689815 -0.034293957415221 -0.14554732581001856
0.5333742787779632 0.08678974694022228 -0.14554732581001856
0.1506083777714927 0.03032142439002852 -0.1447617966807432
0.23011514749886205 0.006452560704761683 -0.1447617966807432
0.1678002438579189 0.001537392724438906 -0.1447617966807432
0.17717048418570336 0.025956126800198404 -0.1447617966807432
0.44744861387994384 -0.08793437510002354 -0.1447617966807432
0.4059951195436131 -0.07649931534671532 -0.1447617966807432
0.6363908131600736 -0.1478702476637329 -0.1447617966807432
0.4313789322639109 0.12263231892458616 -0.1447617966807432
0.5360675215069072 -0.17444357592264756 -0.1447617966807432
0.5854660818936228 -0.10030084796375839 -0.1447617966807432
0.4936601703707422 0.12070216163550962 -0.1447617966807432
0.7266705538032191 0.03994976714600358 -0.1447617966807432
0.6483308559250588 0.10118737369536908 -0.1447617966807432
0.6368396869482308 -0.17924652545593112 -0.14330295686923183
0.5629326177281241 -0.06386351821008605 -0.14330295686923183
0.15130413214313654 -0.0028166830206873827 -0.1425174277399565
0.16560076229594795 0.016731770453564967 -0.1425174277399565
0.22401046397992222 -0.03584257198436389 -0.1425174277399565
0.407207078771638 0.0244523996098713 -0.1425174277399565
0.43475670751979495 -0.07686963622194513 -0.1425174277399565
0.44952465515017137 -0.07924866729917894 -0.1425174277399565
0.5948699877555191 0.12225077620465251 -0.1425174277399565
0.458558240136838 -0.16823789580137233 -0.1425174277399565
0.48692706354838217 0.13589653936463553 -0.1425174277399565
0.6621112812214893 -0.14684905979567486 -0.1425174277399565
0.4936040611472226 -0.15933897295115293 -0.1425174277399565
0.5937029159063102 -0.09301787075090549 -0.1425174277399565
0.7255147037987139 0.11634808589038333 -0.1410585879284451
0.4858048790779887 0.06916022891034264 -0.1410585879284451
0.14241643113762112 -0.0345408379987076 -0.1410585879284451
0.16132523946374924 0.016989872881755397 -0.14027305879916976
0.15580409186941388 0.02947978603723347 -0.14027305879916976
0.3190258230881279 0.024508508833390917 -0.14027305879916976
0.4344761614021965 0.039130572482616345 -0.14027305879916976
0.312404934712807 -0.07814892651819345 -0.14027305879916976
0.7011184134123625 0.07592700126681452 -0.14027305879916976
0.4814283596434546 -0.1675533632744323 -0.14027305879916976
0.7790429030364772 -4.6009563286140065E-4 -0.14027305879916976
0.3846960582955472 -0.15895743023121928 -0.14027305879916976
0.5833788187786911 -0.08353541197608162 -0.14027305879916976
0.6106142358751382 0.06634354588965526 -0.14027305879916976
0.5079792442129615 0.15067570883971612 -0.1397119665639731
0.6400940219123715 -0.16731770453564984 -0.13881421898765842
0.5629326177281241 -0.034293957415221 -0.13881421898765842
0.15982151227342214 -0.014936275300935633 -0.13881421898765842
0.17232264727360405 -0.03304833265308448 -0.13802868985838307
0.15786891129493763 0.030254093321804915 -0.13802868985838307
0.31904826677753567 0.02573168990611962 -0.13802868985838307
0.43739384102521933 0.040331309865937234 -0.13802868985838307
0.3111705317953743 0.039366231221398956 -0.13802868985838307
0.7124861420974473 0.06861035851984981 -0.13802868985838307
0.48270764993970305 -0.1682491176460763 -0.13802868985838307
0.6857444861679735 0.0930066489062015 -0.13802868985838307
0.650305900592951 -0.15456968895198117 -0.13802868985838307
0.5021102194328042 -0.18340982984109058 -0.13802868985838307
0.6040606785680409 0.05524514147746505 -0.13802868985838307
0.5253843253487624 0.1578464676055298 -0.13746759762318636
0.5311860190606961 0.15151734719251134 -0.1365698500468717
0.5195826316368288 -0.1968760434858109 -0.1365698500468717
0.21859031298792225 -0.043832525413564645 -0.13578432091759632
0.16909075599887122 0.010840301983999774 -0.13578432091759632
0.17877520797836588 -0.0038154271993374564 -0.13578432091759632
0.323907325534339 0.024508508833390917 -0.13578432091759632
0.44205090657735163 -0.07554545854688087 -0.13578432091759632
0.4341731715951903 -0.06532235802159736 -0.13578432091759632
0.46797336784343824 0.13076815633493794 -0.13578432091759632
0.5153744398728538 -0.17273785552764964 -0.13578432091759632
0.5026152024444812 0.1287594461329338 -0.13578432091759632
0.6247313165126864 0.12762603981783655 -0.13578432091759632
0.616213936382401 -0.1435835029868302 -0.13578432091759632
0.7814780433372309 -0.022858897661912778 -0.13578432091759632
0.8585384509191427 -0.01951478794014055 -0.13432548110608497
0.48903677035272153 0.06738717744712111 -0.13432548110608497
0.1963822823188377 -0.058690247801572684 -0.13353995197680962
0.1719298827089664 -0.054583052639932995 -0.13353995197680962
0.18035748808162058 -0.054897264291643204 -0.13353995197680962
0.4374836157828507 0.048983352132670036 -0.13353995197680962
0.3275880905972291 0.039130572482616345 -0.13353995197680962
0.5884735362742771 -0.0961263217338951 -0.13353995197680962
0.4885766747198603 0.1357843209175963 -0.13353995197680962
0.564817887638385 -0.17043737736334327 -0.13353995197680962
0.5776668998243891 0.06562534782860358 -0.13353995197680962
0.526809499626162 0.1450311209536377 -0.13353995197680962
0.6140705640439497 -0.1033195241891166 -0.13353995197680962
0.7075373085830126 0.07096694590767595 -0.13353995197680962
0.7255147037987139 -0.16731770453564984 -0.13208111216529825
0.5333742787779632 0.0987185678605037 -0.13208111216529825
0.17814678467494563 0.01693376365823578 -0.1312955830360229
0.16508455743956693 -0.05760172886529119 -0.1312955830360229
0.2036315939975788 0.004084751472231713 -0.1312955830360229
0.4390546740414014 -0.08258155517624734 -0.1312955830360229
0.3124498220916228 0.029681779241904283 -0.1312955830360229
0.58460199985142 0.056995749251278593 -0.1312955830360229
0.526820721470866 0.1357843209175963 -0.1312955830360229
0.5679151167766708 -0.17077403270446131 -0.1312955830360229
0.6067314776075771 0.0670393002612991 -0.1312955830360229
0.6098287067458625 0.13385416362851973 -0.1312955830360229
0.6188061825090095 -0.10770726546835452 -0.1312955830360229
0.6173922300763139 -0.09743927756425538 -0.1312955830360229
0.4003617535022385 0.08393939838542308 -0.12983674322451152
0.4214588215456336 -0.08959520811620583 -0.12983674322451152
0.15208966127241183 0.004455072347461535 -0.12905121409523618
0.2008710202004112 -0.06238223470916676 -0.12905121409523618
0.19566408425778586 0.009347796638376657 -0.12905121409523618
0.44245489298669327 0.04761428707879014 -0.12905121409523618
0.4441157260028754 -0.08152670177407749 -0.12905121409523618
0.6141266732674693 0.06918267259975044 -0.12905121409523618
0.4827974246973345 0.13369705780266455 -0.12905121409523618
0.5686669803718345 -0.17133512493965794 -0.12905121409523618
0.5780484425443227 0.06577123180975462 -0.12905121409523618
0.5394228530733834 0.14981162679751328 -0.12905121409523618
0.6250343063196928 -0.14570443163587374 -0.12905121409523618
0.5543927939084309 0.15391882195915313 -0.12849012186003952
0.48903677035272153 0.05438105943526202 -0.12759237428372483
0.8437592814440621 0.012893899564819697 -0.12759237428372483
0.2219344227096945 -0.023554652033556632 -0.12680684515444948
0.1805482594415874 -0.03823282490630184 -0.12680684515444948
0.47138480863343407 0.0528212230214153 -0.12680684515444948
0.41510725744320714 -0.06648942987080661 -0.12680684515444948
0.3123600473339912 -0.08009030565197399 -0.12680684515444948
0.6055195183795522 0.12643652427921964 -0.12680684515444948
0.5357196443210853 -0.17960562448645712 -0.12680684515444948
0.5757367425353126 0.12803002622717816 -0.12680684515444948
0.7412477300736289 0.06249445315620615 -0.12680684515444948
0.621611643684993 -0.10716861692256585 -0.12680684515444948
0.7250546081658527 -0.09868490232639206 -0.12680684515444948
0.7300034416802874 0.08393939838542308 -0.1253480053429381
0.5629326177281241 0.024822720485100962 -0.1253480053429381
0.20259918428481694 0.00806850634212818 -0.12456247621366275
0.15867688411362088 -0.0246319491251343 -0.12456247621366275
0.4027632282688803 0.032621902554334885 -0.12456247621366275
0.40774572731742664 0.03597723412081094 -0.12456247621366275
0.4639896129735418 0.05618777643259535 -0.12456247621366275
0.6862943565584663 0.09407272415307517 -0.12456247621366275
0.5561097361481327 0.13750126315729805 -0.12456247621366275
0.7904891846344896 -0.03613433994666612 -0.12456247621366275
0.5565361662468821 -0.18761802160506566 -0.12456247621366275
0.5846917746090515 -0.10514868487585773 -0.12456247621366275
0.6182450902738128 -0.09538567998343546 -0.12456247621366275
0.42196380455731064 0.05915034343443393 -0.1231036364021514
0.7846426035437399 -0.07579233913036748 -0.1231036364021514
0.1748251186425812 -0.03689742538653374 -0.12231810727287604
0.20681859789349602 -0.030399977302956113 -0.12231810727287604
0.3197889085279953 -0.06261789344794938 -0.12231810727287604
0.3154236109381652 -0.06662409200725365 -0.12231810727287604
0.4640008348182458 0.05624388565611512 -0.12231810727287604
0.7054163799339689 0.08266010808917477 -0.12231810727287604
0.5850957610183932 0.1327656446922381 -0.12231810727287604
0.7374659684084034 -0.10067116883898822 -0.12231810727287604
0.5469751545591307 -0.18960428811766183 -0.12231810727287604
0.6062601601300119 -0.1064279751721062 -0.12231810727287604
0.6153161888060862 -0.09383706541429272 -0.12231810727287604
0.8585384509191427 -0.01951478794014055 -0.12085926746136466
0.48903677035272153 0.05260800797204066 -0.12085926746136466
0.16868676958952958 -0.03053463943940332 -0.12007373833208933
0.15864321857950905 0.004039864093416084 -0.12007373833208933
0.4055238020660479 -0.06526624879807774 -0.12007373833208933
0.4493002182560928 -0.08882090083163438 -0.12007373833208933
0.4277430545798364 0.042003364726823346 -0.12007373833208933
0.610468351893987 0.12622330922984484 -0.12007373833208933
0.5244192467042242 -0.1777091327314922 -0.12007373833208933
0.8013855958420091 -0.018011060749813446 -0.12007373833208933
0.699491245930292 -0.1361321981034183 -0.12007373833208933
0.627346006328703 0.10897533391989901 -0.12007373833208933
0.581729207607213 -0.11549522569288445 -0.11861489852057795
0.7698634340686596 -0.12581932282050337 -0.11861489852057795
0.20136478136738425 -0.0038042053546334695 -0.1178293693913026
0.18702326383575707 -0.026292782141316424 -0.1178293693913026
0.4370122983052855 -0.07740828476773397 -0.1178293693913026
0.46875889697271367 -0.09527346153639622 -0.1178293693913026
0.7918694715330733 -0.005678253420190396 -0.1178293693913026
0.570552250282095 0.13649129713394398 -0.1178293693913026
0.6149570897755605 -0.17001094726459384 -0.1178293693913026
0.5118395587911148 -0.1852726560619435 -0.1178293693913026
0.6173473426974982 -0.09641808969619733 -0.1178293693913026
0.5840745731503352 -0.11550644753758844 -0.11637052957979124
0.7255147037987139 -0.15538888361536843 -0.11637052957979124
0.20231863816721854 -0.019627006387179943 -0.1155850004505159
0.3200021235773701 -0.06325753859607361 -0.1155850004505159
0.3275880905972291 0.037009643833572976 -0.1155850004505159
0.30692867449728745 -0.07467015465997418 -0.1155850004505159
0.6234183606823263 0.06948566240675667 -0.1155850004505159
0.5430026215339383 -0.17660939195050673 -0.1155850004505159
0.7104886537401468 0.08770993820594492 -0.1155850004505159
0.8077483817891392 -0.013959974811693374 -0.1155850004505159
0.6267736922488025 0.06841958715988299 -0.1155850004505159
0.48903677035272153 0.05260800797204066 -0.11412616063900452
0.7698522122239557 0.06738717744712111 -0.11412616063900452
0.3210681988242438 -0.06655676093903005 -0.11334063150972916
0.31495229346059994 0.032958557895452906 -0.11334063150972916
0.4459785522237285 0.0455045802744506 -0.11334063150972916
0.7391492451139932 -0.09820236300412284 -0.11334063150972916
0.5564239477998428 -0.18119912643441563 -0.11334063150972916
0.6399144723971086 0.12537044903234595 -0.11334063150972916
0.7421118121158318 0.06948566240675667 -0.11334063150972916
0.6376364379222101 -0.15565820788826285 -0.11334063150972916
0.569059744936472 0.04186870259037614 -0.11188179169821781
0.7255147037987139 0.09383706541429256 -0.11188179169821781
0.40396396565220116 -0.0659732250144256 -0.11109626256894245
0.3222016051393411 -0.0731776493143509 -0.11109626256894245
0.31338123520204925 0.04495470988395794 -0.11109626256894245
0.7487327004911526 0.052596786127336675 -0.11109626256894245
0.5752205376789313 -0.17630640214350052 -0.11109626256894245
0.5926705061935482 0.1293317602128346 -0.11109626256894245
0.6196253771723969 0.13716460781618 -0.11109626256894245
0.630207576728206 0.07058540318774215 -0.11109626256894245
0.4299200924523994 0.06600689054853723 -0.10963742275743107
0.7847323783013715 0.039601889960181574 -0.10963742275743107
0.6189632883348648 -0.16465812734081747 -0.10885189362815574
0.582424961978857 -0.09167124938643356 -0.10885189362815574
0.5898538231728608 0.04861303125744021 -0.10885189362815574
0.5821444158612586 0.07084350561593274 -0.10885189362815574
0.68293902499199 0.0514633798122394 -0.10885189362815574
0.4115499326720603 -0.06188847354219372 -0.10885189362815574
0.3192727036716143 -0.07522002505046683 -0.10885189362815574
0.3170283347308277 0.04576268270264103 -0.10885189362815574
0.48903677035272153 0.05260800797204066 -0.10739305381664438
0.8585384509191427 -0.034293957415221 -0.10739305381664438
0.5943313392097302 -0.09731583727251215 -0.10660752468736902
0.623463248061142 -0.1551868904106976 -0.10660752468736902
0.621611643684993 -0.11176957325117858 -0.10660752468736902
0.5851630920866168 -0.10609131983098818 -0.10660752468736902
0.642046622890856 0.07018141677840052 -0.10660752468736902
0.44637131678836617 0.050924731266450564 -0.10660752468736902
0.3166692357003017 0.04146471618103451 -0.10660752468736902
0.5718090968889359 -0.0047356184650600985 -0.10604643245217235
0.5629326177281241 -9.426349551304567E-4 -0.10514868487585767
0.7698634340686596 0.0987185678605037 -0.10514868487585767
0.7955951239747792 1.2344029174322094E-4 -0.10436315574658231
0.8088256788807169 -0.013051005390674879 -0.10436315574658231
0.8033269749757896 -0.04217169239738251 -0.10436315574658231
0.6616960729674438 0.085824668295684 -0.10436315574658231
0.6458508282454895 0.0958457756162967 -0.10436315574658231
0.41211102490725693 -0.06990087066080228 -0.10436315574658231
0.40467094186854885 0.03712186228061221 -0.10436315574658231
0.5660074031770019 -0.04907312689030161 -0.10380206351138563
0.571270448343147 -0.01951478794014055 -0.10290431593507093
0.6959563648485529 0.13112725536546394 -0.10290431593507093
0.6900985619130997 -0.13844389811242866 -0.10211878680579559
0.6923092653197747 -0.14230421269058174 -0.10211878680579559
0.5646832255019378 -0.19033370802341748 -0.10211878680579559
0.616887247064637 -0.09527346153639622 -0.10211878680579559
0.6239794529175231 -0.036830094318310136 -0.10211878680579559
0.3266678993315066 -0.06590589394620198 -0.10211878680579559
0.4457765590190577 -0.08895556296808159 -0.10211878680579559
0.467524494055281 -0.10256766059395296 -0.10211878680579559
0.40035053165753454 -0.10112004262714563 -0.10065994699428422
0.6220605174731503 -0.1968760434858109 -0.10065994699428422
0.6234183606823263 0.12896143933760462 -0.09987441786500888
0.6234183606823263 0.12896143933760462 -0.09987441786500888
0.6192774999865748 0.1353578908188467 -0.09987441786500888
0.7991075613671106 0.013926309277581572 -0.09987441786500888
0.6672733297852986 -0.09985197417560114 -0.09987441786500888
0.6496101462213073 -0.10684318342615165 -0.09987441786500888
0.3196654682362521 0.025630693303784213 -0.09987441786500888
0.3222016051393411 -0.0731776493143509 -0.09987441786500888
0.32756564690782125 0.04167793123040931 -0.09987441786500888
0.5714387760137059 -0.0047356184650600985 -0.09931332562981218
0.5629326177281241 -0.034293957415221 -0.0984155780534975
0.7550730427488751 0.11349773733558415 -0.0984155780534975
0.46462925812166606 0.052439680301481655 -0.09763004892422217
0.4319849118779233 -0.08712640228134046 -0.09763004892422217
0.5853538634465836 0.05904934683209852 -0.09763004892422217
