0.36092934254993003 0.29315347930297025 -0.14741838361467527
0.39650840350317407 0.5645078571990896 -0.14741838361467527
0.36085615611834826 0.27898667718964504 -0.14741838361467527
0.38707780903363953 0.5688258566624131 -0.14741838361467527
0.45829866216719756 0.3436521170943803 -0.14741838361467527
0.46604596871035175 0.5444965957637358 -0.14741838361467527
0.3090192521494433 0.365555770546348 -0.14741838361467527
0.30429349971016434 0.4952525825137272 -0.14741838361467527
0.552019115409889 0.2830851173582232 -0.14605920702815697
0.5244801067261262 0.5473717770044475 -0.14605920702815697
0.3506727869239729 0.27196077975779676 -0.14605920702815697
0.29038807770963115 0.5198327683206848 -0.14605920702815697
0.5043120172230973 0.3135306728962328 -0.14532734271233946
0.44432005373508254 0.4928897062940878 -0.14532734271233946
0.44710113813518926 0.3471232449922577 -0.14532734271233946
0.5576962914597308 0.5038258502133041 -0.14532734271233946
0.44624381136523145 0.3418120011003248 -0.14532734271233946
0.5329488223805863 0.5266286512532763 -0.14532734271233946
0.4572949625340763 0.5045890801426567 -0.14532734271233946
0.463463533195967 0.3004825776656573 -0.14532734271233946
0.333693534797006 0.35398185915191926 -0.14532734271233946
0.3476407776155859 0.48116942203649554 -0.14532734271233946
0.5795581240936517 0.32703879712532224 -0.14396816612582117
0.552019115409889 0.5637864480877838 -0.14396816612582117
0.29038807770963115 0.34081875667171524 -0.14396816612582117
0.30772280678999514 0.40966627838112224 -0.14396816612582117
0.3041575820515126 0.5736247955332738 -0.14396816612582117
0.5619620149004957 0.3504689104359951 -0.14323630181000363
0.3607934248912782 0.28648305882451897 -0.14323630181000363
0.44302360837563437 0.29785832133322593 -0.14323630181000363
0.5043747484501673 0.5390807998266861 -0.14323630181000363
0.4300486995766406 0.2987783793302536 -0.14323630181000363
0.48326569054108715 0.552505282419682 -0.14323630181000363
0.4595114658905523 0.2985901856490434 -0.14323630181000363
0.5301154619579213 0.5161316259235504 -0.14323630181000363
0.34649070511930125 0.3460254485185315 -0.14323630181000363
0.33342169947970235 0.4969776912581544 -0.14323630181000363
0.3131281475225332 0.4372052870648848 -0.14271354158441968
0.4694020893586007 0.2581912754159153 -0.14187712522348536
0.5795581240936517 0.5198327683206848 -0.14187712522348536
0.33787561660167764 0.27196077975779676 -0.14187712522348536
0.29038807770963115 0.4630923734358024 -0.14187712522348536
0.4482093898134272 0.2941676341406031 -0.14114526090766782
0.45237056120907543 0.5489505128857111 -0.14114526090766782
0.3227573908777897 0.5571264828138442 -0.14114526090766782
0.4800977635740484 0.2965095999512192 -0.14114526090766782
0.4156623381685701 0.5553281876378354 -0.14114526090766782
0.4249361045704295 0.2785057377821079 -0.14114526090766782
0.3158360454910581 0.5667034501465422 -0.14114526090766782
0.460462889501115 0.5004697295650551 -0.14114526090766782
0.500736337280103 0.5338741079798699 -0.14114526090766782
0.30833966385618417 0.35950220713408587 -0.14114526090766782
0.31448732410905156 0.4775623764799663 -0.14114526090766782
0.5933380836400447 0.2994997884415595 -0.13978608432114953
0.552019115409889 0.5336022726625662 -0.13978608432114953
0.29038807770963115 0.32703879712532224 -0.13978608432114953
0.3131281475225332 0.4324586242165826 -0.13978608432114953
0.4146377281264256 0.5777023252928286 -0.13978608432114953
0.6017127024538997 0.45827252415591824 -0.139054220005332
0.39557789030163465 0.28413063780939124 -0.139054220005332
0.4307805638924581 0.5015884364478047 -0.139054220005332
0.5511199678218845 0.33356284474060993 -0.139054220005332
0.453687916977547 0.5421337195440963 -0.139054220005332
0.49445275936858385 0.29678143526852285 -0.139054220005332
0.39317319326394845 0.5538958246197353 -0.139054220005332
0.5778434705537363 0.47387168928734347 -0.139054220005332
0.4635994508546189 0.3463495598583935 -0.139054220005332
0.3474107631163289 0.36424886998238815 -0.139054220005332
0.3563813285873496 0.26929470260731864 -0.13853145977974804
0.417554730185184 0.2687510319727112 -0.13769504341881372
0.6621856053494517 0.4922833044324103 -0.13769504341881372
0.42809357633295664 0.3821272696973595 -0.13769504341881372
0.3131281475225332 0.421595666728948 -0.13769504341881372
0.37985326271606923 0.5796992693545593 -0.13769504341881372
0.5865840215255 0.4778342117972699 -0.13696317910299619
0.3396739117776864 0.2852807103056759 -0.13696317910299619
0.37540980079860564 0.5634832471569452 -0.13696317910299619
0.5179978799288851 0.3113769007668269 -0.13696317910299619
0.4528933214346595 0.5466294574841184 -0.13696317910299619
0.4759365921784002 0.28886684545318186 -0.13696317910299619
0.40897100728109553 0.5536448997114549 -0.13696317910299619
0.45295605266172956 0.3891322567201843 -0.13696317910299619
0.5505867523917889 0.5058227942750347 -0.13696317910299619
0.3093433634893054 0.47766692852508297 -0.13696317910299619
0.3041575820515126 0.42563137567045606 -0.1364404188774122
0.6208770923238075 0.3243936303838674 -0.1356040025164779
0.5437281382321274 0.5473717770044475 -0.1356040025164779
0.3725973507849639 0.266806363933539 -0.1356040025164779
0.359235599419038 0.5814766541215449 -0.1356040025164779
0.6191833491929154 0.4086834891570243 -0.13487213820066035
0.34888494695247574 0.2853329863282343 -0.13487213820066035
0.352753372621797 0.5625840995689406 -0.13487213820066035
0.49241399448880635 0.2983497159452748 -0.13487213820066035
0.44499964202834164 0.5528712145775907 -0.13487213820066035
0.4939404543475115 0.2946067527300936 -0.13487213820066035
0.4441214048493606 0.5489191472721761 -0.13487213820066035
0.46984120794809126 0.29800469419638936 -0.13487213820066035
0.6049329054434968 0.45243852003840135 -0.13487213820066035
0.3472957558667005 0.3641338627327597 -0.13487213820066035
0.3617866693198877 0.2581912754159153 -0.1343493779750764
0.359235599419038 0.2581912754159153 -0.13351296161414208
0.359235599419038 0.478513800090529 -0.13351296161414208
0.552019115409889 0.5637864480877838 -0.13351296161414208
0.5795581240936517 0.3159249147294073 -0.13351296161414208
0.5332938441294718 0.5241194021704731 -0.13278109729832455
0.33782334057911934 0.2861066714620985 -0.13278109729832455
0.3233847031484905 0.5617058623899596 -0.13278109729832455
0.4549216311099251 0.34673640242532566 -0.13278109729832455
0.581210046406497 0.49238785647752714 -0.13278109729832455
0.4270166902682536 0.3412787856702291 -0.13278109729832455
0.60756761698044 0.47006599484509226 -0.13278109729832455
0.45329061920610325 0.4580634200656847 -0.13278109729832455
0.467081033957008 0.29752375478885207 -0.13278109729832455
0.33359943795640085 0.3578816504347756 -0.13278109729832455
0.30429349971016434 0.4956289698761477 -0.13278109729832455
0.36719201005242585 0.2634502432852899 -0.1322583370727406
0.378002691517502 0.2581912754159153 -0.13142192071180625
0.42809357633295664 0.478513800090529 -0.13142192071180625
0.6484161010075703 0.5060528087742918 -0.13142192071180625
0.4831715937004822 0.28101498686491083 -0.13142192071180625
0.4537297377955938 0.5573460421085894 -0.1306900563959887
0.3308392639653176 0.28504024060190736 -0.1306900563959887
0.3345613167714753 0.5641210146321574 -0.1306900563959887
0.4458046927757409 0.4865956731780569 -0.1306900563959887
0.6323673620821428 0.4296043533848942 -0.1306900563959887
0.42822949399160837 0.48602063692991465 -0.1306900563959887
0.6360162284567188 0.4313817381518797 -0.1306900563959887
0.4685552177931547 0.5021530174914354 -0.1306900563959887
0.6095854714511941 0.4504415759766706 -0.1306900563959887
0.3378337957836309 0.35116940913827754 -0.1306900563959887
0.34726439025316547 0.36534666645611447 -0.1306900563959887
0.3517810386022108 0.5060528087742918 -0.12933087980947044
0.4038688674793961 0.26504988957557685 -0.12933087980947044
0.3942187137151163 0.5886802900300917 -0.12933087980947044
0.6621856053494517 0.3958967740392408 -0.12933087980947044
0.4841125621065332 0.29691735292717475 -0.12859901549365288
0.4501331474435761 0.35967994561078437 -0.12859901549365288
0.34149311736271865 0.2824891707010576 -0.12859901549365288
0.3437514415372413 0.564685595675788 -0.12859901549365288
0.39350775980832214 0.2851866134650708 -0.12859901549365288
0.3761102995008881 0.5725060886505242 -0.12859901549365288
0.3759534714332129 0.26870921115466445 -0.12859901549365288
0.3578241468099614 0.5561959696123048 -0.12859901549365288
0.46466588171481005 0.5528293937595441 -0.12859901549365288
0.475257003885141 0.29963570610021134 -0.12859901549365288
0.3357532100858068 0.4939979579723257 -0.12859901549365288
0.3942187137151163 0.5821666976193155 -0.12807625526806896
0.6897246140332143 0.3958967740392408 -0.1272398389071346
0.40408842677414136 0.2581912754159153 -0.1272398389071346
0.42809357633295664 0.478513800090529 -0.1272398389071346
0.29781127291292325 0.40966627838112224 -0.1272398389071346
0.6019740825666917 0.4693654961428098 -0.12650797459131707
0.46051516552367355 0.28899230790732205 -0.12650797459131707
0.44810483776831034 0.2864307828019606 -0.12650797459131707
0.4483766730856141 0.5603571410079531 -0.12650797459131707
0.4591768993461786 0.2840679065823211 -0.12650797459131707
0.3657491918298141 0.5735620643062038 -0.12650797459131707
0.38201749004998675 0.2671827512959595 -0.12650797459131707
0.46966346947139276 0.5641210146321574 -0.12650797459131707
0.4705521618548854 0.5071506052480181 -0.12650797459131707
0.46858658340668974 0.3484301455562176 -0.12650797459131707
0.3357009340632484 0.3528213314511228 -0.12650797459131707
0.41209711343008765 0.5886802900300917 -0.12598521436573312
0.6208770923238075 0.5336022726625662 -0.12514879800479878
0.5107106023842448 0.2693051578118302 -0.12514879800479878
0.42809357633295664 0.4795697757462086 -0.12514879800479878
0.29781127291292325 0.3956144835174254 -0.12514879800479878
0.5004122259402408 0.30169538138901203 -0.12441693368898127
0.44855441156231257 0.49121687357221916 -0.12441693368898127
0.42919137280668285 0.2822277905882656 -0.12441693368898127
0.3878828597810388 0.5721087908790803 -0.12441693368898127
0.3968638804565711 0.274396842409018 -0.12441693368898127
0.3942082585106047 0.5732274977618299 -0.12441693368898127
0.3857081772426096 0.287884056229084 -0.12441693368898127
0.5420134846922121 0.5327135802790735 -0.12441693368898127
0.45394929709033904 0.45872209794992047 -0.12441693368898127
0.4754242871573278 0.33961640815287225 -0.12441693368898127
0.30896697612688495 0.36538848727416107 -0.12441693368898127
0.3344463095218469 0.4985982479574645 -0.12441693368898127
0.6897246140332143 0.40966627838112224 -0.12305775710246297
0.43140787616315884 0.5809538938959609 -0.12305775710246297
0.4158505318497804 0.2640984659650141 -0.12305775710246297
0.3041575820515126 0.34441534702373283 -0.12305775710246297
0.4610902017718158 0.3504584552314834 -0.12232589278664543
0.48217834927187253 0.553028042645266 -0.12232589278664543
0.39605882970917183 0.274752319362415 -0.12232589278664543
0.4053116857020079 0.5678326122338037 -0.12232589278664543
0.3990908390175588 0.27149029555477117 -0.12232589278664543
0.40738181619532027 0.5722551637422439 -0.12232589278664543
0.39253542578873596 0.28731947518545325 -0.12232589278664543
0.584304786941954 0.5021634726959472 -0.12232589278664543
0.47617706188216874 0.5050909299592173 -0.12232589278664543
0.5480984137180093 0.5164557372634125 -0.12232589278664543
0.31563739660533624 0.3628374173733114 -0.12232589278664543
0.3153551060835209 0.4799043422905823 -0.12232589278664543
0.6759551096913331 0.42343578272300353 -0.12096671620012717
0.4316274354579041 0.5814871093260564 -0.12096671620012717
0.441863080674838 0.2581912754159153 -0.12096671620012717
0.29781127291292325 0.3958967740392408 -0.12096671620012717
0.46877477708789994 0.2952654306143294 -0.12023485188430963
0.46322306349219844 0.5568232818830056 -0.12023485188430963
0.45879005677924645 0.2869430878230328 -0.12023485188430963
0.4425008481500505 0.5636818960426668 -0.12023485188430963
0.4700921328563716 0.28492523335227876 -0.12023485188430963
0.382435698230454 0.5641314698366691 -0.12023485188430963
0.40923238739388756 0.2664195213666068 -0.12023485188430963
0.444110949644849 0.5722969845602905 -0.12023485188430963
0.475257003885141 0.5042336031892596 -0.12023485188430963
0.5877968252488548 0.4846928259569313 -0.12023485188430963
0.3127308497510894 0.4879862153781103 -0.12023485188430963
0.4266612133148566 0.5886802900300917 -0.11971209165872566
0.359235599419038 0.34346392341317006 -0.11887567529779133
0.5989838940763516 0.3132692927834408 -0.11887567529779133
0.5244801067261262 0.5535717132798733 -0.11887567529779133
0.4688165979059467 0.3486915256690096 -0.1181438109819738
0.46909888842776204 0.5534462508257332 -0.1181438109819738
0.37878683185587797 0.27577692940455956 -0.1181438109819738
0.37773085620019836 0.5707077934745154 -0.1181438109819738
0.3850599545628855 0.2821650593611955 -0.1181438109819738
0.4209840372650148 0.572317894969314 -0.1181438109819738
0.3489581333840575 0.2888877558622052 -0.1181438109819738
0.4706148930819555 0.5666825397375188 -0.1181438109819738
0.48361071228997254 0.5071610604525297 -0.1181438109819738
0.47774534255892065 0.34376712434400875 -0.1181438109819738
0.30853831274190613 0.48586380886223945 -0.1181438109819738
0.4320665540473947 0.2581912754159153 -0.11762105075638984
0.359235599419038 0.34346392341317006 -0.11678463439545551
0.6208770923238075 0.3132692927834408 -0.11678463439545551
0.5378941341146105 0.5473717770044475 -0.11678463439545551
0.47016531928795324 0.34862879444193956 -0.11605277007963798
0.46276303449368444 0.5605244242801398 -0.11605277007963798
0.38124380491612253 0.2764878833113537 -0.11605277007963798
0.3824566086394773 0.5710528152234007 -0.11605277007963798
0.3764553212497735 0.28194550006645025 -0.11605277007963798
0.4201476209040805 0.5759040301168198 -0.11605277007963798
0.36241398159058846 0.26977564201485577 -0.11605277007963798
0.423712845642563 0.5780473470417141 -0.11605277007963798
0.4784772068747381 0.5533939748031748 -0.11605277007963798
0.6192042596019389 0.45119435070151154 -0.11605277007963798
0.31401683990602597 0.4839295960275788 -0.11605277007963798
0.29038807770963115 0.5198327683206848 -0.1146935934931197
0.45487981029187846 0.3132692927834408 -0.1146935934931197
0.6346465966656888 0.37100293209693286 -0.1146935934931197
0.4340634981091254 0.5877079560105054 -0.1146935934931197
0.4642685839433663 0.28647260362000737 -0.11396172917730217
0.4524332924361455 0.49615173010173164 -0.11396172917730217
0.45803728205440547 0.2846847636485102 -0.11396172917730217
0.4272153391539756 0.568041716324037 -0.11396172917730217
0.5471888109254932 0.31727363611141396 -0.11396172917730217
0.47241318825796424 0.5064396513412238 -0.11396172917730217
0.5696256798075565 0.32789612389527983 -0.11396172917730217
0.46795927113598895 0.5058541598885699 -0.11396172917730217
0.48657999037128946 0.33479655887298815 -0.11396172917730217
0.4790940639409273 0.34519948736210876 -0.11396172917730217
0.3341326533864965 0.34836741432914753 -0.11396172917730217
0.34921951349684943 0.3384977012701226 -0.11260255259078387
0.6897246140332143 0.4526371689241233 -0.11260255259078387
0.5244801067261262 0.5559136790904893 -0.11260255259078387
0.522890915640351 0.3073411918253188 -0.11187068827496634
0.4525901205038207 0.3506571041172053 -0.11187068827496634
0.3825611606845941 0.5709587183827958 -0.11187068827496634
0.4475820775427264 0.48527831740958544 -0.11187068827496634
0.644453578497644 0.42987618870219785 -0.11187068827496634
0.44320134685233287 0.36048499635818365 -0.11187068827496634
0.6271502150308149 0.46299827659519727 -0.11187068827496634
0.4830043104282952 0.505070019550194 -0.11187068827496634
0.6373963154522605 0.4272832979833014 -0.11187068827496634
0.33753059485279224 0.3566165706888623 -0.11187068827496634
0.31372409417969893 0.368587779854735 -0.11187068827496634
0.31792708639339395 0.3424706789845606 -0.11051151168844807
0.6621856053494517 0.3545882610135967 -0.11051151168844807
0.4005441124446822 0.5336022726625662 -0.11051151168844807
0.5647012784825557 0.33242322744883696 -0.10977964737263052
0.3951492269166557 0.27466867772632164 -0.10977964737263052
0.4027187949831114 0.5703627717256299 -0.10977964737263052
0.439939323044689 0.34657957435765047 -0.10977964737263052
0.584367518169024 0.5039722230764676 -0.10977964737263052
0.47090763880828257 0.30167447097998873 -0.10977964737263052
0.5205489498297349 0.550612890403068 -0.10977964737263052
0.4875000483683172 0.2949726848880024 -0.10977964737263052
0.34179631829355733 0.3494547555983623 -0.10977964737263052
0.3467102644140465 0.4820476592154765 -0.10977964737263052
0.359235599419038 0.3545882610135967 -0.10842047078611224
0.6375740539289589 0.3821272696973595 -0.10842047078611224
0.42809357633295664 0.478513800090529 -0.10842047078611224
0.6067102902104823 0.3692778233525057 -0.1076886064702947
0.4356631443994122 0.2785893794182013 -0.1076886064702947
0.44291905633051754 0.49566033548968275 -0.1076886064702947
0.6284675707992866 0.3891531671292078 -0.1076886064702947
0.4438704799410804 0.36145733037776984 -0.1076886064702947
0.6099514036091028 0.48619837540661315 -0.1076886064702947
0.48372571953960114 0.5443188572870372 -0.1076886064702947
0.4841230173110449 0.33850815647463417 -0.1076886064702947
0.3339653701143097 0.3482105862614725 -0.1076886064702947
0.34905223022466264 0.3383408732024474 -0.10632942988377642
0.42809357633295664 0.40966627838112224 -0.10632942988377642
0.6015140535681778 0.5060528087742918 -0.10632942988377642
0.4752674590896528 0.5601166713041844 -0.10559756556795888
0.6450077043367629 0.4261645911005517 -0.10559756556795888
0.41386404299256135 0.5706764278609803 -0.10559756556795888
0.45740996978370474 0.2775752245805685 -0.10559756556795888
0.47520472786258267 0.5515538588091192 -0.10559756556795888
0.5853084865750752 0.3362498323001115 -0.10559756556795888
0.4404829936792963 0.507056508407413 -0.10559756556795888
0.6361835117289059 0.43540699188887605 -0.10559756556795888
0.45550712256257925 0.3717557068217738 -0.10559756556795888
0.33242845505109286 0.4979082044596938 -0.10559756556795888
0.4471115933397008 0.3359779969828079 -0.10423838898144058
0.5576649258461958 0.28573028409967804 -0.10423838898144058
0.5107106023842448 0.5886802900300917 -0.10423838898144058
0.5614915306974703 0.5195609330033811 -0.10350652466562307
0.6249232564698273 0.38822265392766836 -0.10350652466562307
0.4170528803686234 0.5708541663376787 -0.10350652466562307
0.4505199900105083 0.27567237735944283 -0.10350652466562307
0.47313459736927016 0.5552236355927185 -0.10350652466562307
0.5726367787069201 0.3252614123583368 -0.10350652466562307
0.44206172956055995 0.5043904312569347 -0.10350652466562307
0.6242123025630332 0.3922688180736882 -0.10350652466562307
0.47632343474533234 0.4836054846877167 -0.10350652466562307
0.337311035558047 0.3564179218031405 -0.10350652466562307
0.31350453488495367 0.4784928896815057 -0.10350652466562307
0.31792708639339395 0.34310844645977295 -0.10214734807910478
0.4320665540473947 0.40966627838112224 -0.10214734807910478
0.6038141985607471 0.5060528087742918 -0.10214734807910478
0.4889115009773939 0.5571160276093325 -0.10141548376328724
0.6429062082299155 0.41282375014364925 -0.10141548376328724
0.4706880795135373 0.5621763465929853 -0.10141548376328724
0.6493466142091097 0.415437551271569 -0.10141548376328724
0.4305400941886895 0.359951780928088 -0.10141548376328724
0.5761288170138209 0.5198850443432431 -0.10141548376328724
0.507511309803671 0.5389971581905926 -0.10141548376328724
0.4961465024994759 0.5036585669411172 -0.10141548376328724
0.33735285637609375 0.3494861212118973 -0.10141548376328724
0.34539290864557487 0.5018811821741318 -0.10141548376328724
0.6621856053494517 0.36570214340951146 -0.10005630717676896
0.4005441124446822 0.49063138211956514 -0.10005630717676896
0.359235599419038 0.34346392341317006 -0.10005630717676896
0.48802280859390124 0.5426251141561453 -0.09932444286095142
0.567200072360847 0.5171876015792299 -0.09932444286095142
0.45060363164660167 0.5675085008939416 -0.09932444286095142
0.6303390524068769 0.38557748718621354 -0.09932444286095142
0.4445291578253161 0.36120640546948957 -0.09932444286095142
0.572019921640731 0.5238162012396346 -0.09932444286095142
0.6457082030390455 0.42369716283579556 -0.09932444286095142
0.47962727937102284 0.4390558582634521 -0.09932444286095142
0.5106165055436398 0.352622682565401 -0.09932444286095142
0.33655826083320606 0.3507930217758572 -0.09932444286095142
0.4320665540473947 0.4278374238224205 -0.09880168263536747
0.6621856053494517 0.40966627838112224 -0.09796526627443314
0.359235599419038 0.34346392341317006 -0.09796526627443314
0.42809357633295664 0.4802807296530028 -0.09796526627443314
0.4917344061955472 0.34467672713652486 -0.09723340195861559
0.4939195439384882 0.5404608868222277 -0.09723340195861559
0.44906671658338493 0.5682299100052473 -0.09723340195861559
0.5775089040093626 0.331377706997669 -0.09723340195861559
0.44114167156353207 0.5073074333156933 -0.09723340195861559
0.6418502325742359 0.39300068238950564 -0.09723340195861559
0.4754765631798863 0.4449003175854807 -0.09723340195861559
0.5166805241604137 0.31123052790366346 -0.09723340195861559
0.5216572015079729 0.38239910501466307 -0.09723340195861559
0.5137844325106785 0.5444338645366656 -0.09723340195861559
0.3372483043309769 0.4974899962792266 -0.09723340195861559
0.42582479695392217 0.51307870620614 -0.09587422537209732
0.47305095573317674 0.33431561946545085 -0.09587422537209732
0.6208980027328308 0.4922833044324103 -0.09587422537209732
0.4374718947799327 0.44864328080066185 -0.09587422537209732
0.4849489784674675 0.2890759495434154 -0.09514236105627978
0.49427502089188535 0.495263037718239 -0.09514236105627978
0.433488461860983 0.571502389017403 -0.09514236105627978
0.43931201077398824 0.26772642193056667 -0.09514236105627978
0.4890683290450691 0.5503515102902761 -0.09514236105627978
0.4434418165561015 0.2672036617049828 -0.09514236105627978
0.46310805624256984 0.5570114755642158 -0.09514236105627978
0.5184160881093524 0.3436939379124271 -0.09514236105627978
0.5242710026358927 0.34881698812314976 -0.09514236105627978
0.5160218462761779 0.4141724715256559 -0.09514236105627978
0.5791399159131845 0.5056346005938246 -0.09514236105627978
0.3333903338661673 0.4988387176612332 -0.09514236105627978
0.42809357633295664 0.39235245970978155 -0.09378318446976149
0.4005441124446822 0.49063138211956514 -0.09378318446976149
0.6633879538682946 0.40966627838112224 -0.09378318446976149
0.359235599419038 0.3545882610135967 -0.09378318446976149
0.3420054223837909 0.3606000036078121 -0.09305132015394396
0.30429349971016434 0.4934751977467418 -0.09305132015394396
0.44293996673954084 0.3590421781355719 -0.09305132015394396
0.43890425779803277 0.2727553753006843 -0.09305132015394396
0.492037607126386 0.2905396781750505 -0.09305132015394396
0.4873013994825954 0.293163934507482 -0.09305132015394396
0.4309269367556217 0.5672993968037078 -0.09305132015394396
0.6185246713086797 0.4853305934321438 -0.09305132015394396
0.535531257894971 0.5258549661194121 -0.09305132015394396
0.4374718947799327 0.3940043820226269 -0.09252855992836001
0.6484161010075703 0.35193263906763017 -0.09169214356742568
0.4861304165772872 0.5357037687694137 -0.09169214356742568
0.42809357633295664 0.4080039008637652 -0.09169214356742568
0.3234056135575138 0.5198327683206848 -0.09169214356742568
0.313201333954115 0.4791515675657414 -0.09096027925160814
0.4413716860627891 0.44278836627412155 -0.09096027925160814
0.4461288041156031 0.5699863843632094 -0.09096027925160814
0.5556470713754416 0.3187687303565841 -0.09096027925160814
0.4802023156191652 0.2848729573297204 -0.09096027925160814
0.5197334438778239 0.5521811710798199 -0.09096027925160814
0.6611400848982838 0.42249481431695235 -0.09096027925160814
0.5391696690650354 0.31376068739548985 -0.09096027925160814
0.5468124235630727 0.4518425733812356 -0.09096027925160814
0.29781127291292325 0.4372052870648848 -0.08960110266508986
0.359235599419038 0.478513800090529 -0.08960110266508986
0.6759551096913331 0.478513800090529 -0.08960110266508986
0.48838874075181 0.31240151080897144 -0.08960110266508986
0.30429349971016434 0.4967790423724324 -0.08886923834927232
0.4390192650476612 0.5033553660102786 -0.08886923834927232
0.47667891169872934 0.4031735963793694 -0.08886923834927232
0.5107419679977798 0.2973146506986185 -0.08886923834927232
0.4428249594899124 0.27343496359394354 -0.08886923834927232
0.5963700929484318 0.5033135451922318 -0.08886923834927232
0.6243586754261966 0.3658066954546283 -0.08886923834927232
0.5495830527586677 0.5200523276154301 -0.08886923834927232
0.61447850716266 0.38417648978164853 -0.08886923834927232
0.6621856053494517 0.4509747914067663 -0.08751006176275404
0.43356164829256477 0.4615031823500272 -0.08751006176275404
0.29038807770963115 0.4509747914067663 -0.08751006176275404
0.3418485943161157 0.4864283899058702 -0.08677819744693649
0.44174807342520955 0.3458790756553679 -0.08677819744693649
0.43169016668497423 0.35950220713408587 -0.08677819744693649
0.4675724285690569 0.5662120555344934 -0.08677819744693649
0.5750310205400946 0.5161107155145271 -0.08677819744693649
0.5665518496811229 0.31962605712654174 -0.08677819744693649
0.5028796542049971 0.301109889936358 -0.08677819744693649
0.43131377932255377 0.5829717483667147 -0.08677819744693649
0.5443031744802698 0.33320736778721294 -0.08677819744693649
0.6897246140332143 0.42343578272300353 -0.08541902086041822
0.359235599419038 0.4922833044324103 -0.08541902086041822
0.49205851753540936 0.32860707780207415 -0.08541902086041822
0.34113764040932154 0.3488378985321731 -0.08468715654460068
0.45473343742871486 0.49704042248522445 -0.08468715654460068
0.4848653368313741 0.5069310459532729 -0.08468715654460068
0.4497044840585973 0.5703000404985598 -0.08468715654460068
0.6520649673821461 0.41470568695575155 -0.08468715654460068
0.47821582676194624 0.28759131050275705 -0.08468715654460068
0.5020223274350395 0.5513552099233973 -0.08468715654460068
0.5813355088606372 0.5223420174034877 -0.08468715654460068
0.5429753635072866 0.31980379560324024 -0.08468715654460068
0.6897246140332143 0.46474429574864756 -0.08332797995808242
0.4311569512548786 0.40966627838112224 -0.08332797995808242
0.49521598929793637 0.3821272696973595 -0.08332797995808242
0.35128964399016194 0.5060528087742918 -0.08332797995808242
0.3365791712422295 0.49690450482657256 -0.08259611564226486
0.44465462027945624 0.5006997440643121 -0.08259611564226486
0.4771703063107782 0.36492845827564724 -0.08259611564226486
0.5290803967112649 0.5437647314479183 -0.08259611564226486
0.5317151082482081 0.5411091095019517 -0.08259611564226486
0.6068148422555991 0.35059437289013523 -0.08259611564226486
0.5046361285629594 0.30041984643858716 -0.08259611564226486
0.4508650117593937 0.5830135691847617 -0.08259611564226486
0.5458087239299516 0.5243703270787535 -0.08259611564226486
0.4255843272501536 0.4831036348711561 -0.0812369390557466
0.6504548658873476 0.3821272696973595 -0.0812369390557466
0.49538327257012327 0.42343578272300353 -0.0812369390557466
0.29781127291292325 0.4509747914067663 -0.0812369390557466
0.3416813110439289 0.48658521797354537 -0.08050507473992906
0.45362518575047694 0.3881599227005983 -0.08050507473992906
0.4851999033757478 0.507056508407413 -0.08050507473992906
0.4437868383049869 0.5714292025858212 -0.08050507473992906
0.6574284872966376 0.4244499375606363 -0.08050507473992906
0.5303977524797366 0.3080416905276012 -0.08050507473992906
0.4546393405881098 0.5744507566896964 -0.08050507473992906
0.6517304008377726 0.39625225099263794 -0.08050507473992906
0.5755642359701902 0.5112804110301313 -0.08050507473992906
0.6759551096913331 0.3794716477513929 -0.07914589815341075
0.5933380836400447 0.2994997884415595 -0.07914589815341075
0.5099160068413572 0.5325149313933516 -0.07914589815341075
0.42809357633295664 0.3657962402501166 -0.07914589815341075
0.3319475156435555 0.35232993683907393 -0.07841403383759321
0.44063982174697147 0.3499984262329695 -0.07841403383759321
0.44713250374872426 0.40512871962305336 -0.07841403383759321
0.4774944176506403 0.4039891023312804 -0.07841403383759321
0.5465196778367458 0.31270471173981024 -0.07841403383759321
0.4518687113925148 0.2764460624933071 -0.07841403383759321
0.6347929695288524 0.46775539464801125 -0.07841403383759321
0.4577968123506369 0.2687301215636879 -0.07841403383759321
0.5155513620731522 0.5427923974283321 -0.07841403383759321
0.5682037719939682 0.5094612054450991 -0.07841403383759321
0.6897246140332143 0.4509747914067663 -0.07705485725107493
0.42809357633295664 0.4372052870648848 -0.07705485725107493
0.42444470995838063 0.3360616386189013 -0.07705485725107493
0.5244801067261262 0.5060528087742918 -0.07705485725107493
0.31465460738123835 0.48113805642296054 -0.07632299293525739
0.4451460148915053 0.5008879377455223 -0.07632299293525739
0.44291905633051754 0.40205488949661977 -0.07632299293525739
0.4728523068474548 0.5665257116698438 -0.07632299293525739
0.5521759434775642 0.5331422436640523 -0.07632299293525739
0.5227549979816991 0.29282936796310816 -0.07632299293525739
0.5595154970447629 0.3351729462354086 -0.07632299293525739
0.5397133396996426 0.5504874279489279 -0.07632299293525739
0.5819523659268262 0.3476355500133301 -0.07632299293525739
0.6759551096913331 0.42343578272300353 -0.07496381634873912
0.42809357633295664 0.3958967740392408 -0.07496381634873912
0.49571783911449696 0.34081875667171524 -0.07496381634873912
0.4467247507727688 0.5147724493370321 -0.07496381634873912
0.34577975121250704 0.36394566905154946 -0.07423195203292159
0.44055618011087805 0.3439971388432657 -0.07423195203292159
0.43863242248072914 0.4646711093170659 -0.07423195203292159
0.5058907531043607 0.5565200809521669 -0.07423195203292159
0.5632061842373856 0.5247989904637324 -0.07423195203292159
0.5645862712329273 0.314827118255681 -0.07423195203292159
0.5657154333201886 0.33459790998726624 -0.07423195203292159
0.5763483763085662 0.5290647139044974 -0.07423195203292159
0.5736822991580881 0.3368039581392305 -0.07423195203292159
0.5826946854471554 0.3132692927834408 -0.0728727754464033
0.43706414180397724 0.41394245702639887 -0.0728727754464033
0.4005441124446822 0.5336022726625662 -0.0728727754464033
0.29038807770963115 0.3821272696973595 -0.0728727754464033
0.30848603671934766 0.400612071274008 -0.07214091113058577
0.4469965860900724 0.45839798661005837 -0.07214091113058577
0.4328402391812589 0.35906308854459534 -0.07214091113058577
0.4570231272167727 0.38351781189741274 -0.07214091113058577
0.5698452391023018 0.32376631811316664 -0.07214091113058577
0.4899465662240502 0.28456975639888177 -0.07214091113058577
0.6388600440838957 0.4656329881321404 -0.07214091113058577
0.4602537854108815 0.26771596672605497 -0.07214091113058577
0.526539782014927 0.5389657925770576 -0.07214091113058577
0.6181482839462593 0.38051716820256076 -0.07214091113058577
0.6346465966656888 0.5198327683206848 -0.0707817345440675
0.38677460810280073 0.49063138211956514 -0.0707817345440675
0.42809357633295664 0.36835776535547804 -0.0707817345440675
0.33172795634881025 0.35212083274884043 -0.07004987022824996
0.4460869832975563 0.35007161266455133 -0.07004987022824996
0.44619153534267314 0.3833191630116908 -0.07004987022824996
0.47815309553487617 0.4829363515989693 -0.07004987022824996
0.5767247636709867 0.3281156831900251 -0.07004987022824996
0.5526255172715663 0.31177419853827065 -0.07004987022824996
0.6138302844829359 0.4941652412445126 -0.07004987022824996
0.47741077601454696 0.27213851823449525 -0.07004987022824996
0.5350921393054805 0.5351914637483414 -0.07004987022824996
0.6571566519793341 0.41977646114391587 -0.07004987022824996
0.6897246140332143 0.42343578272300353 -0.06869069364173165
0.4310314888007384 0.39681683203626844 -0.06869069364173165
0.4472161453848177 0.33190046722325306 -0.06869069364173165
0.5244801067261262 0.5060528087742918 -0.06869069364173165
0.3144350480864931 0.48134716051319404 -0.06795882932591411
0.45000768498943594 0.48999361464435265 -0.06795882932591411
0.4469965860900724 0.37640827282947087 -0.06795882932591411
0.4910966387203349 0.5624900027283357 -0.06795882932591411
0.5824437605388751 0.5122213794361825 -0.06795882932591411
0.44867987401645276 0.2678414291801951 -0.06795882932591411
0.5439999735494312 0.5354110230430866 -0.06795882932591411
0.650015747297857 0.4596317007424366 -0.06795882932591411
0.610045500449708 0.36443706366359835 -0.06795882932591411
0.6429062082299155 0.4922833044324103 -0.06743606910033018
0.6517304008377726 0.3769519434640783 -0.06659965273939583
0.5427244385990063 0.5584856594003624 -0.06659965273939583
0.5244801067261262 0.4372052870648848 -0.06659965273939583
0.29781127291292325 0.46474429574864756 -0.06659965273939583
0.3133790724308135 0.48534104863665556 -0.0658677884235783
0.44694431006751406 0.35028071675478484 -0.0658677884235783
0.44488463477871326 0.488644893262346 -0.0658677884235783
0.5830187967870175 0.5153997616077329 -0.0658677884235783
0.6564770636860747 0.4367243476573477 -0.0658677884235783
0.5882777646563921 0.3360616386189013 -0.0658677884235783
0.5946345289994929 0.5124618491399511 -0.0658677884235783
0.48153012659214844 0.272765830505196 -0.0658677884235783
0.5567030470311212 0.5237534700125644 -0.0658677884235783
0.6100350452451963 0.47721735473108085 -0.0658677884235783
0.472810486029408 0.5832331284795068 -0.06450861183706003
0.6621856053494517 0.3545882610135967 -0.06450861183706003
0.43789010296039993 0.4372052870648848 -0.06450861183706003
0.43356164829256477 0.3132692927834408 -0.06450861183706003
0.3133581620217902 0.36146778558228143 -0.06377674752124249
0.44178989424325615 0.4973122578025281 -0.06377674752124249
0.4473729734524929 0.387710348906596 -0.06377674752124249
0.4540643043399675 0.46222459146133293 -0.06377674752124249
0.4555803089941609 0.5717219483121481 -0.06377674752124249
0.46179070047409837 0.5783400927680411 -0.06377674752124249
0.6598436395388354 0.40666563468627026 -0.06377674752124249
0.4999312865327037 0.29553726593163304 -0.06377674752124249
0.6407733465095329 0.4547491202354825 -0.06377674752124249
0.5933380836400447 0.5473717770044475 -0.06325398729565852
0.6897246140332143 0.3821272696973595 -0.06325398729565852
0.530125917162433 0.27196077975779676 -0.06325398729565852
0.5244801067261262 0.3958967740392408 -0.06325398729565852
0.3479544337509363 0.5095657574902159 -0.06325398729565852
0.30429349971016434 0.4975004514837383 -0.06168570661890667
0.4437241070779168 0.3451053905215037 -0.06168570661890667
0.44556422307197235 0.4709860528421201 -0.06168570661890667
0.5255883584043641 0.5503619654947878 -0.06168570661890667
0.6314995801076735 0.3727175856368482 -0.06168570661890667
0.5774566279868041 0.3313881622021807 -0.06168570661890667
0.5527091589076598 0.5417050561591175 -0.06168570661890667
0.556807599076238 0.3028349986807852 -0.06168570661890667
0.556023458737862 0.5250290049629893 -0.06168570661890667
0.6279761761872374 0.39798781494157665 -0.06168570661890667
0.6474646773970074 0.4818280999207312 -0.06116294639332271
0.6346465966656888 0.34080830146720353 -0.06116294639332271
0.359235599419038 0.4922833044324103 -0.06116294639332271
0.29038807770963115 0.3821272696973595 -0.06116294639332271
0.30832920865167246 0.3672913344952867 -0.059594665716570856
0.4498926777398075 0.4645979228854841 -0.059594665716570856
0.43277750795418884 0.33903091670021823 -0.059594665716570856
0.46480179937346194 0.5698818323180928 -0.059594665716570856
0.6177300757657921 0.36725996888175166 -0.059594665716570856
0.5393264971327105 0.3026572602040865 -0.059594665716570856
0.5149867810295216 0.5504978831534397 -0.059594665716570856
0.6426657385261466 0.37389902374666795 -0.059594665716570856
0.605319748010429 0.3620323666259121 -0.059594665716570856
0.6270874838037448 0.37668010814677466 -0.059594665716570856
0.6484161010075703 0.4949389263783769 -0.0590719054909869
0.552019115409889 0.27196077975779676 -0.0590719054909869
0.5244801067261262 0.40966627838112224 -0.0590719054909869
0.3506727869239729 0.5060528087742918 -0.0590719054909869
0.3311738305096913 0.3477714676719819 -0.05750362481423501
0.43720005946262913 0.34278433511991097 -0.05750362481423501
0.4464110946374184 0.5055091381396843 -0.05750362481423501
0.46523046275844077 0.2746268569082749 -0.05750362481423501
0.6653012562939321 0.4223484414537889 -0.05750362481423501
0.5071662880547856 0.5582347344920822 -0.05750362481423501
0.5926689505512973 0.3308967675901318 -0.05750362481423501
0.5194825189695437 0.5444547749456892 -0.05750362481423501
0.6597704531072539 0.39628361660617295 -0.05750362481423501
0.6284884812083098 0.4728679896542222 -0.05750362481423501
0.5400165406304814 0.5611412813463289 -0.056144448227716734
0.5795581240936517 0.28573028409967804 -0.056144448227716734
0.5244801067261262 0.3821272696973595 -0.056144448227716734
0.4482093898134272 0.5153579407896862 -0.056144448227716734
0.3452883566004582 0.36348564005303563 -0.055412583911899196
0.44678748199983886 0.3453458602252724 -0.055412583911899196
0.43311207449856254 0.507966111199929 -0.055412583911899196
0.5381450590228908 0.30151764291231353 -0.055412583911899196
0.6169773010409512 0.48826850589992554 -0.055412583911899196
0.6187965066259834 0.36093457015218594 -0.055412583911899196
0.47060443787744377 0.5740848245317876 -0.055412583911899196
0.5686951666060172 0.3136665905548847 -0.055412583911899196
0.4931040379865772 0.5717742243347065 -0.055412583911899196
0.5708698491444464 0.3102477386795657 -0.055412583911899196
0.4694020893586007 0.5886802900300917 -0.05405340732538092
0.5666877673397748 0.2994997884415595 -0.05405340732538092
0.42809357633295664 0.478513800090529 -0.05405340732538092
0.29781127291292325 0.3958967740392408 -0.05405340732538092
0.555375236058138 0.5364879091077897 -0.053321543009563384
0.5225354386869538 0.5436706346073131 -0.053321543009563384
0.6362253325469525 0.39694229449040863 -0.053321543009563384
0.6314891249031618 0.46826769966908344 -0.053321543009563384
0.5781362162800634 0.3248118385643345 -0.053321543009563384
0.556608950190516 0.3207552192138031 -0.053321543009563384
0.449484924763852 0.4253909059666875 -0.053321543009563384
0.44935946230971185 0.37705649550919496 -0.053321543009563384
0.4566781054678873 0.46145090632746866 -0.053321543009563384
0.312187179116482 0.47973705901839553 -0.053321543009563384
0.640898808963673 0.4867106804276855 -0.05196236642304511
0.6382013661996597 0.3574843526633317 -0.05196236642304511
0.49768341756269263 0.4922833044324103 -0.05196236642304511
0.29781127291292325 0.4509747914067663 -0.05196236642304511
0.5046884045855177 0.5596357318966471 -0.05123050210722757
0.621316210913298 0.4903595468022614 -0.05123050210722757
0.6704452169136781 0.42848564650214455 -0.05123050210722757
0.6548355965777413 0.4169012799032041 -0.05123050210722757
0.5555738849438598 0.30527106133200627 -0.05123050210722757
0.4427726834673541 0.4976991003694601 -0.05123050210722757
0.44952674558189876 0.47007645004960397 -0.05123050210722757
0.4437972935094986 0.4329709292376549 -0.05123050210722757
0.335941403767017 0.4917500890023148 -0.05123050210722757
0.6208770923238075 0.5224779350621396 -0.049871325520709296
0.6897246140332143 0.40966627838112224 -0.049871325520709296
0.6484161010075703 0.34081875667171524 -0.049871325520709296
0.359235599419038 0.478513800090529 -0.049871325520709296
0.39225313526692057 0.36835776535547804 -0.049871325520709296
0.6008658308884537 0.5054045860945677 -0.04913946120489176
0.5243755546810094 0.5432315160178226 -0.04913946120489176
0.6490225028692476 0.3933770697519261 -0.04913946120489176
0.6512180958167002 0.38155223344921707 -0.04913946120489176
0.4759470473829119 0.27857892421368957 -0.04913946120489176
0.6252473678096895 0.3479178405351454 -0.04913946120489176
0.4566676502633755 0.4872020750397344 -0.04913946120489176
0.44919217903752506 0.41395291223091063 -0.04913946120489176
0.4481571137908688 0.3587076115911982 -0.04913946120489176
0.4583823038032909 0.49313017599785636 -0.04913946120489176
0.3139436534744442 0.4818071895117079 -0.04913946120489176
0.45155505525716455 0.5126186772076262 -0.04778028461837345
0.5244801067261262 0.36835776535547804 -0.04778028461837345
0.4915357573098254 0.2673500345681462 -0.04778028461837345
0.6535077856047579 0.478513800090529 -0.04778028461837345
0.6390900585831525 0.48363685030125175 -0.04778028461837345
0.6365180782732793 0.3558428855549981 -0.04778028461837345
0.46342171237792024 0.5666616293284956 -0.04704842030255591
0.5779480225988531 0.5332572509136808 -0.04704842030255591
0.659017678382413 0.44173239061844194 -0.04704842030255591
0.6350125288235975 0.38789854258780626 -0.04704842030255591
0.5730236212738523 0.32550188206210534 -0.04704842030255591
0.4978820664484146 0.2760278543128399 -0.04704842030255591
0.45048862439697324 0.3555292294196477 -0.04704842030255591
0.4913684740376385 0.5047459082103319 -0.04704842030255591
0.4576399842829617 0.45070295608946265 -0.04704842030255591
0.32253783158304444 0.3520267359082353 -0.04704842030255591
0.4915357573098254 0.5886802900300917 -0.04652566007697198
0.618346932831981 0.47021236770825586 -0.045689243716037636
0.6897246140332143 0.4509747914067663 -0.045689243716037636
0.6375008674973771 0.37042789584879054 -0.045689243716037636
0.4393642867965466 0.4509747914067663 -0.045689243716037636
0.5244801067261262 0.3132692927834408 -0.045689243716037636
0.47669982210775264 0.5681567235736658 -0.0449573794002201
0.4949127883670977 0.5676130529390582 -0.0449573794002201
0.6558079305973273 0.44564263710580987 -0.0449573794002201
0.6654058083390488 0.4147893285918449 -0.0449573794002201
0.651646759201679 0.4710801496827252 -0.0449573794002201
0.5302932004346198 0.29217069007887236 -0.0449573794002201
0.44556422307197235 0.49773046598299514 -0.0449573794002201
0.45001814019394765 0.47036919577593106 -0.0449573794002201
0.4459301552298811 0.4353024398437593 -0.0449573794002201
0.46341125717340864 0.3556756022828113 -0.0449573794002201
0.46669419139007584 0.42401081897114595 -0.0449573794002201
0.332323903005976 0.3466527607892323 -0.0449573794002201
0.6071075879819262 0.3687550631269218 -0.043598202813701824
0.6621856053494517 0.4922833044324103 -0.043598202813701824
0.5933380836400447 0.2994997884415595 -0.043598202813701824
0.359235599419038 0.4922833044324103 -0.043598202813701824
0.39225313526692057 0.36835776535547804 -0.043598202813701824
0.5780525746439699 0.5236593731719593 -0.042866338497884286
0.5485270771029881 0.5320339919858144 -0.042866338497884286
0.6504653210918593 0.3853056518689098 -0.042866338497884286
0.4876255108224573 0.281370463818308 -0.042866338497884286
0.5605610174959307 0.32177982925594767 -0.042866338497884286
0.4515341448481411 0.42876793702395993 -0.042866338497884286
0.44697567568104907 0.37748515889417394 -0.042866338497884286
0.45804773725891723 0.3517549005909317 -0.042866338497884286
0.4719949800774972 0.4235717003816554 -0.042866338497884286
0.31257402168341425 0.35671066752946745 -0.042866338497884286
0.5107106023842448 0.5886802900300917 -0.04234357827230032
0.6071075879819262 0.3821272696973595 -0.04150716191136601
0.6071075879819262 0.47811650231908526 -0.04150716191136601
0.5054516345148702 0.27087343848858214 -0.04150716191136601
0.5244801067261262 0.40966627838112224 -0.04150716191136601
0.3501709371074123 0.5075897238375087 -0.04150716191136601
0.5134289555572814 0.5526621104873571 -0.040775297595548474
0.5373190978664681 0.5562587008393749 -0.040775297595548474
0.6517199456332609 0.4082130049539987 -0.040775297595548474
0.5531796431106853 0.3126001596946934 -0.040775297595548474
0.5354476162588777 0.2897555378366745 -0.040775297595548474
0.44319089164782116 0.34297252880112117 -0.040775297595548474
0.44617062493364984 0.5066487554314575 -0.040775297595548474
0.45617625565132663 0.4179886211724187 -0.040775297595548474
0.4679069951134306 0.47010781566313903 -0.040775297595548474
0.3350213457699893 0.49753181709727334 -0.040775297595548474
0.5023464387749015 0.266576349434282 -0.04025253736996451
0.6621856053494517 0.48116942203649554 -0.0394161210090302
0.5277944065563284 0.27196077975779676 -0.0394161210090302
0.5244801067261262 0.4509747914067663 -0.0394161210090302
0.29038807770963115 0.4509747914067663 -0.0394161210090302
0.48810645022999466 0.5742416525994629 -0.03868425669321266
0.6191519835793804 0.5050804747547056 -0.03868425669321266
0.6560484003010959 0.4672117240134039 -0.03868425669321266
0.6138198292784242 0.3451367561350387 -0.03868425669321266
0.4967424491566415 0.2710929977833274 -0.03868425669321266
0.4557475922663478 0.35365774781205717 -0.03868425669321266
0.49147302608275534 0.3402646308325963 -0.03868425669321266
0.4595532867085991 0.4711533361143069 -0.03868425669321266
0.3333798786616556 0.3551842076707623 -0.03868425669321266
0.33247027586913963 0.5028116953756713 -0.03868425669321266
0.5795581240936517 0.5500169437459024 -0.03732508010669435
0.6321478027873975 0.3473009834689564 -0.03732508010669435
0.359235599419038 0.478513800090529 -0.03732508010669435
0.359235599419038 0.36835776535547804 -0.03732508010669435
0.5075844962352528 0.5596357318966471 -0.03659321579087681
0.5294254184601505 0.541914160249351 -0.03659321579087681
0.6632311258006196 0.4010302794544752 -0.03659321579087681
0.5081699876879068 0.287559944889222 -0.03659321579087681
0.4766057252671477 0.2870790054816847 -0.03659321579087681
0.48403937567495153 0.3490574578269184 -0.03659321579087681
0.4491189926059433 0.4618168384853776 -0.03659321579087681
0.44572105113964755 0.46059357955751107 -0.03659321579087681
0.31072345048484695 0.48365776071027516 -0.03659321579087681
0.5431426467794733 0.5611412813463289 -0.03523403920435854
0.6305481564971106 0.34468718234103657 -0.03523403920435854
0.44019024795296935 0.40571421107570754 -0.03523403920435854
0.45253784448126233 0.33386604567144873 -0.03523403920435854
0.3234056135575138 0.5198327683206848 -0.03523403920435854
0.55987097399816 0.5407013565259963 -0.034502174888541
0.6654685395661188 0.4351456117760842 -0.034502174888541
0.6554210880303951 0.4653925184283718 -0.034502174888541
0.6145621487987534 0.34470809275005987 -0.034502174888541
0.4836734435170426 0.4914364328669644 -0.034502174888541
0.4923512632617364 0.34169699385069635 -0.034502174888541
0.45310242552489305 0.3810712940416797 -0.034502174888541
0.3226214732191378 0.3516921693638616 -0.034502174888541
0.5239678017050539 0.5728197447858746 -0.033979414662957036
0.29781127291292325 0.3821272696973595 -0.033142998302022726
0.42809357633295664 0.4922833044324103 -0.033142998302022726
0.6621856053494517 0.4922833044324103 -0.033142998302022726
0.5347889383746418 0.2817991272032868 -0.033142998302022726
0.5390023857928484 0.5467758303472818 -0.03241113398620519
0.5973947029905763 0.5000306109755646 -0.03241113398620519
0.6555465504845353 0.46567480895018715 -0.03241113398620519
0.6008030996613836 0.33888454383705463 -0.03241113398620519
0.5200784656267092 0.279509437415229 -0.03241113398620519
0.47997230111990824 0.35770391195807694 -0.03241113398620519
0.449453559150317 0.3807680931108411 -0.03241113398620519
0.3129922298638815 0.36063136922134714 -0.03241113398620519
0.5382496110680075 0.5749107856882103 -0.03188837376062122
0.5795581240936517 0.28573028409967804 -0.031051957399686914
0.6316250425618136 0.5053836756855442 -0.031051957399686914
0.359235599419038 0.478513800090529 -0.031051957399686914
0.359235599419038 0.36835776535547804 -0.031051957399686914
0.5137948877151901 0.5573355869040776 -0.030320093083869373
0.5497921568489014 0.5321489992354428 -0.030320093083869373
0.675725095192076 0.42655143366748394 -0.030320093083869373
0.5574871873694971 0.3094635983411897 -0.030320093083869373
0.5178619622702334 0.2776065901941035 -0.030320093083869373
0.4782681027845046 0.4935902049963702 -0.030320093083869373
0.4496103872179922 0.37956574459199804 -0.030320093083869373
0.3081410149704622 0.35947084152055087 -0.030320093083869373
