0.3764332515105006 0.3176299742477019 -0.15967036407424864
0.546834708235194 0.34770813828532493 -0.15967036407424864
0.5931598502276448 0.2622533888892237 -0.15967036407424864
0.5731699501019855 0.3551628780106097 -0.15967036407424864
0.6433730692673582 0.34625658952101357 -0.15967036407424864
0.36931029435991564 0.4697626529529909 -0.15967036407424864
0.35635003753570715 0.4063818129798817 -0.15967036407424864
0.3763917786886631 0.5506139191251332 -0.15967036407424864
0.3968897208818313 0.40976184795963516 -0.15967036407424864
0.3075987354657645 0.34628769413739163 -0.15967036407424864
0.37340573551636547 0.31810691169883265 -0.15967036407424864
0.31756258091221595 0.3053747553947303 -0.158322497364531
0.5633616277374246 0.32990592951159214 -0.158322497364531
0.35929460788616724 0.32091669537832107 -0.15759672298237531
0.3706581610696333 0.47435576797149037 -0.15759672298237531
0.4590471126107353 0.572065736220563 -0.15759672298237531
0.5603133753323707 0.3915449109675278 -0.15759672298237531
0.5648650175290328 0.34483614537308027 -0.15759672298237531
0.5565082439287831 0.24405718830803505 -0.15759672298237531
0.6539175342195341 0.5359221719892104 -0.15759672298237531
0.6469708365617585 0.4562217766230579 -0.15759672298237531
0.5258494603854356 0.6340676048675766 -0.15759672298237531
0.34588851822720607 0.44471306856316073 -0.15759672298237531
0.5630091087518062 0.22315488610195167 -0.15759672298237531
0.6502990305142152 0.3598493068782435 -0.15759672298237531
0.6487749043116884 0.3100819206732829 -0.15759672298237531
0.6426058220633651 0.5212615294696658 -0.15759672298237531
0.5321844339211087 0.6296611175473457 -0.15759672298237531
0.37172608623194814 0.46875693702343224 -0.15759672298237531
0.39243139253430365 0.17809466517554354 -0.15759672298237531
0.6479972889022356 0.5586492783561425 -0.15759672298237531
0.5473012774808654 0.5662491729578581 -0.15759672298237531
0.3527937430631443 0.46588494411118764 -0.15759672298237531
0.4871656858165381 0.16717694482683032 -0.15759672298237531
0.6586454359090055 0.4510065692769964 -0.15759672298237531
0.6120507205746112 0.5804847190535689 -0.15759672298237531
0.5276016871080684 0.5554040300473605 -0.15759672298237531
0.5099135285943887 0.513298747676872 -0.15759672298237531
0.4618568962902237 0.6803098012163523 -0.15759672298237531
0.33685781127209763 0.5169898288204066 -0.15759672298237531
0.42658426131745786 0.5357044396745636 -0.15759672298237531
0.5912728368340401 0.44344814749711803 -0.15759672298237531
0.5374100094726294 0.49752870717317516 -0.15759672298237531
0.574569657839 0.3524360399747962 -0.15759672298237531
0.6601384574951544 0.3817987978357229 -0.15759672298237531
0.5262849250147289 0.2849493906397777 -0.15759672298237531
0.4588708531179261 0.3280707571452843 -0.15759672298237531
0.5645228667488738 0.28016964792300963 -0.15759672298237531
0.5493438139563608 0.2941563570876955 -0.15759672298237531
0.37479507504792064 0.24929313206501522 -0.15759672298237531
0.34365935405344217 0.29724608231458666 -0.15759672298237531
0.33761469027063135 0.3597870976454873 -0.15759672298237531
0.344727279215757 0.4047021636954642 -0.15759672298237531
0.404313355990738 0.4448789598505105 -0.15759672298237531
0.3911664714682609 0.5019870355207029 -0.15759672298237531
0.3901607555387022 0.5590225337526797 -0.15759672298237531
0.5298412194872918 0.17605212870004824 -0.15707831270940695
0.5607073671398266 0.1817753781136188 -0.1562488562726576
0.5729522177873388 0.4964089409835635 -0.1562488562726576
0.35435934208750863 0.3339184250243671 -0.15552308189050193
0.36217696900387125 0.5187005827212021 -0.15552308189050193
0.4520278375147439 0.5698987812795553 -0.15552308189050193
0.6099148702499816 0.25207181112812554 -0.15552308189050193
0.6431449687472521 0.40161243846857286 -0.15552308189050193
0.504408011495465 0.5331227565151813 -0.15552308189050193
0.4381862832264893 0.45065405029137784 -0.15552308189050193
0.34510053461229406 0.3061212661878047 -0.15552308189050193
0.5239313423754527 0.3161058480451749 -0.15552308189050193
0.6464213216724121 0.317972125027861 -0.15552308189050193
0.6329944956025318 0.5118575671180201 -0.15552308189050193
0.4649362533116556 0.6853072762477671 -0.15552308189050193
0.3030367250636431 0.33924768263048155 -0.15552308189050193
0.5759278927541771 0.27397982926376757 -0.15552308189050193
0.5657566831985383 0.34706530954684417 -0.15552308189050193
0.45606106943843766 0.6902632784573445 -0.15552308189050193
0.29826735055233433 0.34289729095217875 -0.15552308189050193
0.5733669460057136 0.270402798380286 -0.15552308189050193
0.5963532575091297 0.34707567775230364 -0.15552308189050193
0.5985202124501374 0.4993535113340237 -0.15552308189050193
0.5502873206531631 0.4754340613392645 -0.15552308189050193
0.6238186337709923 0.4228361550438968 -0.15552308189050193
0.6388628998925335 0.3344368352973354 -0.15552308189050193
0.6017239879370817 0.2603663754956191 -0.15552308189050193
0.4863673339961667 0.3189467363410414 -0.15552308189050193
0.44576544141728636 0.4626811686242433 -0.15552308189050193
0.3651837485870877 0.5447351466296722 -0.15552308189050193
0.4623856747686514 0.6322531689121873 -0.15552308189050193
0.5082442475154306 0.641263139456377 -0.15552308189050193
0.5211111904905048 0.20549783220464998 -0.15552308189050193
0.31013894580330925 0.343581592512497 -0.15552308189050193
0.3663035147766992 0.42185117552525686 -0.15552308189050193
0.3756037950737513 0.43453149080206255 -0.15552308189050193
0.3766198792087692 0.5074303433868704 -0.15552308189050193
0.39354079051845586 0.5529986063807875 -0.15552308189050193
0.39435987874974576 0.5102193906554402 -0.15552308189050193
0.5442737614867303 0.293212850390893 -0.15552308189050193
0.5445122302122958 0.21225790216415716 -0.15552308189050193
0.3943909833661239 0.20770625996749506 -0.15552308189050193
0.5826983309191437 0.5794064256857947 -0.15552308189050193
0.62451330353677 0.53232440469481 -0.15552308189050193
0.6026571264284247 0.5500851406467053 -0.15552308189050193
0.591977874805277 0.5727085649590439 -0.15552308189050193
0.5920919250653299 0.39330750589562 -0.15417521518078425
0.5030394083748285 0.15446552493364665 -0.15417521518078425
0.4191709944140105 0.4596847572464863 -0.15417521518078425
0.6150056591305306 0.5288925286877598 -0.15344944079862857
0.6539901116577497 0.5455646030664216 -0.15344944079862857
0.6147049811722091 0.4679689534085204 -0.15344944079862857
0.6497184110084905 0.3366452630601806 -0.15344944079862857
0.6107857995085683 0.40366534314952757 -0.15344944079862857
0.5960525795508081 0.3546963087649382 -0.15344944079862857
0.6410402230390007 0.4251793694777137 -0.15344944079862857
0.5920919250653299 0.3496055198843891 -0.15344944079862857
0.6586454359090055 0.4964607820108604 -0.15344944079862857
0.5818688744823944 0.35855328119582264 -0.15344944079862857
0.6130771729150883 0.4270767510767777 -0.15344944079862857
0.4650295671607899 0.5861353910289238 -0.15344944079862857
0.5402820023848741 0.555953544936707 -0.15344944079862857
0.4869894263237287 0.30262718094799806 -0.15344944079862857
0.6022942392373469 0.24226348876356457 -0.15344944079862857
0.3968897208818313 0.44224543566383145 -0.15344944079862857
0.5491053452307952 0.234414757230824 -0.15344944079862857
0.5583019434732536 0.44281568696409657 -0.15344944079862857
0.3364845558755604 0.513184697416819 -0.15344944079862857
0.36245691055127416 0.3007401675543933 -0.15344944079862857
0.491292231589366 0.2826476490277984 -0.15344944079862857
0.5382602023202976 0.5981521411563301 -0.15344944079862857
0.3741107734876024 0.5225886597684647 -0.15344944079862857
0.39791617322230866 0.357858611430045 -0.15344944079862857
0.40262333850086107 0.169375004384216 -0.15344944079862857
0.6145805627066967 0.27548321905537587 -0.15344944079862857
0.5159996651990371 0.6547521747590132 -0.15344944079862857
0.5434754096663591 0.5544916279669363 -0.15344944079862857
0.5287525579140583 0.36980278411923556 -0.15344944079862857
0.45243219752765923 0.17719263130057858 -0.15344944079862857
0.5135216640942484 0.24376687855517287 -0.15344944079862857
0.49340734550307674 0.3182728029861826 -0.15344944079862857
0.6008219540621168 0.25783653336353357 -0.15344944079862857
0.5297686420490761 0.48648656835894954 -0.15344944079862857
0.4933658726812394 0.4724894909888043 -0.15344944079862857
0.38805600983045074 0.5129980697185504 -0.15344944079862857
0.38053906087240985 0.5516092668492324 -0.15344944079862857
0.4074860268613042 0.5362124817420726 -0.15344944079862857
0.43695246677682464 0.672440333272693 -0.15344944079862857
0.4324319291965406 0.4145208542654846 -0.15344944079862857
0.36488307062876596 0.418263776436316 -0.15344944079862857
0.3205797287008917 0.36348854699448124 -0.15344944079862857
0.3391699210895364 0.2670746044278293 -0.15344944079862857
0.5225627392548162 0.1245325157724547 -0.1521015740889109
0.5908373722047466 0.3319899388089249 -0.1521015740889109
0.420228551370866 0.4626189593914871 -0.1521015740889109
0.4133129583294683 0.1408105983436605 -0.1521015740889109
0.6274475056817707 0.30717882314466016 -0.15137579970675522
0.6576086153630689 0.3837376522566246 -0.15137579970675522
0.6237460563327768 0.45271732317779184 -0.15137579970675522
0.656032648133245 0.3567388452404335 -0.15137579970675522
0.6409987502171632 0.37573339764199337 -0.15137579970675522
0.5985202124501374 0.5119819855835325 -0.15137579970675522
0.6302469211557998 0.4158376163588241 -0.15137579970675522
0.608826208676748 0.25486085839669526 -0.15137579970675522
0.4680467149494656 0.5549063561853109 -0.15137579970675522
0.44176331410997083 0.462784850678837 -0.15137579970675522
0.4910433946583412 0.23292173564467514 -0.15137579970675522
0.5076843644206249 0.5161707405891167 -0.15137579970675522
0.3985901065771675 0.5218110443590122 -0.15137579970675522
0.5098305829507138 0.18039640678752292 -0.15137579970675522
0.5551396408081467 0.4414885566652976 -0.15137579970675522
0.31262731511355735 0.5403908685421973 -0.15137579970675522
0.3267073381273774 0.25200960189536936 -0.15137579970675522
0.4846773165062899 0.2726319625540499 -0.15137579970675522
0.5292917045979453 0.6409624614980555 -0.15137579970675522
0.4115918362232135 0.5379439720537869 -0.15137579970675522
0.464635575353334 0.3769879505025767 -0.15137579970675522
0.472691670995262 0.2819011382347239 -0.15137579970675522
0.5333975139598545 0.2025117890323524 -0.15137579970675522
0.41856963849736734 0.28098873615429953 -0.15137579970675522
0.5046983212483271 0.6392413393918006 -0.15137579970675522
0.4553871360835787 0.6246532743104714 -0.15137579970675522
0.4388187437595106 0.5983076642382203 -0.15137579970675522
0.3871125031336484 0.5848082607301249 -0.15137579970675522
0.4976686779468765 0.47088241914260254 -0.15137579970675522
0.5502873206531631 0.47394103975311563 -0.15137579970675522
0.43710798985871513 0.2946125581279076 -0.15137579970675522
0.35799858220374636 0.2791846684043698 -0.15137579970675522
0.33302157525213183 0.3133997464202802 -0.15137579970675522
0.33006663669621233 0.3212484779530209 -0.15137579970675522
0.37423519195311483 0.41608645328984895 -0.15137579970675522
0.5860057884606816 0.5739838542305459 -0.15137579970675522
0.6151300775960431 0.5289340015095971 -0.15137579970675522
0.5986861037374873 0.535289711456189 -0.15137579970675522
0.40597226886423665 0.4747290233680276 -0.15002793299703754
0.5498725924347884 0.1408105983436605 -0.15002793299703754
0.58881557214017 0.2971424002599931 -0.15002793299703754
0.5745074486062439 0.48527348832020356 -0.15002793299703754
0.6252183415080068 0.5349164560596518 -0.14930215861488186
0.6546122039853117 0.5424645096340709 -0.14930215861488186
0.5686286761107829 0.3696576292428045 -0.14930215861488186
0.6291686277880255 0.4517738164809895 -0.14930215861488186
0.6655299243340249 0.3806168224133552 -0.14930215861488186
0.6167682540586229 0.43897945094413077 -0.14930215861488186
0.6425436128306089 0.40588413911783205 -0.14930215861488186
0.6461828529468466 0.3099989750296079 -0.14930215861488186
0.607613128638002 0.4371028057559854 -0.14930215861488186
0.6031133274686369 0.25997238368816306 -0.14930215861488186
0.44602464655377055 0.2561776204900348 -0.14930215861488186
0.4395963591689631 0.586477541809083 -0.14930215861488186
0.4551382991525539 0.6168252791886495 -0.14930215861488186
0.37737675820730293 0.31617842548339053 -0.14930215861488186
0.47889185785996335 0.28474202653059044 -0.14930215861488186
0.5154501503096907 0.6426213743715541 -0.14930215861488186
0.4161434784198754 0.3595382607144625 -0.14930215861488186
0.43717019909147137 0.2846798172978342 -0.14930215861488186
0.5349942176005971 0.5011472108784942 -0.14930215861488186
0.376132573552179 0.5460519087230118 -0.14930215861488186
0.5174823185797265 0.17785619644997813 -0.14930215861488186
0.5354296822298904 0.5274202435125296 -0.14930215861488186
0.45040002925762335 0.34537529205696743 -0.14930215861488186
0.5418061285874011 0.28603805221301126 -0.14930215861488186
0.5158130375007685 0.5039155217361451 -0.14930215861488186
0.40901015306383104 0.5164817867528977 -0.14930215861488186
0.4390572124850761 0.5987327606620544 -0.14930215861488186
0.4164130517618189 0.6601229051869651 -0.14930215861488186
0.35855846529855223 0.5552692433763887 -0.14930215861488186
0.40449998368900647 0.576358173280741 -0.14930215861488186
0.4576163002573426 0.3817054839865886 -0.14930215861488186
0.3894142447456278 0.2748196539059763 -0.14930215861488186
0.4236293227615383 0.18386975561641086 -0.14930215861488186
0.5184258252765289 0.20505199936989715 -0.14930215861488186
0.35001506400003396 0.333576274244208 -0.14930215861488186
0.32321325288757086 0.3579622934846387 -0.14930215861488186
0.36879188408694735 0.4143549629781347 -0.14930215861488186
0.4117577275105632 0.3934008197447543 -0.14795429190516418
0.5608525220162579 0.1856116141335844 -0.14795429190516418
0.5755339009467212 0.3319899388089249 -0.14795429190516418
0.3789630936425861 0.41841929951820656 -0.1472285175230085
0.30242500094154035 0.34705494134138476 -0.1472285175230085
0.3321610141990044 0.3220260933624733 -0.1472285175230085
0.4464912157994421 0.5665291145052612 -0.1472285175230085
0.3887817842126065 0.5711118613183014 -0.1472285175230085
0.4341115784809581 0.2662140433747019 -0.1472285175230085
0.5324332708521335 0.280148911512091 -0.1472285175230085
0.43061749324115145 0.6490703981672804 -0.1472285175230085
0.4001660738069912 0.5486854329096909 -0.1472285175230085
0.5471664908098937 0.23141834585306698 -0.1472285175230085
0.571739137748593 0.46052458188869505 -0.1472285175230085
0.3103670463234154 0.5344706232248989 -0.1472285175230085
0.448834430233259 0.16751909560698944 -0.1472285175230085
0.5229982038841096 0.5093484613968533 -0.1472285175230085
0.37618441457947577 0.5503650821941084 -0.1472285175230085
0.5391103951679657 0.19747284117910008 -0.1472285175230085
0.5435168824881965 0.22930323193935606 -0.1472285175230085
0.49740947281039244 0.22918918167930308 -0.1472285175230085
0.46943605448102077 0.3158362747032314 -0.1472285175230085
0.5070207992712253 0.2920827159958221 -0.1472285175230085
0.37997917777760404 0.28030443459398147 -0.1472285175230085
0.4646563117642527 0.43287257792856376 -0.1472285175230085
0.4225406611883048 0.4964815184217791 -0.1472285175230085
0.4958853466078655 0.5275031891562046 -0.1472285175230085
0.4231834899267855 0.5747511014345391 -0.1472285175230085
0.44547513166442415 0.6005160920010655 -0.1472285175230085
0.3556346313590108 0.5865604874527577 -0.1472285175230085
0.35142513994250785 0.5554247664582794 -0.1472285175230085
0.6295211467736442 0.4955898527522736 -0.1472285175230085
0.636447108020501 0.31331680077660534 -0.1472285175230085
0.6125898672584982 0.4411464058851385 -0.1472285175230085
0.6513151146492333 0.3318447839324937 -0.1472285175230085
0.6026467582229653 0.4145208542654846 -0.1472285175230085
0.6229477045124056 0.4899702853932968 -0.1472285175230085
0.6253427599735192 0.31478908595183536 -0.1472285175230085
0.6018276699916755 0.5456371805046369 -0.1472285175230085
0.6424088261596371 0.5270573563214518 -0.1472285175230085
0.41153999519591655 0.46961749807655967 -0.14588065081329082
0.36219770541478996 0.22275052608903637 -0.14588065081329082
0.5771824456147605 0.30468008562895277 -0.14588065081329082
0.5771824456147605 0.5095143526842032 -0.14588065081329082
0.6477277155602923 0.5512774842745326 -0.14515487643113514
0.6268150451487492 0.5602667184078035 -0.14515487643113514
0.6325071899459417 0.4657708938511346 -0.14515487643113514
0.6603872944261793 0.37742341513187017 -0.14515487643113514
0.6476758745329952 0.37534977403999675 -0.14515487643113514
0.6484534899424479 0.4128826778029046 -0.14515487643113514
0.653202128042838 0.32815370278895917 -0.14515487643113514
0.6338861612720376 0.45937371108270525 -0.14515487643113514
0.6059231111481252 0.2559391517644694 -0.14515487643113514
0.44427241983113763 0.5665809555325579 -0.14515487643113514
0.4555426591654692 0.2792883504589634 -0.14515487643113514
0.4560092284111407 0.2834667372590883 -0.14515487643113514
0.5434339368445216 0.2842443526685408 -0.14515487643113514
0.4194716723723321 0.4839256216104859 -0.14515487643113514
0.5486698806015018 0.4434792521134961 -0.14515487643113514
0.35085488864224273 0.5971671616376902 -0.14515487643113514
0.372711065750588 0.27777459246189595 -0.14515487643113514
0.5550877997808498 0.4820697128332593 -0.14515487643113514
0.36728849429533905 0.5548234105416362 -0.14515487643113514
0.4120169326470475 0.1775969913134939 -0.14515487643113514
0.5462955615513068 0.5036563165996608 -0.14515487643113514
0.3681386871430072 0.5463007456540366 -0.14515487643113514
0.36005148688470107 0.5811586524084278 -0.14515487643113514
0.39599805521232573 0.6468204975825976 -0.14515487643113514
0.46477036202430566 0.5766899558554406 -0.14515487643113514
0.4910433946583412 0.4920957675124669 -0.14515487643113514
0.4374501406388743 0.5385038551485927 -0.14515487643113514
0.44232319720477664 0.3966356998480769 -0.14515487643113514
0.4655790820501363 0.1818686919627531 -0.14515487643113514
0.491520332109472 0.28788359278477854 -0.14515487643113514
0.388740311390769 0.2997033470084567 -0.14515487643113514
0.5142059656545666 0.21201943343859161 -0.14515487643113514
0.30557693540118785 0.3289209499929523 -0.14515487643113514
0.3236279811059455 0.35090154556680997 -0.14515487643113514
0.5635275190247745 0.34665058132846943 -0.14380700972141744
0.5328272626595894 0.5083323772618353 -0.14380700972141744
0.358693251969524 0.3319899388089249 -0.14380700972141744
0.6191114684924398 0.5286955327840317 -0.1430812353392618
0.6524659854552228 0.532127408791082 -0.1430812353392618
0.6287020585423542 0.31634431677074043 -0.1430812353392618
0.649811724857625 0.3381175482354106 -0.1430812353392618
0.6139895749955125 0.42200669860714735 -0.1430812353392618
0.6715745881168358 0.3720630529093776 -0.1430812353392618
0.6077997563362707 0.4466208183676842 -0.1430812353392618
0.6299358749920189 0.2948302904425543 -0.1430812353392618
0.6340727889703062 0.46106372857258215 -0.1430812353392618
0.4799390466113594 0.48870536432725403 -0.1430812353392618
0.40585821860418353 0.5510286473435078 -0.1430812353392618
0.43193425533449104 0.2793401914862603 -0.1430812353392618
0.45598849200022207 0.25422839786367396 -0.1430812353392618
0.444199842392922 0.5966280149538029 -0.1430812353392618
0.42257176580468286 0.3593931058380314 -0.1430812353392618
0.5346313304095192 0.4831272697901147 -0.1430812353392618
0.3927217022871658 0.4959527399433514 -0.1430812353392618
0.52970643281632 0.2814138325781337 -0.1430812353392618
0.3520887050919074 0.6106354605294074 -0.1430812353392618
0.5447299625269424 0.5908529245129357 -0.1430812353392618
0.39127015352285444 0.5465288461741427 -0.1430812353392618
0.5549841177262562 0.22511447693377193 -0.1430812353392618
0.4310322214595262 0.42220369451087536 -0.1430812353392618
0.45294023959516827 0.5438434809601668 -0.1430812353392618
0.5070000628603067 0.4646096548396856 -0.1430812353392618
0.5099964742380637 0.6411905620181614 -0.1430812353392618
0.40706093043747005 0.5679080858313571 -0.1430812353392618
0.42658426131745786 0.6243525963521498 -0.1430812353392618
0.343483094560633 0.5340455268010649 -0.1430812353392618
0.4397104094290161 0.2917198288047443 -0.1430812353392618
0.5143718569419164 0.26940745065618693 -0.1430812353392618
0.4342152605355518 0.1976283642609906 -0.1430812353392618
0.3398542226498545 0.3433223873760127 -0.1430812353392618
0.33056431055826196 0.3322906167672465 -0.1430812353392618
0.5635275190247745 0.15446552493364665 -0.14173336862954408
0.5635275190247745 0.3752979330127 -0.14173336862954408
0.3958114275140571 0.40467105907908607 -0.14173336862954408
0.31497052954737426 0.34588333412447636 -0.1410075942473884
0.32432265087172313 0.32211940721160764 -0.1410075942473884
0.4955120912113283 0.4694930796110474 -0.1410075942473884
0.4519345236656096 0.24485554012840627 -0.1410075942473884
0.4366310524075842 0.6140466001255392 -0.1410075942473884
0.4060241098915334 0.34812286650369967 -0.1410075942473884
0.5232366726096751 0.485708952949497 -0.1410075942473884
0.4162990015017659 0.35561907905082185 -0.1410075942473884
0.5585507804042784 0.48138541127294104 -0.1410075942473884
0.4428416074777449 0.597789253965252 -0.1410075942473884
0.4100158689933897 0.477538807047516 -0.1410075942473884
0.5373685366507921 0.29001944310940814 -0.1410075942473884
0.44762135019451305 0.5920141635243847 -0.1410075942473884
0.40197014155692096 0.5200899222527573 -0.1410075942473884
0.3873820764755919 0.6385881424478603 -0.1410075942473884
0.3394394944314799 0.5351549247852172 -0.1410075942473884
0.47209031507861865 0.48740933864483316 -0.1410075942473884
0.5052374679322144 0.5275342937725828 -0.1410075942473884
0.4148889255592921 0.5128010738148224 -0.1410075942473884
0.5176585780725357 0.1988829171215739 -0.1410075942473884
0.5033400863331502 0.2639641427900193 -0.1410075942473884
0.4138832096297334 0.2734614189907993 -0.1410075942473884
0.40666693863001413 0.27118041378973856 -0.1410075942473884
0.4006533794635814 0.28359115572460064 -0.1410075942473884
0.6164883125112202 0.2999729203504002 -0.1410075942473884
0.6417452610102377 0.38480557741893934 -0.1410075942473884
0.6448557226480476 0.36151858795720154 -0.1410075942473884
0.613688897037191 0.4254282064087385 -0.1410075942473884
0.5658811016640508 0.44489969626142933 -0.1410075942473884
0.6215998378026879 0.460213535724914 -0.1410075942473884
0.6340416843539279 0.5541287407758585 -0.1410075942473884
0.6139169975572969 0.5210230607441003 -0.1410075942473884
0.5362176658448023 0.1570990491203257 -0.13965972753767075
0.5771824456147605 0.4822044995042311 -0.13965972753767075
0.3691132984561876 0.2848975496124809 -0.13965972753767075
0.3576771678345061 0.5356422304418074 -0.13893395315551507
0.324405596515398 0.5351238201688392 -0.13893395315551507
0.32061083331726975 0.31868753120455734 -0.13893395315551507
0.48888680792279293 0.4888608874091445 -0.13893395315551507
0.3912805217283139 0.6412735076618364 -0.13893395315551507
0.4175950271841868 0.1905883527540805 -0.13893395315551507
0.4995245867241032 0.6422999600023137 -0.13893395315551507
0.4065943611917987 0.5599245676276445 -0.13893395315551507
0.527332113766125 0.2144663299270022 -0.13893395315551507
0.4403221335511189 0.5828486698983046 -0.13893395315551507
0.3790771439026391 0.30877552678540265 -0.13893395315551507
0.5187161350293912 0.4946774506718492 -0.13893395315551507
0.49688069433196475 0.5024225001499962 -0.13893395315551507
0.40567159090591504 0.4933295839621316 -0.13893395315551507
0.4725257797079121 0.6232120937516193 -0.13893395315551507
0.39826869220792704 0.6165660740521652 -0.13893395315551507
0.4450604034460494 0.26235707094381744 -0.13893395315551507
0.522977467473191 0.225933565165062 -0.13893395315551507
0.43515876723235414 0.1933670318171908 -0.13893395315551507
0.4401562422637689 0.286794931211545 -0.13893395315551507
0.5005614072700398 0.23437328440898647 -0.13893395315551507
0.6376601880592471 0.3918455889258494 -0.13893395315551507
0.6504960264179432 0.4177349979578883 -0.13893395315551507
0.648567540202501 0.3295948833478111 -0.13893395315551507
0.6591742143874331 0.35784824322458575 -0.13893395315551507
0.6273541918326365 0.49252086393630096 -0.13893395315551507
0.620946640858748 0.5337966898700401 -0.13893395315551507
0.6065037306538498 0.5496704124283307 -0.13893395315551507
0.3636492541791013 0.2799415474029035 -0.1375860864457974
0.5743519255243533 0.46367651634834256 -0.1375860864457974
0.5225627392548162 0.15446552493364665 -0.1375860864457974
0.3755208494300764 0.633289989458124 -0.13686031206364171
0.42458319766380004 0.5935901307542084 -0.13686031206364171
0.3527522702413068 0.5742119547506518 -0.13686031206364171
0.34643803311655247 0.543283597865361 -0.13686031206364171
0.33158039469327993 0.3371844097440676 -0.13686031206364171
0.32309920262751773 0.32470109037099004 -0.13686031206364171
0.42627321515367683 0.5404219731585755 -0.13686031206364171
0.5109814537567036 0.6412942440727553 -0.13686031206364171
0.5118523830152905 0.18569455977725943 -0.13686031206364171
0.5097994783343357 0.6521912280105496 -0.13686031206364171
0.39908778043921705 0.3470964141632223 -0.13686031206364171
0.5418061285874011 0.4909552649119366 -0.13686031206364171
0.4214727360259899 0.47133862018281464 -0.13686031206364171
0.5491675544635514 0.34324980993779725 -0.13686031206364171
0.5520499155812554 0.4654805840982724 -0.13686031206364171
0.423453063268729 0.48887125561460393 -0.13686031206364171
0.48538235447752687 0.6329685750888835 -0.13686031206364171
0.478601548107101 0.1853938818189377 -0.13686031206364171
0.4180408600189396 0.2590910862241169 -0.13686031206364171
0.4599284100747814 0.2744567667148985 -0.13686031206364171
0.6422221984613685 0.34687868184857557 -0.13686031206364171
0.6431138641308739 0.39318308743010766 -0.13686031206364171
0.6337617428065252 0.3226378174845761 -0.13686031206364171
0.6332848053553943 0.4754340613392645 -0.13686031206364171
0.6247621404677949 0.5363161637966665 -0.13686031206364171
0.6018276699916755 0.5456371805046369 -0.13686031206364171
0.3743699786240866 0.2738035697709584 -0.135512445353924
0.5742793480861378 0.45726896537445394 -0.135512445353924
0.5418164967928605 0.15446552493364665 -0.135512445353924
0.4095907725695557 0.2721653933083784 -0.13478667097176833
0.4765279070152276 0.4705195319515246 -0.13478667097176833
0.47967984147487513 0.4984722138699775 -0.13478667097176833
0.411581468017754 0.5247141418876349 -0.13478667097176833
0.5207794079158051 0.23247590280992228 -0.13478667097176833
0.39578032289767906 0.5534444392155403 -0.13478667097176833
0.5194004365897094 0.20862903025337867 -0.13478667097176833
0.47988720558406245 0.623056570669729 -0.13478667097176833
0.4990580174784317 0.2118120693294043 -0.13478667097176833
0.39409030540780227 0.33250834908189325 -0.13478667097176833
0.45818655155760785 0.2503092162000333 -0.13478667097176833
0.41663078407646564 0.1988829171215739 -0.13478667097176833
0.5233507228697282 0.6202053141684031 -0.13478667097176833
0.334639015303793 0.3337525337370172 -0.13478667097176833
0.35103114813505193 0.5825065191181454 -0.13478667097176833
0.3882841103505569 0.6134245077979772 -0.13478667097176833
0.3821772373349898 0.6230462024642696 -0.13478667097176833
0.41114600338846063 0.4548946463242589 -0.13343880426205065
0.5498725924347884 0.2083387205005165 -0.13343880426205065
0.540561943932277 0.5040192037907388 -0.13343880426205065
0.48528904062839257 0.5017485667951374 -0.132713029879895
0.4421469377119673 0.5504583960432425 -0.132713029879895
0.5273839547934218 0.21798115157772754 -0.132713029879895
0.5419823880802103 0.5731647659992558 -0.132713029879895
0.4094559858985839 0.2671471818660449 -0.132713029879895
0.5392451818389374 0.6150834206714758 -0.132713029879895
0.376982766399847 0.22605798363057425 -0.132713029879895
0.5004473570099869 0.5175186072988343 -0.132713029879895
0.5063364977109072 0.4250134781903638 -0.132713029879895
0.4666781118288291 0.45557894788457703 -0.132713029879895
0.5115206004405906 0.4671394969717711 -0.132713029879895
0.48254146618166033 0.6299099544783704 -0.132713029879895
0.41023360130803643 0.25473643993118283 -0.132713029879895
0.5341958657802257 0.21997184702592604 -0.132713029879895
0.3392217621168332 0.5759123404459882 -0.132713029879895
0.4175742907732681 0.5804121416153534 -0.132713029879895
0.42442767458190955 0.5898990496106739 -0.132713029879895
0.358693251969524 0.23475690801098312 -0.1313651631701773
0.5381461520602445 0.5128010738148224 -0.1313651631701773
0.5771824456147605 0.1817753781136188 -0.1313651631701773
0.500198520078962 0.4781194265532405 -0.13063938878802162
0.45129169492712884 0.1927553076950882 -0.13063938878802162
0.4426549797794763 0.5488305877861221 -0.13063938878802162
0.517046853950433 0.18520725412066907 -0.13063938878802162
0.40837769253080974 0.5505620780978364 -0.13063938878802162
0.5003229385444744 0.17248546602202613 -0.13063938878802162
0.42705083056312937 0.5548545151580141 -0.13063938878802162
0.42999540091358945 0.43150397480792746 -0.13063938878802162
0.4646977845860902 0.46428824047044515 -0.13063938878802162
0.5186228211802568 0.43945638839526174 -0.13063938878802162
0.439565254552585 0.1984474524922805 -0.13063938878802162
0.46272782554881053 0.19236131588763214 -0.13063938878802162
0.42238513810641426 0.4896903438458938 -0.13063938878802162
0.31688864755735713 0.3420367298990513 -0.13063938878802162
0.35410013695102455 0.5692041115137779 -0.13063938878802162
0.39121831249555766 0.5907907152801796 -0.13063938878802162
0.562013761027707 0.5061654223208277 -0.13012097851505328
0.4075067632722229 0.4685495729142449 -0.12929152207830394
0.5498725924347884 0.1817753781136188 -0.12929152207830394
0.519079022220469 0.2219936470905025 -0.12856574769614826
0.4397726186617723 0.5347194601559238 -0.12856574769614826
0.5419409152583727 0.23056815300539882 -0.12856574769614826
0.5196285371098155 0.6318177042828939 -0.12856574769614826
0.4761857562350685 0.1821693699210747 -0.12856574769614826
0.4848535759990991 0.6400604276230903 -0.12856574769614826
0.5156678826243374 0.178053192353706 -0.12856574769614826
0.4512605903107508 0.44180997103453806 -0.12856574769614826
0.5473220138917841 0.4252830515323073 -0.12856574769614826
0.46968489141204556 0.4993120385121862 -0.12856574769614826
0.42691604389215754 0.507896912632542 -0.12856574769614826
0.523910605964534 0.4804315363706793 -0.12856574769614826
0.5031119858130442 0.6298166406292359 -0.12856574769614826
0.47887112144904453 0.192807148722385 -0.12856574769614826
0.3431098391640957 0.5563371685387036 -0.12856574769614826
0.4104098608008456 0.5486958011151504 -0.12856574769614826
0.41310559422028104 0.6011278161231681 -0.12856574769614826
0.5771824456147605 0.4379529986036536 -0.12721788098643058
0.37234817855951 0.30468008562895277 -0.12721788098643058
0.5128788353557676 0.4018509071941384 -0.1264921066042749
0.47763730499937984 0.4782956860460497 -0.1264921066042749
0.5263575024529444 0.48158240717666906 -0.1264921066042749
0.433769427700799 0.5305618097667179 -0.1264921066042749
0.5536258828110792 0.4571860197307789 -0.1264921066042749
0.42171120475155544 0.5314949482580609 -0.1264921066042749
0.5348697991350847 0.22733327290207642 -0.1264921066042749
0.43269113433302486 0.5497015170447089 -0.1264921066042749
0.5220961700091448 0.2112729226455173 -0.1264921066042749
0.4505140795176763 0.5152998113305298 -0.1264921066042749
0.5362798750775585 0.43265484561391704 -0.1264921066042749
0.399792818410454 0.2418798651615681 -0.1264921066042749
0.4677253005802253 0.39917591018562165 -0.1264921066042749
0.43842475195205466 0.505408543322294 -0.1264921066042749
0.4942679065562042 0.5042058314890074 -0.1264921066042749
0.44566175936269276 0.3867340636343815 -0.1264921066042749
0.5098616875670919 0.36218215310660096 -0.1264921066042749
0.3418552863035124 0.5750206747764824 -0.1264921066042749
0.349164871152366 0.5784214461671549 -0.1264921066042749
0.495252886074844 0.09984581857370235 -0.12514423989455722
0.4035150041703666 0.5040917812289543 -0.12514423989455722
0.5005406708591211 0.42173712526520385 -0.12441846551240154
0.49072198028910075 0.47607689007774523 -0.12441846551240154
0.5237861874990215 0.22102940398278134 -0.12441846551240154
0.5314793959498716 0.5279179173745792 -0.12441846551240154
0.4946826347745789 0.1826566755776649 -0.12441846551240154
0.48806771969150287 0.4391557104369401 -0.12441846551240154
0.42637689720827054 0.5205046504711319 -0.12441846551240154
0.5727552218836109 0.46135403832544436 -0.12441846551240154
0.495926819429703 0.6391272891317477 -0.12441846551240154
0.5153983092823938 0.20310277674353616 -0.12441846551240154
0.4838997010968374 0.43230232662829865 -0.12441846551240154
0.4458794916773395 0.5227856556721926 -0.12441846551240154
0.4756155049348034 0.5075754982633015 -0.12441846551240154
0.5093640137050423 0.6305009421895542 -0.12441846551240154
0.4569527351079432 0.3886729180552832 -0.12441846551240154
0.3976569680858244 0.21892465827453 -0.12441846551240154
0.5376588464036542 0.41952869750235877 -0.12441846551240154
0.5771824456147605 0.41392986655430064 -0.12307059880268385
0.358693251969524 0.27573205598640066 -0.12307059880268385
0.45643432483497476 0.4165737589464391 -0.12234482442052819
0.4607267618951526 0.45821247207125626 -0.12234482442052819
0.5241905475119368 0.2399306425352071 -0.12234482442052819
0.5287110850922208 0.6086758696975872 -0.12234482442052819
0.5133142999850611 0.225933565165062 -0.12234482442052819
0.5164662344447085 0.38225499887593517 -0.12234482442052819
0.5141541246272697 0.6394487035009877 -0.12234482442052819
0.5043976432900056 0.1773274179715504 -0.12234482442052819
0.516393657006493 0.6481165232650186 -0.12234482442052819
0.39112499864642336 0.21300441295723144 -0.12234482442052819
0.5426459532296097 0.3392165780141035 -0.12234482442052819
0.42339085403597276 0.2169028582099534 -0.12234482442052819
0.44024955611290323 0.4272426423641277 -0.12234482442052819
0.5027594668274257 0.35931016019435635 -0.12234482442052819
0.508534557268293 0.5031897473539895 -0.12234482442052819
0.5309091446496065 0.5968975882957466 -0.12234482442052819
0.5498725924347884 0.1817753781136188 -0.1209969577108105
0.4161227420089567 0.517000197025866 -0.1209969577108105
0.476030233153178 0.4243810176573423 -0.12027118332865482
0.486035551421467 0.4697419165420721 -0.12027118332865482
0.5364353981594491 0.22282310352725182 -0.12027118332865482
0.5306499395131223 0.525025188051416 -0.12027118332865482
0.5102453111690886 0.19132449534169554 -0.12027118332865482
0.46551687281738013 0.42682791414575294 -0.12027118332865482
0.4121206147016412 0.4126131044609611 -0.12027118332865482
0.5323710616193773 0.5161707405891167 -0.12027118332865482
0.3962883649651881 0.21014278825044624 -0.12027118332865482
0.5025002616909415 0.4893067202438972 -0.12027118332865482
0.44052949766030614 0.4804419045761387 -0.12027118332865482
0.5060980289853417 0.6260633502529452 -0.12027118332865482
0.5302559477056664 0.40039935842982705 -0.12027118332865482
0.44976756872460205 0.4328622097231045 -0.12027118332865482
0.3997824502049946 0.29834511209327963 -0.12027118332865482
0.4815875912793986 0.11350074516368835 -0.11892331661893715
0.5352015817097844 0.4575178023054787 -0.11892331661893715
0.37234817855951 0.29102515903896664 -0.11892331661893715
0.4343189425901454 0.49248975931992284 -0.11819754223678147
0.49025541104342923 0.4595707069864333 -0.11819754223678147
0.42667757516659216 0.4959320035324327 -0.11819754223678147
0.4045103518944659 0.3331926506422115 -0.11819754223678147
0.4473621450580288 0.4224317950309815 -0.11819754223678147
0.5683279981524613 0.43044641785107196 -0.11819754223678147
0.4863777022016261 0.46663145490426206 -0.11819754223678147
0.5379595243619759 0.5199343991708668 -0.11819754223678147
0.40216713746064897 0.21070267134525208 -0.11819754223678147
0.5270625404241814 0.40612260784339743 -0.11819754223678147
0.4832776087692755 0.1953992000872267 -0.11819754223678147
0.43517950364327285 0.4556411571173332 -0.11819754223678147
0.4915410685203908 0.48813511302698875 -0.11819754223678147
0.5187887124676067 0.6112679210624289 -0.11819754223678147
0.5908373722047466 0.2090955994990502 -0.1168496755270638
0.49767904615233594 0.39524636031652177 -0.1168496755270638
0.358693251969524 0.2773702324489806 -0.1168496755270638
0.5021788473217011 0.4246816956156641 -0.11612390114490811
0.45281582112965585 0.43464554106211556 -0.11612390114490811
0.4184452200318549 0.23274547615186594 -0.11612390114490811
0.5232159361987563 0.5157041713434452 -0.11612390114490811
0.537596637170898 0.5269018332395613 -0.11612390114490811
0.5125263163701492 0.18207605607194038 -0.11612390114490811
0.44491524856961834 0.4442257629065704 -0.11612390114490811
0.5467828672078971 0.5705416100180362 -0.11612390114490811
0.515377572871475 0.1984785571086586 -0.11612390114490811
0.44318375825790407 0.3599322525219184 -0.11612390114490811
0.5056210915342109 0.2171413269355188 -0.11612390114490811
0.43765750474806153 0.44486859164505127 -0.11612390114490811
0.4909189761928288 0.4890578833128724 -0.11612390114490811
0.5280060471209838 0.5950416795185199 -0.11612390114490811
0.37234817855951 0.2500603792690085 -0.11477603443519042
0.46550650461192067 0.3999224209786961 -0.11477603443519042
0.5908373722047466 0.35931016019435635 -0.11477603443519042
0.5352326863261625 0.5014582570422752 -0.11405026005303474
0.5387371397714285 0.5659070221776992 -0.11405026005303474
0.4984877661781666 0.6271727482370975 -0.11405026005303474
0.40895831203653427 0.2533367321941683 -0.11405026005303474
0.43520024005419167 0.5111732655577019 -0.11405026005303474
0.5687219899599173 0.4647237050997386 -0.11405026005303474
0.4983840841235729 0.4431163649224181 -0.11405026005303474
0.3999690779032632 0.36682710915239736 -0.11405026005303474
0.5166113893211397 0.41060167260184394 -0.11405026005303474
0.5527549535524924 0.35829407605933844 -0.11405026005303474
0.5479337380138868 0.3624724628594633 -0.11405026005303474
0.515377572871475 0.6126676287994434 -0.11405026005303474
0.4828732487563602 0.48218376309331223 -0.11405026005303474
0.5225627392548162 0.47505043773726785 -0.11353184978006642
0.4569319986970244 0.47080984170438694 -0.11270239334331705
0.5168705944576238 0.44614388091655327 -0.11270239334331705
0.5387889807987253 0.21507805404910482 -0.1119766189611614
0.5201884202046212 0.5110073742703519 -0.1119766189611614
0.5309713538823627 0.6014699669033273 -0.1119766189611614
0.5399191151937962 0.5248385603531472 -0.1119766189611614
0.45570855045281916 0.4226184227292501 -0.1119766189611614
0.48860686637539 0.19257904820227886 -0.1119766189611614
0.40067411587450014 0.2637464104753726 -0.1119766189611614
0.44928026306801166 0.44449533624851406 -0.1119766189611614
0.5741652978260847 0.4003682538134489 -0.1119766189611614
0.49073234849456016 0.46420529482677025 -0.1119766189611614
0.507912464940731 0.623139516313404 -0.1119766189611614
0.42840906547830643 0.4226495273456282 -0.1119766189611614
0.5563008798195958 0.33834564875551676 -0.1119766189611614
0.358693251969524 0.23640545267902235 -0.1106287522514437
0.5352015817097844 0.4822044995042311 -0.1106287522514437
0.4708668668344134 0.3718971616220276 -0.1106287522514437
0.4597003095546754 0.4205966226646735 -0.10990297786928803
0.45726378127172423 0.5404219731585755 -0.10990297786928803
0.4597832551983503 0.5193952524869797 -0.10990297786928803
0.4464393747721452 0.5548234105416362 -0.10990297786928803
0.514952476447641 0.2144870663379209 -0.10990297786928803
0.47404990591043905 0.18252188890669307 -0.10990297786928803
0.42506013511493085 0.4847654462526947 -0.10990297786928803
0.5560727792994898 0.370435244652257 -0.10990297786928803
0.499348327231294 0.20433659319320083 -0.10990297786928803
0.5221791156528197 0.343778588416225 -0.10990297786928803
0.4757399234003158 0.4986070005409493 -0.10990297786928803
0.4846773165062899 0.47690634651449454 -0.10990297786928803
0.4846773165062899 0.6116619128698849 -0.10990297786928803
0.5298412194872918 0.4548946463242589 -0.10938456759631969
0.5792560867066339 0.3705700313232287 -0.10855511115957035
0.5195455914661404 0.43203275328635504 -0.10855511115957035
0.38600310514949615 0.41392986655430064 -0.10855511115957035
0.503163826840341 0.5093795660132314 -0.10782933677741467
0.4607267618951526 0.5346261463067896 -0.10782933677741467
0.4622197834813015 0.5190738381177394 -0.10782933677741467
0.4457136003899896 0.5402249772548475 -0.10782933677741467
0.5194108047951688 0.3603366125348337 -0.10782933677741467
0.5379076833346791 0.2342281295325554 -0.10782933677741467
0.44798423738559084 0.40976184795963516 -0.10782933677741467
0.574113456798788 0.43479069593854663 -0.10782933677741467
0.4554597135217943 0.1873742090616768 -0.10782933677741467
0.5475397462064309 0.3220883025952295 -0.10782933677741467
0.515688619035256 0.49705176972204423 -0.10782933677741467
0.5022721611708354 0.6050055249649715 -0.10782933677741467
0.5339366606437417 0.5687686468844845 -0.10782933677741467
0.5434754096663591 0.20915780873180642 -0.10782933677741467
0.39965803173948217 0.46080452343609796 -0.10648147006769698
0.5129928856158208 0.4019960620705695 -0.10648147006769698
0.5498725924347884 0.1408105983436605 -0.10648147006769698
0.5384468300185662 0.5389393197778861 -0.10575569568554131
0.47711889472641156 0.5124485548292039 -0.10575569568554131
0.5099446332107668 0.4489640328015011 -0.10575569568554131
0.46077860292244954 0.4932777429348348 -0.10575569568554131
0.5045635345773555 0.18873244397685382 -0.10575569568554131
0.43802039193913933 0.1904950389049462 -0.10575569568554131
0.42024928778178466 0.42675533670753746 -0.10575569568554131
0.5560209382721929 0.3453545556460486 -0.10575569568554131
0.4520382057202033 0.1882658747311823 -0.10575569568554131
0.5384571982240255 0.30391283842495953 -0.10575569568554131
0.4306693342684483 0.3835613927638153 -0.10575569568554131
0.5025728391291571 0.4582435766876343 -0.10575569568554131
0.5064194433545822 0.6151352616987726 -0.10575569568554131
0.358693251969524 0.2637153058589945 -0.10440782897582362
0.5118523830152905 0.39083987299629075 -0.10440782897582362
0.5771824456147605 0.30468008562895277 -0.10440782897582362
0.4934488183249143 0.4920231900742513 -0.10368205459366794
0.47933769069471605 0.5200484494309198 -0.10368205459366794
0.4903383566871043 0.6140673365364581 -0.10368205459366794
0.5099031603889295 0.6390650798989914 -0.10368205459366794
0.46282113939794467 0.536761996631419 -0.10368205459366794
0.5287836625304363 0.5790331702892574 -0.10368205459366794
0.5620863384659225 0.32739682379042534 -0.10368205459366794
0.4120376690579662 0.43433449489833453 -0.10368205459366794
0.5655907919111884 0.3677809840546591 -0.10368205459366794
0.5746629716881344 0.3682475533003306 -0.10368205459366794
0.48472915753358686 0.31231108484704667 -0.10368205459366794
0.5159167195553621 0.33888479543940375 -0.10368205459366794
0.5225627392548162 0.1245325157724547 -0.10233418788395028
0.4592544767199226 0.4002749399643146 -0.10233418788395028
0.5107326168256787 0.38019172598952106 -0.10233418788395028
0.41451567016275487 0.22432649331886012 -0.1016084135017946
0.40390899597782265 0.40832066740078327 -0.1016084135017946
0.4472688312088945 0.3642972670203119 -0.1016084135017946
0.5182288293728009 0.3449294592222146 -0.1016084135017946
0.43841438374659525 0.3568425272950271 -0.1016084135017946
0.5288769763795707 0.31462319466448546 -0.1016084135017946
0.4369006257495277 0.34887974550223333 -0.1016084135017946
0.47209031507861865 0.5043509863654385 -0.1016084135017946
0.46902132626264614 0.5145636687429148 -0.1016084135017946
0.5154086774878531 0.6255034671581394 -0.1016084135017946
0.5232366726096751 0.6061460275655017 -0.1016084135017946
0.5323814298248366 0.5361295360983979 -0.1016084135017946
0.4755740321129659 0.5954978805587321 -0.1016084135017946
0.39517896698103583 0.4412397197342728 -0.10109000322882625
0.5498725924347884 0.359071691468791 -0.10026054679207691
0.49704658561931453 0.43062267734388116 -0.10026054679207691
0.37234817855951 0.2707864219822827 -0.10026054679207691
0.43560460006710683 0.36989609796836986 -0.09953477240992123
0.5725685941853423 0.3572261508970237 -0.09953477240992123
0.5130758312594956 0.19198806049109507 -0.09953477240992123
0.47181037353121574 0.33937210109599397 -0.09953477240992123
0.4789229624763414 0.2921863980504157 -0.09953477240992123
0.41011955104798326 0.3830844553126845 -0.09953477240992123
0.5138845512853263 0.51660620521841 -0.09953477240992123
0.5032156678676377 0.6103451507765453 -0.09953477240992123
0.5350045858060564 0.513464638964222 -0.09953477240992123
0.5391207633734251 0.5119612491726137 -0.09953477240992123
0.5116864917279405 0.4439250849482488 -0.09953477240992123
0.47719147216462715 0.5947202651492794 -0.09953477240992123
0.5804691667453798 0.3319899388089249 -0.0990163621369529
0.38602384156041486 0.42758479314428677 -0.09818690570020355
0.579370136966687 0.30468008562895277 -0.09818690570020355
0.5051234176721614 0.4315143430133867 -0.09818690570020355
0.4853927226829863 0.4651488015235726 -0.09746113131804787
0.524563802908474 0.4954239614649237 -0.09746113131804787
0.514216333860026 0.5169483559985693 -0.09746113131804787
0.46440747483322786 0.46562573897470355 -0.09746113131804787
0.4519759964874471 0.5374151935753593 -0.09746113131804787
0.5259116696181917 0.5715162213312166 -0.09746113131804787
0.487984774047828 0.3330163911494021 -0.09746113131804787
0.4415559500007835 0.36125938282071735 -0.09746113131804787
0.5698313879440695 0.3879160390567494 -0.09746113131804787
0.44595206911555496 0.17101318084679595 -0.09746113131804787
0.3966201475398878 0.3008127449926089 -0.09746113131804787
0.5076739962151655 0.2790187771170199 -0.09746113131804787
0.48007383328233105 0.2949028678807698 -0.09746113131804787
0.4500578784774642 0.33531813276138167 -0.09746113131804787
0.5815059872913164 0.3183350122189388 -0.09611326460833018
0.44406505572195015 0.38769830674210265 -0.09611326460833018
0.5030394083748285 0.4871708699192678 -0.09611326460833018
0.37234817855951 0.3729650867843425 -0.09611326460833018
0.5357199919827527 0.5530919202299219 -0.09538749022617453
0.5083997705973211 0.6159128771082253 -0.09538749022617453
0.5397324874955276 0.505667748458778 -0.09538749022617453
0.47421579719778884 0.4540444534765908 -0.09538749022617453
0.5254658367834389 0.5693285299792903 -0.09538749022617453
0.39316753512191865 0.28527080500901814 -0.09538749022617453
0.389673449882112 0.3194029373812535 -0.09538749022617453
0.5162588703355213 0.34356085610157827 -0.09538749022617453
0.45680758023151197 0.1620032103026062 -0.09538749022617453
0.41438088349178304 0.3050740774364087 -0.09538749022617453
0.49027614745434805 0.18714610854157065 -0.09538749022617453
0.5357096237772933 0.2586867262112016 -0.09538749022617453
0.5225627392548162 0.14344412253033972 -0.09403962351645682
0.43063822965207016 0.4002749399643146 -0.09403962351645682
0.540561943932277 0.31607474342879677 -0.09403962351645682
0.4815875912793986 0.49268675522365085 -0.09403962351645682
0.5272595363279093 0.5074510797977891 -0.09331384913430116
0.5179903606472356 0.4659471533439438 -0.09331384913430116
0.47663158906982134 0.5179748083390464 -0.09331384913430116
0.4597728869928909 0.5799248359587631 -0.09331384913430116
0.527954206093687 0.5668401606690422 -0.09331384913430116
0.41693146203478737 0.21176022830210753 -0.09331384913430116
0.4092486217893966 0.4415196612816757 -0.09331384913430116
0.4511672764616165 0.3276249243105315 -0.09331384913430116
0.5616508738366291 0.3045245625470623 -0.09331384913430116
0.5392866546607749 0.2564575620374377 -0.09331384913430116
0.4333028584551275 0.1955858277854953 -0.09331384913430116
0.5855288510095508 0.3319899388089249 -0.09279543886133282
0.4815875912793986 0.35931016019435635 -0.09196598242458348
0.4266049977283765 0.3685482312586522 -0.09196598242458348
0.49530472710214096 0.5137756851280029 -0.09196598242458348
0.37234817855951 0.334623462995604 -0.09196598242458348
