0.5346530110588884 0.3544438415772228 -0.21264406184363033
0.5049095341240242 0.5044068400029293 -0.21264406184363033
0.5752244303897233 -0.01836835421239221 -0.2114874205030583
0.4287046642624889 0.4386473311708679 -0.2114874205030583
0.5889350788960427 0.410398590737666 -0.2114874205030583
0.23045633848843977 0.38923205420519746 -0.21086461362736567
0.2018695028941476 0.42463417646778356 -0.21086461362736567
0.4775861067632799 0.4680171239803165 -0.21086461362736567
0.5329981242177624 0.40876149837870246 -0.21086461362736567
0.252218990173357 0.4021864372196044 -0.2097079722867936
0.3994505355870973 0.005066978795813747 -0.2097079722867936
0.5667186679159781 0.4108523500328135 -0.2097079722867936
0.18138805392494095 0.36574333775050355 -0.20908516541110098
0.2715349005609102 0.4326861796463813 -0.20908516541110098
0.5112621642560891 0.3492834417500552 -0.20908516541110098
0.5986686606390107 -0.01836835421239221 -0.2079285240705289
0.4315962676139189 0.403494331658559 -0.2079285240705289
0.5986686606390107 0.40409934405208897 -0.2079285240705289
0.2173595996167317 0.347076925961887 -0.20730571719483626
0.2593100913151718 0.4061279150186307 -0.20730571719483626
0.5569139082443597 0.44675271779595355 -0.20730571719483626
0.4932007648610025 0.5206709966995887 -0.20614907585426423
0.5986686606390107 0.403494331658559 -0.20614907585426423
0.25091109573440246 0.4276592384354333 -0.20614907585426423
0.2236588463023087 0.43556888575673 -0.20552626897857157
0.5344839634783431 0.3776567435583956 -0.20552626897857157
0.558568795085486 0.4201766586860405 -0.20552626897857157
0.43330453790153306 0.4362005898735039 -0.20436962763799954
0.3994505355870973 0.05193764481222567 -0.20436962763799954
0.2426544560109343 0.41135059553336756 -0.20436962763799954
0.16600472409533273 0.4185306690859956 -0.20374682076230688
0.27889291893516466 0.4427667537915206 -0.20374682076230688
0.5050251982580815 0.3619887020141851 -0.20374682076230688
0.24711197379267727 0.4110391920955213 -0.20330195870824072
0.595955002109207 0.403494331658559 -0.20259017942173485
0.3057092035542736 0.028502311804019704 -0.20259017942173485
0.2212387967281888 0.34440775363749 -0.20196737254604222
0.17570271687397532 0.4257908178083556 -0.20196737254604222
0.5344483745140179 0.49577651615404567 -0.20196737254604222
0.6035265542694133 0.42212515448285026 -0.20152251049197603
0.29069066060899956 0.4152119981626619 -0.20081073120547016
0.6455393266554227 0.22771153961485166 -0.20081073120547016
0.17291788041552106 0.4186819221843781 -0.20018792432977753
0.4861541499245943 0.44640572539378204 -0.20018792432977753
0.12368054827147719 0.4176676367011072 -0.19974306227571134
0.4346035350994063 0.0870995415656159 -0.19903128298920544
0.17090710393114197 0.3566147684010657 -0.19903128298920544
0.14108355182654586 0.41493618368914087 -0.1984084761135128
0.26876785858461866 0.41860184701464614 -0.1984084761135128
0.5887927230387416 0.43425209407669413 -0.1984084761135128
0.25785094377783474 0.3985207738940991 -0.19725183477294078
0.29341321637988454 0.4559435678329606 -0.19725183477294078
0.3760152025788913 0.11053487457382187 -0.19725183477294078
0.21948604023516805 0.4935522058837148 -0.19662902789724812
0.4877467560781512 0.3973463380713645 -0.19662902789724812
0.34086220306658244 0.01452474606526059 -0.1954723865566761
0.2892759992770691 0.4152119981626619 -0.1954723865566761
0.2119589742803684 0.579268226461185 -0.1954723865566761
0.22696861998456103 0.4072222756716335 -0.19484957968098346
0.5579103992454679 0.4567265250481172 -0.19484957968098346
0.12046864424111939 0.4152119981626619 -0.1936929383404114
0.41116820209120036 0.4152119981626619 -0.1936929383404114
0.5517890973815175 0.1574055405902338 -0.1936929383404114
0.23321448322365007 0.41681350155730024 -0.19307013146471877
0.5423758163174771 0.413619392009105 -0.19307013146471877
0.3174268700583765 0.4152119981626619 -0.1919134901241467
0.4932007648610025 0.23943810336003593 -0.1919134901241467
0.18757163647646083 0.41154633483715664 -0.19129068324845408
0.5087709367533185 0.36339446610503423 -0.19129068324845408
0.5517890973815175 0.04021997830812262 -0.19013404190788202
0.48894788362412983 0.3640973481504587 -0.19013404190788202
0.09477341199825723 0.2042762066066457 -0.19013404190788202
0.28512098769209104 0.4240469585564162 -0.18951123503218936
0.6093186582133546 0.4332822947988298 -0.18951123503218936
0.1768059747680595 0.005066978795813747 -0.18835459369161733
0.3174268700583765 0.403494331658559 -0.18835459369161733
0.2848629677007327 0.42466976543210877 -0.18773178681592467
0.5517890973815175 0.1574055405902338 -0.18657514547535264
0.1983639899081061 0.3905132569209081 -0.18657514547535264
0.5892909685392959 0.4253281612721268 -0.18657514547535264
0.1257447082023442 0.43244595413718545 -0.18595233859966
0.5872268086084288 0.42979457629495105 -0.18479569725908795
0.5440129086764408 0.3538299319426115 -0.18479569725908795
0.537224313731391 0.4101761597106328 -0.18417289038339532
0.6455393266554227 0.09881720806971894 -0.1830162490428233
0.5517890973815175 0.3434913378061137 -0.1830162490428233
0.5283537643733114 0.5558328934529789 -0.1830162490428233
0.17065798118086498 0.49330308313343785 -0.18239344216713063
0.4932007648610025 0.12225254107792491 -0.18123680082655858
0.4463300988445906 0.46434256341373004 -0.18123680082655858
0.24272563393958485 0.43468805888967904 -0.18061399395086591
0.38773286908299437 0.030762211038675904 -0.17945735261029389
0.5400714308774144 0.579268226461185 -0.17945735261029389
0.5058704361608072 0.40732014532352806 -0.17883454573460122
0.5049184313651055 0.22771153961485166 -0.1776779043940292
0.4463300988445906 0.49723566369138283 -0.1776779043940292
0.23841047201514298 0.4713446921447317 -0.17705509751833656
0.2822649733049863 0.08935054355919074 -0.1758984561777645
0.4365520308962161 0.43167189416311036 -0.1758984561777645
0.18839907989702392 0.4052026019461731 -0.17527564930207187
0.23539430728857436 0.2174085344426791 -0.17411900796149984
0.5517890973815175 0.3566147684010657 -0.17411900796149984
0.17117402116358169 0.43625397331999183 -0.17349620108580718
0.4580477653486936 0.5675505599570819 -0.17233955974523513
0.1768059747680595 -0.006650687708289296 -0.17233955974523513
0.2236766407844713 0.3800501014092717 -0.17127189081547634
0.4168179501778408 0.49723566369138283 -0.17056011152897044
0.20024130777626548 0.18084087359843973 -0.17056011152897044
0.18003567328057993 0.4105231521128045 -0.1699373046532778
0.48148309835689945 0.6144212259734939 -0.16878066331270575
0.38773286908299437 0.18310077283309595 -0.16878066331270575
0.2377431789340437 0.41141287622093686 -0.16815785643701311
0.2078751406240409 0.36833243490516865 -0.16771299438294693
0.16508830826395646 0.36833243490516865 -0.16700121509644106
0.1931857955987759 0.6261388924775969 -0.16700121509644106
0.4828354790012607 0.5013372918298729 -0.16637840822074842
0.4463300988445906 0.48551799718727984 -0.1652217668801764
0.3760152025788913 0.07537297782043162 -0.1652217668801764
0.2299314012646417 0.40367227648018544 -0.16459896000448374
0.5529190469988454 0.39177666515445597 -0.16415409795041758
0.24491435524559038 0.40877039561978373 -0.16344231866391168
0.6455393266554227 0.09881720806971894 -0.16344231866391168
0.48111831147256523 0.4250612440396871 -0.16281951178821902
0.5283537643733114 0.13397020758202782 -0.161662870447647
0.11820874500646318 0.028502311804019704 -0.161662870447647
0.18007126224490513 0.5190872877871131 -0.16104006357195436
0.4775861067632799 0.4526693831150336 -0.16104006357195436
0.558844609559007 0.579268226461185 -0.1598834222313823
0.3057092035542736 0.03796897631454779 -0.1598834222313823
0.23841047201514298 0.4603565994092971 -0.15926061535568967
0.4870082850684014 0.5139001962367016 -0.15926061535568967
0.24376661114609974 0.3998019766098097 -0.15881575330162348
0.5517890973815175 0.532397560444773 -0.15810397401511764
0.6221039936472166 0.016784645299916662 -0.15810397401511764
0.5282203057570917 0.38598456121051444 -0.15748116713942498
0.24100846641088944 0.45292740310639196 -0.15748116713942498
0.4784669336303308 0.403494331658559 -0.15632452579885295
0.4463300988445906 0.09881720806971894 -0.15632452579885295
0.5058793334018885 0.5177793933481587 -0.1557017189231603
0.2198686216016649 0.5107683673760757 -0.1557017189231603
0.23325896942905677 0.38634934809484867 -0.1557017189231603
0.16508830826395646 0.5895712316333575 -0.15454507758258823
0.4463300988445906 0.22771153961485166 -0.15454507758258823
0.4877467560781512 0.5176014485265321 -0.1539222707068956
0.2451367862726235 0.43133379900202 -0.1539222707068956
0.1732025921301235 0.38658957360404445 -0.1539222707068956
0.47471229789401237 0.4210396910709287 -0.15276562936632354
0.41116820209120036 0.026242412569363507 -0.15276562936632354
0.5516556387652974 0.43689457467784715 -0.1521428224906309
0.2402077147135703 0.41663555673567365 -0.1521428224906309
0.16508830826395646 0.403494331658559 -0.15169796043656472
0.3994505355870973 0.005066978795813747 -0.15098618115005885
0.5986686606390107 0.33543933462751596 -0.15098618115005885
0.4850419947894289 0.503703957957505 -0.15036337427436622
0.2374584672194414 0.4325349265479986 -0.15036337427436622
0.16508830826395646 0.12225254107792491 -0.14920673293379413
0.3994505355870973 0.5463662289424508 -0.14920673293379413
0.3994505355870973 0.005066978795813747 -0.14920673293379413
0.4838408672434503 0.44159231796878584 -0.1485839260581015
0.19622865204858853 0.38088644207091604 -0.1485839260581015
0.5340835876296837 0.3978979670184065 -0.1474272847175295
0.41116820209120036 0.18084087359843973 -0.1474272847175295
0.22036686710221898 0.5063731302819019 -0.14680447784183684
0.5161022634043292 0.4061101205364681 -0.14680447784183684
0.15337064175985354 0.005066978795813747 -0.14564783650126478
0.2426544560109343 0.5206709966995887 -0.14564783650126478
0.32914453656247955 0.1574055405902338 -0.14564783650126478
0.22717325652943143 0.5246480634629402 -0.14502502962557215
0.5487551381727861 0.4184950801216703 -0.14502502962557215
0.5458457403391933 0.42466976543210877 -0.14502502962557215
0.3174268700583765 0.25115576986413896 -0.14386838828500012
0.47458773651887387 0.4306487114387581 -0.14386838828500012
0.1940755197069082 0.35611652290051166 -0.14386838828500012
0.23669330448644757 0.40603004536673615 -0.1432455814093075
0.48332482726073334 0.39106488586795013 -0.1432455814093075
0.49489124066645396 0.43238367344961615 -0.1432455814093075
0.4931117924501893 0.3644621350347931 -0.14280071935524127
0.3994505355870973 0.2159938731107486 -0.1420889400687354
0.5283537643733114 0.5558328934529789 -0.1420889400687354
0.16811337023160647 0.5247281386326723 -0.1420889400687354
0.4880314677927537 0.404321775079122 -0.14146613319304277
0.17584507273127653 0.42448292336940086 -0.14146613319304277
0.1853384289650486 0.42410034200290414 -0.14146613319304277
0.11820874500646318 0.028502311804019704 -0.1403094918524707
0.4697654318527965 0.09881720806971894 -0.1403094918524707
0.1954901810388387 0.35063582239441643 -0.1403094918524707
0.1814859235768356 0.5090600970884616 -0.13968668497677805
0.23371272872420415 0.4118043548285151 -0.13968668497677805
0.4985035205454713 0.4172672608524476 -0.13968668497677805
0.4977116660892335 0.3466320639078208 -0.13924182292271192
0.2822649733049863 0.05193764481222567 -0.13853004363620605
0.5108884801306735 0.36833243490516865 -0.13853004363620605
0.5517890973815175 0.04021997830812262 -0.13853004363620605
0.5296972477765913 0.43436775821075135 -0.13790723676051342
0.22430834490124538 0.35280674921825933 -0.13790723676051342
0.17903028503839039 0.4372148753567748 -0.13790723676051342
0.16508830826395646 0.5675505599570819 -0.13675059541994133
0.5517890973815175 0.36833243490516865 -0.13675059541994133
0.3057092035542736 0.19255854010254267 -0.13675059541994133
0.2238012021596099 0.3952198974529281 -0.1361277885442487
0.227351201351058 0.458924143595204 -0.1361277885442487
0.5540312021340108 0.48087363734282906 -0.1361277885442487
0.49743585161571247 0.4869148640370477 -0.1361277885442487
0.41116820209120036 0.1691232070943367 -0.13497114720367667
0.48148309835689945 0.5138379155491323 -0.13497114720367667
0.492969436592888 0.41638643398539665 -0.13434834032798404
0.49640377165027905 0.48741310953760164 -0.13434834032798404
0.17710848096482443 0.4833826593277621 -0.13434834032798404
0.20218980357307526 0.3968836815351356 -0.13434834032798404
0.2549771349085672 0.4380868049827446 -0.13319169898741198
0.09477341199825723 0.04021997830812262 -0.13319169898741198
0.18774958129808725 0.35667704908863507 -0.13256889211171932
0.18505371725044628 0.44717088812677575 -0.13256889211171932
0.23024280470248812 0.5164714989092042 -0.13256889211171932
0.5123921138734172 0.4435586082477584 -0.13256889211171932
0.5392706791800953 0.36438205986506117 -0.13256889211171932
0.4932007648610025 0.22771153961485166 -0.13141225077114727
0.5635067638856203 0.5441152269488762 -0.13141225077114727
0.5412013804947425 0.4002379414227946 -0.1307894438954546
0.48488184444996507 0.49223541420367894 -0.1307894438954546
0.22368553802555266 0.5452896627716106 -0.1307894438954546
0.21372062801447037 0.39706162635676207 -0.1307894438954546
0.2374139810140348 0.35860775040328224 -0.1307894438954546
0.24711197379267727 0.5206709966995887 -0.1296328025548826
0.2822649733049863 0.2534067718577138 -0.1296328025548826
0.5290210574544107 0.42396688338668415 -0.12900999567918997
0.5474383464927502 0.48278654417531364 -0.12900999567918997
0.23689794103131798 0.5230643545504647 -0.12900999567918997
0.2028037132076866 0.42257891377799767 -0.12900999567918997
0.22106085190656224 0.3514899575382234 -0.12900999567918997
0.2588296402967803 0.0870995415656159 -0.12785335433861789
0.18852364127216242 0.5661358986251516 -0.12785335433861789
0.498521315027634 0.35363419263882245 -0.12723054746292525
0.48606517751378114 0.48771561573436656 -0.12723054746292525
0.2021809063319939 0.5091935557046815 -0.12723054746292525
0.20902288472353167 0.4201944531682031 -0.12723054746292525
0.09477341199825723 0.05193764481222567 -0.12607390612235325
0.558844609559007 0.579268226461185 -0.12607390612235325
0.5517890973815175 0.005066978795813747 -0.12607390612235325
0.5501253132993099 0.4152208954037433 -0.1254510992466606
0.5445823321056454 0.5266855316705635 -0.1254510992466606
0.18966248813057182 0.45456449546535543 -0.1254510992466606
0.19537451690478144 0.39683919532972906 -0.1254510992466606
0.48148309835689945 0.1691232070943367 -0.12429445790608852
0.09477341199825723 0.05193764481222567 -0.12429445790608852
0.5002028935920041 0.3435358240115203 -0.12367165103039589
0.4977294605713963 0.49324969968694987 -0.12367165103039589
0.2283832813164915 0.530306708790662 -0.12367165103039589
0.22926410818354243 0.40174157516553827 -0.12367165103039589
0.15337064175985354 -0.01836835421239221 -0.12251500968982382
0.244683026977476 0.42257891377799767 -0.12251500968982382
0.4463300988445906 0.49723566369138283 -0.12251500968982382
0.5432299514612842 0.41659107053026706 -0.12189220281413117
0.49465991239833945 0.5492845240171249 -0.12189220281413117
0.17503542379287604 0.43152953830580904 -0.12189220281413117
0.24711197379267727 0.4202389393736097 -0.12144734076006503
0.3994505355870973 0.05193764481222567 -0.12073556147355916
0.16547088963045342 0.4264047274429668 -0.12073556147355916
0.5481946119846628 0.36607253567051257 -0.12011275459786652
0.5540312021340108 0.4763271471502728 -0.12011275459786652
0.18024030982545033 0.496497192681633 -0.12011275459786652
0.22904167715650942 0.3366760511378199 -0.12011275459786652
0.5752244303897233 0.026242412569363507 -0.11895611325729445
0.41030516970631203 0.3214617688887567 -0.11895611325729445
0.3044902815261323 0.3418898344114754 -0.11895611325729445
0.5122052718107093 0.4075247818683984 -0.1183333063816018
0.5502854636387737 0.5391594636665789 -0.1183333063816018
0.1732025921301235 0.4159059829670052 -0.1183333063816018
0.3826970306309653 0.3366493594145759 -0.11788844432753566
0.32914453656247955 0.1574055405902338 -0.11717666504102979
0.3320895233603975 0.30974410238465383 -0.11717666504102979
0.18852364127216242 0.19255854010254267 -0.11717666504102979
0.5285584009181817 0.4302572328311798 -0.11655385816533716
0.1884257716202679 0.5366059554762389 -0.11655385816533716
0.23279631289282787 0.4324103651728602 -0.11655385816533716
0.34589804151861153 0.36833243490516865 -0.11610899611127094
0.16508830826395646 0.579268226461185 -0.11539721682476509
0.5600368398639042 0.4354354271405102 -0.11539721682476509
0.5635067638856203 0.14568787408613088 -0.11539721682476509
0.5426071445855916 0.36359020540882336 -0.11477440994907244
0.22337413458770639 0.3315423430338963 -0.11477440994907244
0.22750245444944045 0.4811939380217567 -0.11477440994907244
0.3918967779090538 0.36168619581742006 -0.1143295478950063
0.2209007015670984 0.44718868260893846 -0.11361776860850037
0.33669829424052305 0.36833243490516865 -0.11361776860850037
0.16508830826395646 0.1691232070943367 -0.11361776860850037
0.5065644209651504 0.35808281317948415 -0.11299496173280772
0.22783165236944947 0.3332773050447543 -0.11299496173280772
0.18512489517909683 0.48260859935368705 -0.11299496173280772
0.09477341199825723 0.05193764481222567 -0.11183832039223571
0.4580477653486936 0.2980264358805509 -0.11183832039223571
0.2874342703732352 0.3167818200799806 -0.11183832039223571
0.5502854636387737 0.5587333940454906 -0.11121551351654307
0.5183265736746601 0.37174897548039687 -0.11121551351654307
0.2365865375934717 0.4282998397932886 -0.11121551351654307
0.18826562128080407 0.5089711246776484 -0.11121551351654307
0.2841867773785521 0.34791326662353145 -0.110058872175971
0.4697654318527965 0.49723566369138283 -0.110058872175971
0.2588296402967803 0.0870995415656159 -0.110058872175971
0.545009399677549 0.5617851477363844 -0.10943606530027836
0.5285584009181817 0.4406759021374097 -0.10943606530027836
0.20340872560121656 0.4317074831274356 -0.10943606530027836
0.1799111119054413 0.5077966888549136 -0.10943606530027836
0.32914453656247955 0.5558328934529789 -0.10827942395970634
0.23032287987221992 0.31747580488432386 -0.10827942395970634
0.48430352377967906 0.3615527372012002 -0.10827942395970634
0.22673729171644663 0.4330598637717969 -0.10765661708401371
0.4339451392593884 0.32289422470284984 -0.10765661708401371
0.5499562657187647 0.4310579845284989 -0.10765661708401371
0.5408365936104084 0.5490265040257666 -0.10765661708401371
0.24711197379267727 0.42692966466676485 -0.10649997574344164
0.4463300988445906 0.36833243490516865 -0.10649997574344164
0.11255899691982288 0.05193764481222567 -0.10649997574344164
0.5176592805935606 0.39919696421627976 -0.10587716886774899
0.1854185041347805 0.32997642860358334 -0.10587716886774899
0.1808453222189803 0.4937568424285852 -0.10587716886774899
0.4822215693666493 0.5117737556182652 -0.10472052752717692
0.4580477653486936 0.36833243490516865 -0.10472052752717692
0.549635965039837 0.4128186403117859 -0.10472052752717692
0.5500452381295781 0.5490087095436039 -0.10409772065148427
0.4348526578496834 0.3621577495947303 -0.10409772065148427
0.2302694964257321 0.5005276428914726 -0.10409772065148427
0.4517129296987913 0.3566147684010657 -0.10365285859741813
0.24711197379267727 0.1574055405902338 -0.10294107931091227
0.17049783084140116 0.5810298801952871 -0.10294107931091227
0.4971422426600289 0.5181441802324929 -0.10231827243521963
0.5097585305133453 0.3892676431695228 -0.10231827243521963
0.19810596991674775 0.3695780486565539 -0.10231827243521963
0.2403322760887088 0.3224048764433771 -0.10187341038115341
0.5517890973815175 0.39177666515445597 -0.10116163109464756
0.45401731513885407 0.3548531146669636 -0.10116163109464756
0.41116820209120036 0.016784645299916662 -0.10116163109464756
0.4947310903269901 0.42167139518770286 -0.10053882421895491
0.29839567138542566 0.32502066532128615 -0.10053882421895491
0.22325847045364913 0.5584664768130508 -0.10053882421895491
0.2545055811312571 0.3187214186357092 -0.10009396216488876
0.5049184313651055 0.19255854010254267 -0.09938218287838291
0.24711197379267727 0.4386473311708679 -0.09938218287838291
0.5283537643733114 0.14568787408613088 -0.09938218287838291
0.47638497921730133 0.3334018664198929 -0.09875937600269026
0.4311247138366088 0.35841201109949306 -0.09875937600269026
0.22839217855757274 0.5155194941135024 -0.09875937600269026
0.46091267697687965 0.360307123449815 -0.09831451394862405
0.21430784592583774 0.5675505599570819 -0.09760273466211819
0.20894280955379976 0.2980264358805509 -0.09760273466211819
0.5264586520229896 0.3058204190677902 -0.09760273466211819
0.5502854636387737 0.5802469229801305 -0.09697992778642554
0.4372727074238033 0.33247655334743526 -0.09697992778642554
0.2257319034742571 0.38569095225483074 -0.09697992778642554
0.5483191733598012 0.2980264358805509 -0.0965350657323594
0.49167043939501487 0.590985892965288 -0.09582328644585347
0.27054730680088324 0.07537297782043162 -0.09582328644585347
0.48148309835689945 0.46208266417907395 -0.09582328644585347
0.541459400486101 0.5251907951689011 -0.09520047957016083
0.2827899105287843 0.3460982294429414 -0.09520047957016083
0.22306273114986008 0.3111409692344216 -0.09520047957016083
0.18334544696283223 0.5249861586240306 -0.09520047957016083
0.6455393266554227 0.2980264358805509 -0.09404383822958882
0.17049783084140116 0.5902919081609448 -0.09404383822958882
0.3525798695706855 0.07537297782043162 -0.09404383822958882
0.5371264440794965 0.3349321918858805 -0.09342103135389618
0.28133076299144727 0.3264976073407858 -0.09342103135389618
0.17773128784051714 0.3144062567112673 -0.09342103135389618
0.2308834060603433 0.5644454228197002 -0.09342103135389618
0.2236766407844713 0.1691232070943367 -0.09226439001332411
0.5560419786183899 0.33317943539285977 -0.09226439001332411
0.498574698474122 0.4009497207093005 -0.09164158313763146
0.5008701866731032 0.3595775496811464 -0.09164158313763146
0.2839732435926003 0.33261001196365503 -0.09164158313763146
0.23419317974259563 0.33755687800487094 -0.09164158313763146
0.1804894325757273 0.5615093332628633 -0.09164158313763146
0.24711197379267727 0.45036499767497096 -0.09048494179705946
0.20024130777626548 0.5675505599570819 -0.09048494179705946
0.5317258187431331 0.3166483614637608 -0.08986213492136681
0.47630490404756926 0.3425393330104121 -0.08986213492136681
0.22976235368409664 0.3182231731351551 -0.08986213492136681
0.4453958885310516 0.34971940656304 -0.08986213492136681
0.4697654318527965 0.3800501014092717 -0.0894172728673006
0.2588296402967803 0.48551799718727984 -0.08870549358079474
0.1768059747680595 0.016784645299916662 -0.08870549358079474
0.5349110310502467 0.31722668213404676 -0.0880826867051021
0.2790619665157098 0.3748185236534534 -0.0880826867051021
0.22193278153253193 0.3496037424289829 -0.0880826867051021
0.19032088397058974 0.39675022291891576 -0.0880826867051021
0.4463300988445906 0.48551799718727984 -0.08692604536453002
0.4346124323404877 0.04968664281865083 -0.08692604536453002
0.536405767551909 0.5732981776956171 -0.08630323848883738
0.5500274436474153 0.30410325153909473 -0.08630323848883738
0.47175841385501305 0.3143083870593728 -0.08630323848883738
0.18258918147091968 0.3365603870037626 -0.08630323848883738
0.17459945897989126 0.5362767575562302 -0.08630323848883738
0.5400714308774144 0.2042762066066457 -0.08514659714826538
0.5635067638856203 0.6144212259734939 -0.08514659714826538
0.20349769801202985 0.37647341049457966 -0.08452379027257273
0.5282469974803354 0.3069503686851183 -0.08452379027257273
0.4425843603493535 0.32257392402392215 -0.08452379027257273
0.49658171647190535 0.5362945520383927 -0.08452379027257273
0.08305574549415431 0.22771153961485166 -0.08336714893200066
0.3760152025788913 0.13397020758202782 -0.08336714893200066
0.5420377211563869 0.39929483386817427 -0.08274434205630801
0.49961567568063675 0.3671757935645966 -0.08274434205630801
0.23025170194356936 0.37287002785664364 -0.08274434205630801
0.19420008108204684 0.40404596060560105 -0.08274434205630801
0.4697654318527965 0.0870995415656159 -0.08158770071573601
0.5288698043560284 0.5558328934529789 -0.08158770071573601
0.5233446176445263 0.561776250495303 -0.08096489384004336
0.48848522708790104 0.3416407116611983 -0.08096489384004336
0.4425131824207028 0.30526879012074815 -0.08096489384004336
0.2345935555912552 0.41619959192268885 -0.08096489384004336
0.24711197379267727 0.590985892965288 -0.08052003178597716
0.1648124937904354 0.30974410238465383 -0.0798082524994713
0.5014129183790641 0.5775599561735708 -0.07918544562377865
0.50017620186876 0.4003447083157705 -0.07918544562377865
0.2616945519249665 0.3625403309612271 -0.07918544562377865
0.5317080242609704 0.3206877089146817 -0.07918544562377865
0.23409531009070111 0.4054161357321248 -0.07918544562377865
0.48148309835689945 0.6261388924775969 -0.07802880428320658
0.5517890973815175 0.1691232070943367 -0.07802880428320658
0.544048497640766 0.5814836394904345 -0.07740599740751394
0.4420505258844741 0.37358180714314954 -0.07740599740751394
0.495496253059984 0.33766364489784684 -0.07740599740751394
0.18121010910331453 0.40733793980569066 -0.07740599740751394
0.4580477653486936 0.5675505599570819 -0.07624935606694193
0.4697654318527965 0.13397020758202782 -0.07624935606694193
0.5366193013378608 0.5460548255046046 -0.07562654919124928
0.47591342543999093 0.36829684594084344 -0.07562654919124928
0.25803778584054254 0.31004660858141886 -0.07562654919124928
0.4959233206318876 0.36392830056991365 -0.07562654919124928
0.1918779011598213 0.5176726264551827 -0.07562654919124928
0.3174268700583765 0.403494331658559 -0.07446990785067721
0.16508830826395646 0.14568787408613088 -0.07446990785067721
0.522099003893141 0.3696403293441232 -0.07384710097498458
0.4498445090717133 0.34525299154021566 -0.07384710097498458
0.5402404784579596 0.5304490646479633 -0.07384710097498458
0.41116820209120036 0.016784645299916662 -0.07269045963441256
0.32914453656247955 0.1691232070943367 -0.07269045963441256
0.5475362161446448 0.38407165437802987 -0.07206765275871992
0.24830420409757462 0.3400747972308855 -0.07206765275871992
0.18650396754670198 0.32063432546819376 -0.07206765275871992
0.18124569806763988 0.5812879001866454 -0.07206765275871992
0.24711197379267727 0.45036499767497096 -0.07091101141814785
0.16508830826395646 0.1691232070943367 -0.07091101141814785
0.1731225169603916 0.369328925906277 -0.07028820454245521
0.23176423292739437 0.3271026197343158 -0.07028820454245521
0.497782844017884 0.5341503169377938 -0.07028820454245521
0.5295904808836154 0.5644098338553747 -0.06913156320188314
0.6455393266554227 0.14568787408613088 -0.06913156320188314
0.2642569573563876 0.31437956498802333 -0.0685087563261905
0.2336860370009602 0.5892598281955111 -0.0685087563261905
0.5315567711625879 0.4047399454099443 -0.0685087563261905
0.23539430728857436 0.19255854010254267 -0.06735211498561848
0.19548128379775734 0.5675505599570819 -0.06735211498561848
0.5002028935920041 0.37817278354111244 -0.06672930810992585
0.2658317690277819 0.3109986133771205 -0.06672930810992585
0.22324067597148653 0.612632880516148 -0.06672930810992585
0.3994505355870973 0.1574055405902338 -0.06557266676935378
0.3525798695706855 0.028502311804019704 -0.06557266676935378
0.5062708120094666 0.3924617527177179 -0.06494985989366113
0.2564184879637416 0.302128064019041 -0.06494985989366113
0.18840797713810517 0.5975698513654673 -0.06494985989366113
0.48148309835689945 0.4738003306831768 -0.06379321855308911
0.29399153705017056 0.0870995415656159 -0.06379321855308911
0.497782844017884 0.5563400361946145 -0.06317041167739648
0.2537493156393446 0.37107278515821635 -0.06317041167739648
0.1965667472096788 0.383030677171515 -0.06317041167739648
0.16508830826395646 0.5675505599570819 -0.062013770336824404
0.4631280900061293 0.3214617688887567 -0.062013770336824404
0.498058658491405 0.6138606997853706 -0.061390963461131765
0.4746055310010365 0.3771673952989229 -0.061390963461131765
0.28647336833645226 0.3193353282703205 -0.061390963461131765
0.23021611297924416 0.5963687238194887 -0.061390963461131765
0.27054730680088324 0.11053487457382187 -0.060234322120559694
0.4974447488567938 0.5436703648948099 -0.05961151524486705
0.2875588317483737 0.38026363519522344 -0.05961151524486705
0.29597562181130566 0.31145237267226783 -0.05961151524486705
0.4697654318527965 0.49723566369138283 -0.05845487390429504
0.5283537643733114 0.11053487457382187 -0.05845487390429504
0.5445022569359134 0.5613224912001556 -0.0578320670286024
0.2403767622941155 0.35137429340416626 -0.0578320670286024
0.23153290465928 0.392354985824742 -0.0578320670286024
0.2588296402967803 0.2628734363682419 -0.05667542568803033
0.3525798695706855 0.14568787408613088 -0.05667542568803033
0.47739036745949087 0.3414983558038972 -0.05605261881233768
0.44834977257005104 0.34849158729381746 -0.05605261881233768
0.23018942125600017 0.6172505486373548 -0.05605261881233768
0.6455393266554227 0.25115576986413896 -0.054895977471765674
0.4822215693666493 0.5623189822012639 -0.054895977471765674
0.488672069150609 0.3010426006071195 -0.054273170596073034
0.18327426903418156 0.3465519887380889 -0.054273170596073034
0.49470439860374626 0.5524430446009947 -0.054273170596073034
0.16942126467056093 0.36833243490516865 -0.05311652925550096
0.49396592759399643 0.5493201129814501 -0.052493722379808316
0.2895429165095088 0.37362629334855624 -0.052493722379808316
0.2896318889203221 0.37048556724684895 -0.052493722379808316
0.5752244303897233 0.026242412569363507 -0.051337081039236246
0.32914453656247955 0.1691232070943367 -0.051337081039236246
0.1918779011598213 0.5435991869661592 -0.0507142741635436
0.5027386073001813 0.37860874835409725 -0.0507142741635436
0.4460364898889069 0.3391850731227531 -0.0507142741635436
0.4580477653486936 0.5675505599570819 -0.0495576328229716
0.3994505355870973 0.01452474606526059 -0.0495576328229716
0.2072345392661856 0.6244039304667389 -0.04893482594727895
0.5423847135585584 0.3900950865900859 -0.04893482594727895
0.18586336618884666 0.3827459654569127 -0.04893482594727895
0.32914453656247955 0.5558328934529789 -0.04777818460670688
0.3760152025788913 0.07537297782043162 -0.04777818460670688
0.5433100266310162 0.6146169652772829 -0.047155377731014234
0.5097140443079388 0.3765712801464742 -0.047155377731014234
0.2721221184722775 0.31727116833945346 -0.047155377731014234
0.2611963064244124 0.33094622788144756 -0.047155377731014234
0.23539430728857436 0.19255854010254267 -0.04599873639044223
0.22652375793049487 0.6078372675733145 -0.045375929514749586
0.5415839618612392 0.3828972185552951 -0.045375929514749586
0.4497733311430628 0.3162924718205079 -0.045375929514749586
0.20970797228679355 0.3464274273629504 -0.045375929514749586
0.4932007648610025 0.2042762066066457 -0.044219288174177515
0.22664831930563337 0.6149639576794547 -0.04359648129848487
0.5339056428080572 0.6206315002482578 -0.04359648129848487
0.4699878628798297 0.3261328204564516 -0.04359648129848487
0.17741098716158948 0.38076188069577754 -0.04359648129848487
0.18852364127216242 0.0870995415656159 -0.0424398399579128
0.5599745591763349 0.33317943539285977 -0.0424398399579128
0.19408441694798959 0.6250712235478381 -0.04181703308222016
0.5288520098738656 0.6173751100124932 -0.04181703308222016
0.27295845913392186 0.36366138333747394 -0.04181703308222016
0.2972746190091789 0.3623801806217633 -0.04181703308222016
0.299641285136811 0.25115576986413896 -0.04066039174164815
0.41116820209120036 0.46208266417907395 -0.04066039174164815
0.4980942474557305 0.5642407862748298 -0.0400375848659555
0.48627871129973294 0.3673715328683858 -0.0400375848659555
0.29150920678848136 0.3130004926204182 -0.0400375848659555
0.1892087288354243 0.3540790546928886 -0.0400375848659555
0.4463300988445906 0.22771153961485166 -0.03888094352538343
0.29399153705017056 0.3859311777640265 -0.03888094352538343
0.5400269446720078 0.6166544334849061 -0.03825813664969079
0.43521744473401763 0.3003842047671015 -0.03825813664969079
0.18960910468408387 0.3574689035448728 -0.03825813664969079
0.24711197379267727 0.42692966466676485 -0.037101495309118784
0.6221039936472166 0.04021997830812262 -0.037101495309118784
0.48854750777547035 0.6191545582287581 -0.03647868843342614
0.29384918119286935 0.2892804478976099 -0.03647868843342614
0.2538649797734018 0.3387046221043616 -0.03647868843342614
0.5049184313651055 0.22771153961485166 -0.03532204709285407
0.22935308059435572 0.6289148316949696 -0.03469924021716143
0.5052298348029518 0.5974897761957354 -0.03469924021716143
0.23547438245830626 0.3091746789554492 -0.03469924021716143
0.27810106447892685 0.3391761758816718 -0.03469924021716143
0.4779597908886955 0.3214617688887567 -0.033542598876589357
0.2606713692006142 0.3539455960766687 -0.03291979200089671
0.4044685795569638 0.29022355545223016 -0.03291979200089671
0.5403205536276914 0.5865016834603008 -0.03291979200089671
0.21682576515185228 0.6209251092039413 -0.03291979200089671
0.25819793618000636 0.30247505642121264 -0.0317631506603247
0.2233474428644624 0.5933080728875134 -0.031140343784632058
0.5447513796861906 0.326693346644575 -0.031140343784632058
0.2965717369637544 0.36296739853313065 -0.031140343784632058
0.14164407801466913 0.016784645299916662 -0.029983702444059988
0.41116820209120036 0.403494331658559 -0.029983702444059988
0.5177126640400486 0.3299230451570954 -0.029360895568367344
0.2498167350813996 0.3300031203268273 -0.029360895568367344
0.4580477653486936 0.5558328934529789 -0.028204254227795336
0.24711197379267727 0.11053487457382187 -0.028204254227795336
0.22299155322120942 0.5998297506001236 -0.027581447352102693
0.28829730275812354 0.33483432223398585 -0.027581447352102693
0.5316902297788076 0.5949896514518835 -0.027581447352102693
0.5986686606390107 0.005066978795813747 -0.026424806011530622
0.08305574549415431 0.27459110287234495 -0.026424806011530622
0.1892176260765057 0.5909592012420439 -0.02580199913583798
0.4417302252055464 0.3509294313501001 -0.02580199913583798
0.5364324592751532 0.588183262024671 -0.02580199913583798
0.5429363425056006 0.14568787408613088 -0.02464535779526591
0.41116820209120036 0.23943810336003593 -0.02464535779526591
0.20943215781327248 0.5978456658389883 -0.024022550919573265
0.4716160579977118 0.3335887084826007 -0.024022550919573265
0.17033768050193734 0.3584831890281436 -0.024022550919573265
0.1768059747680595 -0.006650687708289296 -0.022865909579001257
0.5345195524426686 0.30751089487324157 -0.022865909579001257
0.3031379008817711 0.27991165303897636 -0.022243102703308613
0.19225158528523692 0.617037014851403 -0.022243102703308613
0.6449343142618925 0.18084087359843973 -0.021798240649242403
0.18685985718995496 0.09292723447388278 -0.021086461362736543
0.48148309835689945 0.27459110287234495 -0.021086461362736543
0.22653265517157622 0.6016180960574695 -0.0204636544870439
0.18005346776274253 0.333873420197203 -0.0204636544870439
0.5490487471284696 0.15776143023348677 -0.0204636544870439
0.42754802292191674 0.2159938731107486 -0.01930701314647189
0.41116820209120036 0.016784645299916662 -0.01930701314647189
0.24924731165219496 0.36276276198826024 -0.01930701314647189
0.5519225559977372 0.1384277253637709 -0.018684206270779248
0.5343505048621234 0.5926229853242515 -0.018684206270779248
0.21670120377671379 0.6080241096360224 -0.018684206270779248
0.16457226828123978 0.3214617688887567 -0.017527564930207178
0.32914453656247955 0.2159938731107486 -0.017527564930207178
0.1768059747680595 0.005066978795813747 -0.017527564930207178
0.1918779011598213 0.5796241161044379 -0.016904758054514534
0.1764945713302131 0.1700396229257131 -0.016904758054514534
0.544351003837531 0.14415754862014313 -0.016904758054514534
0.11586877060207519 0.0870995415656159 -0.016459896000448386
0.3057092035542736 0.19255854010254267 -0.015748116713942464
0.24486097179910243 0.35263770163771413 -0.015748116713942464
0.6221039936472166 0.016784645299916662 -0.015748116713942464
0.19113053290899026 0.13000203805975757 -0.01512530983824982
0.5565046351546189 0.14419313758446847 -0.01512530983824982
0.5083082802170897 0.6173484182892494 -0.01512530983824982
0.09972027803947317 0.1093871304743311 -0.014680447784183672
0.2236766407844713 0.1691232070943367 -0.013968668497677812
0.48851191881114514 0.32227141782715724 -0.013968668497677812
0.16790873368673606 0.20729237133321435 -0.013968668497677812
0.5464240610094794 0.1086219677413373 -0.013345861621985169
0.17178793079819302 0.15946080328001944 -0.013345861621985169
0.5231666728228999 0.6080063151538596 -0.013345861621985169
0.1512619956235798 0.06365531131632858 -0.012189220281413098
0.6221039936472166 0.005066978795813747 -0.012189220281413098
0.4932007648610025 0.22771153961485166 -0.012189220281413098
0.5078367264397796 0.619732878899044 -0.011566413405720455
0.6259831907586737 0.16443436104447937 -0.011566413405720455
0.17138755494953345 0.1587668184756763 -0.011566413405720455
0.5805271860741921 0.0762449074464013 -0.011121551351654307
0.23548327969938762 0.3579671490454269 -0.010409772065148447
0.14806788607538474 0.22771153961485166 -0.010409772065148447
0.4878891119354523 0.5910659681350199 -0.009786965189455803
0.5886503671814405 0.19891117023460772 -0.009786965189455803
0.1741990831312317 0.1129549241479419 -0.009786965189455803
0.166476277872643 0.19006731259977222 -0.009342103135389593
0.48148309835689945 0.2628734363682419 -0.008630323848883733
0.2236766407844713 0.18084087359843973 -0.008630323848883733
0.5143673013934709 0.6102573171474346 -0.008007516973191088
0.5485682961100784 0.13015329115814003 -0.008007516973191088
0.6226823143175025 0.13398800206419043 -0.008007516973191088
0.18524945655423544 0.11468098891771854 -0.008007516973191088
0.17107615151168717 0.19010290156409743 -0.007562654919124941
0.5575189206378898 0.07537297782043162 -0.006850875632619018
0.15337064175985354 -0.03008602071649513 -0.006850875632619018
0.1740923162382558 0.1137556758452609 -0.006228068756926374
0.1830162490428232 0.11139790695871019 -0.006228068756926374
0.6072456010414066 0.14677333749805233 -0.006228068756926374
0.595955002109207 0.11862246671674492 -0.006228068756926374
0.6299068740755374 0.1081237222407832 -0.006228068756926374
0.21027739571599818 0.6090117033960492 -0.006228068756926374
0.41513637161347056 0.3779503525140793 -0.005071427416354367
0.62192604882559 0.19016518225166673 -0.005071427416354367
0.09675749675939248 0.15680942543778517 -0.004448620540661723
0.09957792218217194 0.14983398843002754 -0.004448620540661723
0.5642096459310448 0.20152695911251678 -0.004448620540661723
0.5886503671814405 0.20915189471921097 -0.004448620540661723
0.244683026977476 0.27459110287234495 -0.004003758486595513
0.48148309835689945 0.27157493814577616 -0.0032919792000896523
0.15266775971442892 0.25115576986413896 -0.0032919792000896523
0.27054730680088324 0.5558328934529789 -0.0032919792000896523
0.5321350918328739 0.12524201408124958 -0.0026691723243970084
0.6218014874504516 0.10935154151000588 -0.0026691723243970084
0.13793392848375738 0.22264011219849722 -0.0026691723243970084
0.10868869704944716 0.12345366862390349 -0.0026691723243970084
0.1061084971358633 0.2042762066066457 -0.0022243102703308616
0.5049184313651055 0.1574055405902338 -0.0015125309838250008
0.4346124323404877 0.3800501014092717 -0.0015125309838250008
0.19589055688749826 0.14018048185679152 -8.897241081323572E-4
0.12347591172660678 0.15846431227891128 -8.897241081323572E-4
0.5775466103119486 0.21559349726208918 -8.897241081323572E-4
0.6110625174652943 0.17100052496249607 -8.897241081323572E-4
0.613064396708592 0.14216456661792679 -8.897241081323572E-4
0.5653129038251289 0.05193764481222567 -4.44862054066147E-4
0.27054730680088324 0.3214617688887567 -4.44862054066147E-4
0.5632487438942619 0.199471696422731 8.897241081323572E-4
0.6019161536336937 0.2109669318998009 8.897241081323572E-4
0.43079551591659987 0.2808013771471086 8.897241081323572E-4
0.16346011314607434 0.10535668026449167 8.897241081323572E-4
0.5635067638856203 0.2980264358805509 0.0013345861621985042
0.49219537661881296 0.28630876937644784 0.002046365448704428
0.3057092035542736 0.07537297782043162 0.002046365448704428
0.1768059747680595 0.028502311804019704 0.002046365448704428
0.5373310806243669 0.11912071221729902 0.0026691723243970717
0.29597562181130566 0.3369162766470156 0.0026691723243970717
0.20154030497413858 0.16193423630062742 0.0026691723243970717
0.1501231487651704 0.21289763321444807 0.0026691723243970717
0.09286050516577278 0.07700117293831375 0.0031140343784632186
0.5437192997207569 0.27459110287234495 0.003825813664969079
0.1472849288602282 0.29694097246862944 0.003825813664969079
0.10500523924177924 0.11824878259132933 0.004448620540661723
0.11840448431025236 0.20019237295031822 0.004448620540661723
0.5946204159470084 0.22494449763856 0.004448620540661723
0.5615315763655666 0.1827804721541683 0.004448620540661723
0.562118794276934 0.27459110287234495 0.004893482594727933
0.3965055487891793 0.5089533301954856 0.005605261881233794
0.24711197379267727 0.09881720806971894 0.005605261881233794
0.08826063152672847 0.06365531131632858 0.005605261881233794
0.19924481677515715 0.15219175731657825 0.006228068756926437
0.18846136058459312 0.1466131871585885 0.006228068756926437
0.5349021338091656 0.14052747425896314 0.006228068756926437
0.5823422232547821 0.128089131227273 0.006228068756926437
0.4697654318527965 0.3566147684010657 0.006672930810992584
0.3174268700583765 0.06365531131632858 0.006672930810992584
0.1768059747680595 0.016784645299916662 0.006672930810992584
0.12126049869735715 0.23837933167135844 0.008007516973191088
0.16849595159810332 0.20105540533520666 0.008007516973191088
0.5566914772173266 0.20039700949518863 0.008007516973191088
0.5988110164963119 0.284057767382873 0.008007516973191088
0.5844419721499744 0.30974410238465383 0.008452379027257298
0.17107615151168717 0.23943810336003593 0.008452379027257298
0.5529190469988454 0.25115576986413896 0.00916415831376316
0.20324857526175275 0.27459110287234495 0.00916415831376316
0.6180468517141332 0.07115568554788428 0.009786965189455803
0.5532749366420985 0.10758988777590378 0.009786965189455803
0.16749056335591375 0.07350455719335362 0.009786965189455803
0.13841437950214874 0.28225162744336435 0.009786965189455803
0.37476958882750616 0.1533839876214756 0.01023182724352195
0.3994505355870973 0.04247987754277882 0.010943606530027874
0.48391204517210074 0.33317943539285977 0.010943606530027874
0.5500541353706592 0.10161983901033582 0.011566413405720517
0.6299602575220252 0.14679113198021493 0.011566413405720517
0.4420683203666367 0.25362030564366544 0.011566413405720517
0.18736699993159042 0.28877330515597444 0.011566413405720517
0.11271914725928671 0.07826458117186177 0.011566413405720517
0.5548052621080861 0.2977328269248672 0.012723054746292525
0.4784669336303308 0.33317943539285977 0.012723054746292525
0.5394486240017219 0.10621971264938 0.013345861621985169
0.5348398531215963 0.15478085447124335 0.013345861621985169
0.301927876094711 0.2488691789062388 0.013345861621985169
0.41980742318116543 0.39950836765412606 0.013345861621985169
0.19573040654803445 0.15429150621177062 0.013345861621985169
0.166476277872643 0.30974410238465383 0.01379072367605138
0.24928290061652017 0.23943810336003593 0.01450250296255724
0.4463300988445906 0.49723566369138283 0.01450250296255724
0.6321489788280307 0.15590190684749014 0.015125309838249883
0.5458991237856813 0.1618541611308955 0.015125309838249883
0.48904575327602434 0.32587480046509326 0.015125309838249883
0.4196917590471082 0.41128831484579825 0.015125309838249883
0.09802090499294036 0.11836444672538646 0.015125309838249883
0.1066334343596615 0.16164062734494372 0.015125309838249883
0.27054730680088324 0.3800501014092717 0.01628195117882189
0.4932007648610025 0.236332966222654 0.01628195117882189
0.1768059747680595 0.05806784391725746 0.01628195117882189
0.6050123935299943 0.2428012604887762 0.016904758054514534
0.5543159138486132 0.20116217222818256 0.016904758054514534
0.366788763577559 0.15331280969282504 0.016904758054514534
0.3966745963697244 0.4940237596610249 0.016904758054514534
0.12289759105632064 0.24683171069861576 0.016904758054514534
0.6173261751865459 0.016784645299916662 0.017349620108580745
0.13284470658524034 0.05785431013130569 0.018061399395086605
0.4580477653486936 0.403494331658559 0.018061399395086605
0.3525798695706855 0.14497609479962487 0.018061399395086605
0.5650192948694454 0.28437806806180066 0.018684206270779248
0.5485238099046715 0.3194154034400524 0.018684206270779248
0.3130494274463653 0.4276058549889456 0.018684206270779248
0.1285206474197171 0.2652934859423619 0.018684206270779248
0.5943268069913249 0.05193764481222567 0.019129068324845396
0.5402404784579596 0.3244779336153255 0.01984084761135132
0.17340722867499392 0.2709877202344089 0.01984084761135132
0.10367065307958068 0.30974410238465383 0.01984084761135132
0.17304244179065967 0.22049587709789828 0.020463654487043962
0.23779656238053165 0.2928482415712206 0.020463654487043962
0.2987693555108413 0.2789329565200308 0.020463654487043962
0.5639427286986052 0.24343296460555014 0.020463654487043962
0.14756964057483066 0.028502311804019704 0.02090851654111011
0.5517890973815175 0.05795217978320033 0.02162029582761597
0.1572676333534731 0.3214617688887567 0.02162029582761597
0.363185380939623 0.5049050855034836 0.02162029582761597
0.1474539764407734 0.24732995619916984 0.022243102703308613
0.17996449535192924 0.3079290652040639 0.022243102703308613
0.39813374390706147 0.17875002194432874 0.022243102703308613
0.6147370780318807 0.23829925650162653 0.022243102703308613
0.1572676333534731 0.015503442584206165 0.022687964757374824
0.5558551365556822 0.05796107702428157 0.023399744043880684
0.6313660216128743 0.2451234404110016 0.023399744043880684
0.20306173319904494 0.24833534444135938 0.023399744043880684
0.618838706170371 0.22487331970990945 0.024022550919573327
0.4878090367657205 0.30003721236493 0.024022550919573327
0.3071950428148545 0.38587779431753855 0.024022550919573327
0.1576680092021327 0.0466704780920822 0.024022550919573327
0.5529190469988454 0.33317943539285977 0.024467412973639475
0.12190999729629383 0.2626865943055341 0.025179192260145335
0.4988505129476428 0.3214617688887567 0.025179192260145335
0.5752244303897233 -0.03008602071649513 0.025179192260145335
0.6076459768900659 0.020334644491364726 0.02580199913583798
0.43809125360328505 0.2826697977741865 0.02580199913583798
0.3663350042824115 0.44501775578509556 0.02580199913583798
0.09479120648041996 0.15829526469836608 0.02580199913583798
0.5194565232919879 0.30501966737047104 0.02624686118990419
0.5161200578864916 0.3214617688887567 0.02695864047641005
0.2588296402967803 0.3566147684010657 0.02695864047641005
0.5517890973815175 0.05193764481222567 0.02695864047641005
0.5758917234708227 0.30283984330554686 0.027581447352102693
0.5149812110280824 0.2862108997245533 0.027581447352102693
0.2841867773785521 0.2919585174630883 0.027581447352102693
0.21227037771821466 0.28784799208351686 0.027581447352102693
0.12184771660872452 0.2810771916206297 0.027581447352102693
0.3734972833528769 0.5137578403794005 0.02802630940616884
0.5517890973815175 -0.03008602071649513 0.028738088692674763
0.16207214353738783 0.3154027477123755 0.028738088692674763
0.4580477653486936 0.403494331658559 0.028738088692674763
0.5631597714834488 0.06010531212488052 0.02936089556836741
0.5255511334326946 0.2751338345783056 0.02936089556836741
0.2822204870995797 0.2786571420465097 0.02936089556836741
0.21613178034750902 0.2685053899727196 0.02936089556836741
0.15055911357815532 0.057462831523727484 0.02936089556836741
0.3760152025788913 0.5145763865588822 0.029805757622433555
0.5909191636571779 0.0489303773267384 0.030517536908939415
0.20115772360764173 0.2573482496567401 0.030517536908939415
0.4697654318527965 0.5206709966995887 0.030517536908939415
0.5617629046336808 0.05743613980048351 0.031140343784632058
0.5988021192552305 0.25930564269463124 0.031140343784632058
0.33177811992255124 0.15906042743135987 0.031140343784632058
