0.3567708371250317 0.14250892549708558 -0.5231630437428189
0.07416538088897383 -0.32764446525926216 -0.5231630437428189
-0.365268655239715 -0.4394569567439678 -0.5231630437428189
-0.11829329545483841 0.31083792410594685 -0.5231630437428189
0.16470754139478194 0.11625336069500883 -0.5224181237462519
0.3630911967882115 0.08172345377721894 -0.5220170129788696
0.03669590506165408 -0.4581659089654388 -0.5220170129788696
-0.36188786448606486 -0.5643170084762353 -0.5220170129788696
0.3257134034220077 0.12379997327561448 -0.5217305052878823
0.06731211692055743 -0.3904698717389584 -0.5212720929823026
0.15293207529520367 0.020301934983360463 -0.5208709822149205
0.01021113410678761 -0.396572485556988 -0.5208709822149205
-0.3697324450652973 0.27992947440223653 -0.5208709822149205
0.3382910910563506 0.4936069103405685 -0.5201260622183534
0.34747652762940345 0.16746947553589955 -0.5197249514509712
0.016961255306448497 -0.4320306773935768 -0.5197249514509712
-0.24792083516513466 -0.20104244676579183 -0.5197249514509712
0.1948939917172044 -0.3752162022707943 -0.5189800314544042
0.32319786589513927 0.06342134247694989 -0.5189800314544042
0.012090624559664347 -0.35496583867181153 -0.5185789206870219
-0.3891347458989576 -0.43918190936061996 -0.5185789206870219
-0.1205567062136381 0.365543702623063 -0.5185789206870219
0.3382910910563506 0.4936069103405685 -0.5178340006904549
0.34122492981206054 0.11086128595062775 -0.5174328899230728
0.06424075447317358 -0.4454277770241432 -0.5174328899230728
-0.3401190101248494 0.24678626470882498 -0.5174328899230728
-0.001329395686181091 -0.23700489213851833 -0.5166879699265058
0.3630911967882115 0.0616679154081076 -0.5162868591591235
0.023957773120358506 -0.4512610736126447 -0.5162868591591235
-0.4531692148346202 0.1775602764124724 -0.5162868591591235
0.04279851887968366 -0.43419094538362113 -0.5155419391625565
0.5791237259464593 -0.08508132391559008 -0.5151408283951743
0.01038876887519969 -0.3703226509087311 -0.5151408283951743
-0.42220346359271227 0.1587080703455078 -0.5151408283951743
0.20244633445162966 -0.32902543232982095 -0.5143959083986074
0.5797998840971893 0.07097368521137523 -0.5143959083986074
0.07542028457549818 -0.3192154089904156 -0.5139947976312251
-0.24616740809629237 -0.2011914307651052 -0.5139947976312251
-0.37205315736229444 -0.5493842276219769 -0.5132498776346581
0.349745668542023 0.21436505439670162 -0.5132498776346581
0.07051527290579555 -0.38472825761157275 -0.5128487668672759
-0.23843170043963513 -0.45086569299908225 -0.5128487668672759
-0.12037334129140624 0.3504562076156715 -0.5128487668672759
-0.001329395686181091 -0.07242341412777092 -0.5121038468707089
0.3687353983006615 0.10305681644813358 -0.5117027361033267
0.08884603497516332 -0.3193701231435488 -0.5117027361033267
-0.10928549365019753 0.36632300354254843 -0.5117027361033267
0.013769559628849909 -0.4950566392569642 -0.5109578161067596
0.5649988967807852 -0.12431568711939157 -0.5105567053393775
0.030553180166886244 -0.3356322996839882 -0.5105567053393775
-0.4181178639192333 0.15668532604713736 -0.5105567053393775
-0.06924890891163157 -0.41203817071648263 -0.5098117853428104
0.32480803911848793 0.09361352295319203 -0.5098117853428104
0.09854718539199345 -0.4255899845001822 -0.5094106745754282
-0.35889099403833763 -0.5510688928449823 -0.5094106745754282
-0.07679552149223715 -0.3214788197492153 -0.5086657545788612
0.3533843162175617 0.3577621537358478 -0.5086657545788612
0.03428351030354093 -0.4385229416713492 -0.508264643811479
-0.36124608725825325 -0.5482210063965685 -0.508264643811479
0.13815973874789822 -0.36675849523284904 -0.5075197238149121
0.3287503849464732 0.06554722954407567 -0.5075197238149121
0.10738881273586164 -0.3617388804867514 -0.5071186130475297
-0.3060818964355576 -0.20729977473695457 -0.5071186130475297
0.021316172209455562 -0.28374002669236753 -0.5063736930509628
0.5811178194757308 -0.1731938992018258 -0.5059725822835806
0.09868470908366736 -0.33025741540106635 -0.5059725822835806
-0.37993211886444533 0.15522986697692193 -0.5059725822835806
-0.0843421340728428 -0.3743051078134546 -0.5052276622870135
0.3533843162175617 0.15613523128044174 -0.5048265515196314
0.10791025673345858 -0.3506682233070019 -0.5048265515196314
-0.4617988264871578 0.19467624587205398 -0.5048265515196314
-0.01642262084739232 -0.22336139589370288 -0.5040816315230643
0.3423136590378123 0.15770529342705217 -0.5036805207556821
-0.007300215966356454 -0.3776056764136284 -0.5036805207556821
-0.45914576526861534 0.2544302899043663 -0.5036805207556821
0.12697447849175383 -0.11015647703079895 -0.5029356007591151
0.36225459433052865 0.04146912319350257 -0.5025344899917329
0.06644686369377578 -0.4758033224226173 -0.5025344899917329
-0.08378057899850769 0.35618063128159777 -0.5025344899917329
0.16470754139478194 0.025688279573921783 -0.5017895699951659
-0.3365262036798686 0.2564071929721787 -0.5013884592277836
0.07303654058648383 -0.3143848893203697 -0.5013884592277836
0.5614748521816413 -0.17470665981023875 -0.5013884592277836
0.36093092879816735 0.5464389285586275 -0.5006435392312166
-0.24616740809629237 -0.13370740922995542 -0.5002424284638345
0.011649402715543825 -0.44146824073469865 -0.5002424284638345
-0.35069114392228096 -0.5511892260751969 -0.4994975084672674
0.368701017377743 0.15398642359803694 -0.4994975084672674
-0.24825318408667993 -0.4406430985846553 -0.49909639769988523
0.04311367733976965 -0.3130784142494676 -0.49909639769988523
-0.001329395686181091 -0.5035143462949094 -0.4983514777033182
0.32319786589513927 0.12379997327561448 -0.4983514777033182
-0.36555516293070234 -0.4381218309039669 -0.49795036693593603
0.16465023985658436 -0.17283289951118178 -0.49795036693593603
0.20244633445162966 -0.3516652700716378 -0.4972054469393691
-0.08058888332090909 0.34811257470339535 -0.49680433617198677
0.11458015577964305 -0.3963318190965587 -0.49680433617198677
0.3360276802975508 0.13790761197982948 -0.49680433617198677
0.09678229801551161 -0.3969449455552715 -0.4960594161754198
-0.09792259862564108 0.35185436514768953 -0.49565830540803757
0.11887777114445262 -0.3767404231868467 -0.49565830540803757
0.3612002460276954 0.09558469586718465 -0.49565830540803757
0.12697447849175383 -0.19317494557128043 -0.49491338541147056
-0.34124785042733935 0.17869484686878218 -0.49451227464408837
0.007598183964983371 -0.3985150077018819 -0.49451227464408837
0.3319879218546297 0.1511156165343441 -0.49451227464408837
0.16470754139478194 0.13134658585622014 -0.49376735464752136
-0.39463569356591377 0.27925331625150634 -0.49336624388013917
0.09177987373087332 -0.4696090261434717 -0.49336624388013917
0.5785335201030254 -0.1701225367544419 -0.49336624388013917
0.3533843162175617 0.3200233606789999 -0.4926213238835721
-0.24616740809629237 -0.18803499759496822 -0.4922202131161899
0.00453828182523892 -0.4327068355443068 -0.4922202131161899
-0.35244457099112325 -0.5547648420587186 -0.49147529311962296
0.3287503849464732 0.039136950588865925 -0.49147529311962296
-0.24985762715620885 -0.4484017268565914 -0.4910741823522407
0.11981178621707121 -0.36875831891594035 -0.4910741823522407
0.14570635132850387 -0.4497769637733305 -0.4903292623556737
0.5797998840971893 0.19172521665488482 -0.4903292623556737
-0.36334332355628035 -0.45109489915187206 -0.48992815158829145
0.1532071226785515 -0.023848900197783216 -0.48992815158829145
0.14961431623357063 -0.2912866392729731 -0.4891832315917245
0.5647009287821584 0.20681844181609596 -0.4891832315917245
-0.3596187235734454 -0.5416943611958777 -0.4887821208243423
0.1582267374246491 0.012239608558977724 -0.4887821208243423
0.2099929470322353 -0.36675849523284904 -0.48803720082777524
0.5647009287821584 0.09361352295319203 -0.48803720082777524
-0.35833516911782226 -0.4473760293228568 -0.48763609006039305
0.07768369533429788 -0.4621483658701623 -0.48763609006039305
-0.3560373774361041 -0.45220081883908314 -0.486891170063826
0.32319786589513927 0.12186318128454034 -0.486891170063826
-0.4466654902492083 0.24186406257766319 -0.48649005929644384
0.08563714883610549 -0.47669149626467794 -0.48649005929644384
0.5675258946152932 -0.16974434660233864 -0.48649005929644384
0.17225415397538743 0.25210384745354936 -0.48574513929987684
-0.34896636762253735 0.17579538903599065 -0.4853440285324946
0.0035526953682426072 -0.3986983726241138 -0.4853440285324946
0.3356151092225291 0.11963415144865905 -0.4853440285324946
0.12697447849175383 -0.10260986445019338 -0.48459910853592764
-0.3627874986357649 0.25731828742951846 -0.48419799776854533
0.0325988450805356 -0.44798342562774995 -0.48419799776854533
0.36394498970735367 0.15081764853571736 -0.48419799776854533
0.028862784790061134 -0.2219116669773071 -0.4834530777719784
-0.3589769463456338 0.2507114200753511 -0.4830519670045962
-0.37338255304847556 -0.5412130282750189 -0.4830519670045962
0.16300568571031737 -0.17448891396508842 -0.4830519670045962
-0.07679552149223715 -0.44313571549624475 -0.4823070470080291
-0.356896900509066 0.26578745477510307 -0.481905936240647
-0.2555705905144957 -0.44302684257366964 -0.481905936240647
0.03327500323126561 -0.4497769637733305 -0.481905936240647
-0.03151584600860354 -0.3592118826522434 -0.4811610162440799
0.5647009287821584 0.07852029779198089 -0.4811610162440799
-0.4046806532119287 0.2200149860629712 -0.4807599054766977
0.02275444081821178 -0.4655807280081902 -0.4807599054766977
0.3576246300441739 0.09632961586375179 -0.4807599054766977
0.3533843162175617 0.4558738474375404 -0.4800149854801308
-0.4092934270368243 0.2537369412921771 -0.47961387471274847
-0.35100630238236696 -0.5555384128243842 -0.47961387471274847
0.07272138212639775 -0.466354298773856 -0.47961387471274847
-0.008876008266786663 -0.4271371260315137 -0.4788689547161815
-0.3700877146021215 0.2758954461131352 -0.47846784394879927
-0.39844051570222516 0.20867501165369376 -0.47846784394879927
0.04070128258165659 -0.30939965549719056 -0.47846784394879927
-0.38204081547011187 -0.5478886574750232 -0.47772292395223226
0.32867589294681643 0.14975183992524455 -0.47772292395223226
-0.4198311799113374 0.15775686481142998 -0.4773218131848501
-0.377726009643843 -0.5530457959127947 -0.4773218131848501
0.3362225055274221 0.03342971738439876 -0.4773218131848501
0.021316172209455562 -0.3130211127112701 -0.47657689318828306
-0.3886419526704593 0.23772689151980644 -0.47617578242090086
-0.45577643482260466 0.22392868112185793 -0.47617578242090086
0.12338167204677306 -0.373485695817231 -0.47617578242090086
0.561887423256663 -0.16278793986516688 -0.47617578242090086
0.3382910910563506 0.3577621537358478 -0.4754308624243338
-0.34646802055712805 0.23279895923482474 -0.4750297516569516
-0.24167496750161144 -0.18272314500406356 -0.4750297516569516
0.018410984222844262 -0.34504121225601125 -0.4750297516569516
0.12697447849175383 -0.5101498644181754 -0.47428483166038465
0.5797998840971893 0.2822902977759718 -0.47428483166038465
0.14198175134566887 -0.39358134526308053 -0.4738837208930024
-0.432162470931431 0.217923479918764 -0.4738837208930024
-0.4499947096184808 0.2579543345035102 -0.4738837208930024
0.20244633445162966 -0.3214788197492153 -0.4731388008964354
-0.43317097800370635 0.21583197377455662 -0.47273769012905315
-0.4620509532552266 0.20129457353386074 -0.47273769012905315
0.07958037624863384 -0.4658672356991775 -0.47273769012905315
0.33383876153840775 0.15059417253674734 -0.47273769012905315
0.010675276566187062 -0.23091373862812822 -0.4719927701324862
-0.4050989544407702 0.25534711451552566 -0.471591659365104
-0.44563979271547377 0.19056772558329613 -0.471591659365104
0.0397959182781367 -0.3018587730704047 -0.471591659365104
-0.33502490337909513 -0.45732357635393617 -0.47130515167411663
0.16470754139478194 0.25119275299620974 -0.47084673936853694
-0.4183986414564009 0.27264071874351936 -0.47044562860115474
-0.4021135443006824 0.19183981973127964 -0.47044562860115474
0.1377414375190567 -0.39674439017158036 -0.47044562860115474
-0.3333975396942872 -0.4346837386121193 -0.4701591209101675
0.12697447849175383 -0.33796447228862486 -0.46970070860458774
-0.4517022954567652 0.2658447563133006 -0.46929959783720554
-0.38190902193225773 0.19088288404338202 -0.46929959783720554
-0.01854277776069832 -0.37928461148281406 -0.46929959783720554
0.5632970410963206 -0.17081015521281145 -0.46929959783720554
0.08168907285430038 -0.042236963805348464 -0.46855467784063853
-0.39859522985535834 0.22070833467516054 -0.4681535670732563
-0.350353064846916 0.20895005903704159 -0.4681535670732563
0.08194692977618898 -0.3097606551878346 -0.4681535670732563
0.34870278054682907 0.19750694185900855 -0.4681535670732563
0.04511923117668084 -0.3275699732596054 -0.46740864707668933
0.33322563507969494 0.08660554483164265 -0.4670075363093071
0.1148723936244501 -0.35600872666700534 -0.4670075363093071
-0.4266901740335735 0.16636928600250828 -0.4670075363093071
-0.39525455017844635 0.23532022691551316 -0.4670075363093071
0.14961431623357063 0.1766319914936735 -0.4662626163127401
0.3611715952585967 0.1496716177717682 -0.4658615055453579
0.12648168526325568 -0.3947789474114074 -0.4658615055453579
-0.34324194395661106 0.1899947102013214 -0.4658615055453579
-0.3907506492761259 0.189307091742952 -0.4658615055453579
0.1345210910723595 -0.13280204492643552 -0.4651165855487909
0.3656984167761961 0.06015515479969457 -0.4647154747814087
0.03183673462250939 -0.4639705547848416 -0.4647154747814087
-0.42353858943271305 0.155768501435978 -0.4647154747814087
-0.39016044343269213 0.2585158895778452 -0.4647154747814087
0.043956009951272364 -0.2898770214333156 -0.4639705547848416
-0.4630078889431242 0.23146383339482404 -0.4635694440174594
-0.2813333620880742 -0.4556503714385703 -0.4635694440174594
0.04429981918045714 -0.2936302721852493 -0.4635694440174594
0.13637193075613752 -0.3516652700716378 -0.46282452402089247
0.5739035558166706 0.004188742442234448 -0.4624234132535102
0.09709745647559768 -0.45218362837762377 -0.4624234132535102
-0.33836558305600706 0.1932035963403792 -0.4624234132535102
-0.41485167624197805 0.21019923256974618 -0.4624234132535102
0.12697447849175383 -0.18562833299067485 -0.4616784932569432
0.3627015463284689 0.10078194538169444 -0.46127738248956096
-0.006853263968416323 -0.3676352087672701 -0.46127738248956096
-0.3825049579295113 0.195690483098149 -0.46127738248956096
0.37311896597276717 0.07097368521137523 -0.46099087479857365
0.32319786589513927 0.07097368521137523 -0.460532462492994
0.12429849665793241 -0.40204478245484543 -0.4601313517256118
-0.35053069961532807 -0.5573147605085055 -0.4601313517256118
-0.4166280239260993 0.19636664124887918 -0.4601313517256118
0.1345210910723595 -0.12524970219201018 -0.45938643172904475
0.15845021342361912 0.004131440904036958 -0.45898532096166256
-0.268675452300255 -0.4405456859697195 -0.45898532096166256
-0.406118921820685 0.15875964172988544 -0.45898532096166256
-0.0843421340728428 -0.4271371260315137 -0.4582404009650955
0.3380504245959212 0.08737338544348854 -0.45783929019771336
0.14112222827270693 -0.3986639917011953 -0.45783929019771336
-0.372694934590106 0.19430951602759028 -0.45783929019771336
-0.0843421340728428 -0.3818517203940602 -0.45709437020114635
0.5583805691189784 -0.16341825678533894 -0.4566932594337641
0.07260104889618309 -0.31091814625942327 -0.4566932594337641
-0.38061973732281484 0.2110644857965279 -0.4566932594337641
0.33124873201188254 0.12265967266548511 -0.45594833943719715
-0.3777489302591221 -0.532795432313812 -0.45594833943719715
-0.006291708894081211 -0.3503129537701777 -0.45554722866981484
-0.34221624642287646 0.19064794773677246 -0.45554722866981484
-0.3333975396942872 -0.4617472551027801 -0.4548023086732479
0.3382910910563506 0.2427350459582645 -0.4548023086732479
0.12765636679630363 -0.4341508343068829 -0.4544011979058657
-0.35062238207644403 -0.5380327929050599 -0.4544011979058657
0.12127297544110645 -0.31392647701479 -0.4541146902148783
0.14961431623357063 0.11625336069500883 -0.45365627790929863
0.12850442956162603 -0.402417242453129 -0.4532551671419165
-0.34366597533927223 -0.4381734022883446 -0.4532551671419165
-2.2920615278979836E-4 -0.32147308959539556 -0.4529686594509292
0.3382910910563506 0.4181350543806927 -0.45251024714534943
-0.005283201821805886 -0.4303689327858505 -0.45210913637796724
-0.35439282328983696 -0.449135186545519 -0.45210913637796724
-0.04660907116981477 -0.4497769637733305 -0.4513642163814003
0.5571543162015528 0.26719707261476067 -0.4513642163814003
-0.01264071932635983 -0.4291713306375235 -0.450963105614018
-0.30525675428551413 -0.11345131547715297 -0.450963105614018
-0.001329395686181091 -0.07242341412777092 -0.450218185617451
0.33446907845857987 0.06342707263076958 -0.4498170748500688
0.10459822782564532 -0.31403534993736515 -0.4498170748500688
-0.3916388231181866 0.16055317987546605 -0.4498170748500688
0.3464565602494886 0.2569458274312348 -0.44907215485350177
0.11172653917740946 -0.4653801726244991 -0.44867104408611963
-0.2801071091706485 -0.4561030535903302 -0.44867104408611963
-0.02396923342799789 -0.44586899886826364 -0.44792612408955257
0.36326310140280393 0.06685370461497775 -0.4475250133221704
-0.01533389162164049 -0.34516727564004573 -0.4475250133221704
0.3316383824716253 0.10870674811440334 -0.44723850563118306
0.1571609288141763 -0.4271371260315137 -0.4467800933256033
0.08600960883438898 -0.30734826042972146 -0.4463789825582211
-0.3439811337993583 -0.4595468760359976 -0.4463789825582211
-0.001329395686181091 -0.19317494557128043 -0.44563406256165417
0.33621677537360234 0.044213866873160944 -0.4452329517942719
0.14456605071837433 -0.390343808354924 -0.4452329517942719
-0.03906245858920911 -0.4346837386121193 -0.4444880317977049
0.35751575712159867 0.08697227467610635 -0.44408692103032266
0.14420505102773037 -0.3571834082000533 -0.44408692103032266
-0.38986247543406527 0.16521179493091956 -0.44408692103032266
0.3533843162175617 0.2973835229371831 -0.4433420010337557
-0.01870322206765124 -0.4217908925176906 -0.4429408902663735
-0.2610142366432545 -0.45650416435771246 -0.4429408902663735
0.12697447849175383 -0.20072155815188608 -0.44219597026980645
0.3342742532287084 0.12475117880969232 -0.44179485950242425
-1.776347684120815E-4 -0.41137347287339215 -0.44179485950242425
-0.33993564520261754 -0.5317869252415367 -0.441508351811437
0.3382910910563506 0.27668047718644045 -0.44104993950585725
0.02425574111898526 -0.31470004778045574 -0.44064882873847505
0.3629250223274389 0.10525719551491616 -0.44064882873847505
0.12697447849175383 -0.20826817073249165 -0.43990390874190805
-0.33379292030784974 -0.46342046001814596 -0.4395027979745258
0.13333494923167208 -0.3965381046340695 -0.4395027979745258
0.34052585104605143 0.26719707261476067 -0.4392162902835385
0.3434940707246799 0.2747436851953663 -0.43875787797795884
0.003930885520345864 -0.4360360549135794 -0.43835676721057654
0.15974522818688175 -0.01939084052602072 -0.43835676721057654
0.043956009951272364 -0.1011601355337976 -0.4376118472140096
-0.361635737717996 -0.4440926511841424 -0.4372107364466274
-0.015769383311941238 -0.35940670788211476 -0.4372107364466274
0.348433463317301 0.22096046144322945 -0.4372107364466274
0.3533843162175617 0.5455278341012879 -0.4364658164500604
0.1380737864406021 -0.3575100269677788 -0.4360647056826782
-0.021012474057008873 -0.38507779699457734 -0.4360647056826782
0.14961431623357063 -0.4346837386121193 -0.4353197856861111
-0.3613606903346482 -0.45094591515255866 -0.43491867491872893
-0.02974522847830193 -0.3981024366268602 -0.43491867491872893
0.3537739666773045 0.08691497313790894 -0.43491867491872893
0.35328690360262605 0.28983691035657744 -0.434173754922162
0.14305902026378106 -0.41465685101210664 -0.4337726441547797
0.14300171872558365 -0.3887794763621332 -0.4337726441547797
0.5647009287821584 0.031194957394697777 -0.4330277241582127
0.1345210910723595 -0.4875100266763585 -0.4330277241582127
-0.013729448552111575 -0.43715343490842984 -0.4326266133908305
0.1650857315468852 -0.15144796545588934 -0.4326266133908305
0.16470754139478194 0.22945827955791276 -0.4318816933942635
-0.28653634175640363 -0.4364314355271418 -0.4314805826268813
0.03702825398319931 -0.29171067065563433 -0.4314805826268813
0.3600198343408276 0.0320602106214795 -0.4314805826268813
0.07042359044467959 -0.31137082841118324 -0.43073566263031426
-0.3761101062666747 -0.5312196400133817 -0.43033455186293207
0.0010027769184556324 -0.346267465173437 -0.43033455186293207
-0.34849076485549846 -0.47996341409575294 -0.429589631866365
0.3533843162175617 0.4634204600181461 -0.429589631866365
-0.005638471358630131 -0.3480380827037385 -0.4291885210989828
0.33428571353634795 0.08716709990597768 -0.4291885210989828
0.14961431623357063 -0.23846035120873388 -0.42844360110241586
-0.3589769463456338 -0.44820690162672006 -0.4280424903350336
-0.011821307330136133 -0.3995980067738139 -0.4280424903350336
0.36866663645482456 0.1319998233916712 -0.4280424903350336
0.10432891059611726 -0.20826817073249165 -0.42729757033846666
-0.37293560105053536 -0.5610107097222418 -0.42689645957108435
0.0847317845325856 -0.30948560780448675 -0.42689645957108435
-0.30152069399503967 -0.4724168015151473 -0.4266099518800971
-0.03151584600860354 -0.4271371260315137 -0.4261515395745174
0.14332833749330928 -0.38428130561363255 -0.4257504288071352
0.1473967467053289 -0.042019217960198134 -0.4257504288071352
0.043956009951272364 -0.049783576385954036 -0.42500550881056814
-0.3421073735003013 -0.43778948198242157 -0.42460439804318595
0.08532772052983918 -0.3094626871892078 -0.42460439804318595
-0.32764446525926216 -0.47441662519823874 -0.4243178903521987
0.16470754139478194 0.1992718292354903 -0.42385947804661894
0.15133336237949452 -0.3836337982320013 -0.42345836727923675
-0.014417067010481134 -0.421194956520437 -0.42345836727923675
0.34941904977429733 0.31247674809839426 -0.4227134472826698
-0.2802217122470434 -0.10328029244710361 -0.4223123365152875
-0.012612068557261125 -0.41030766426291937 -0.4223123365152875
0.36184202325550696 0.14205051319150583 -0.4223123365152875
-0.001352316301460022 -0.31392647701479 -0.42156741651872054
-0.3294494637124822 -0.4690016298385786 -0.4211663057513383
-0.02685150079933018 -0.3994891338512387 -0.4211663057513383
-0.3261317046508492 -0.47996341409575294 -0.420879798060351
-0.01570062146610428 -0.32902543232982095 -0.4204213857547713
-0.01475514608584614 -0.374161853967961 -0.4200202749873891
0.1477233654730545 -0.023304535584907343 -0.4200202749873891
-0.07679552149223715 -0.3441186574910322 -0.4192753549908221
-0.3393454393591837 -0.43613919768233483 -0.4188742442234399
-0.02644465987812822 -0.41694891254000505 -0.4188742442234399
0.5765967281119513 0.006010931356913695 -0.4188742442234399
0.12697447849175383 -0.0799700267083765 -0.4181293242268728
0.01948252298713677 -0.48555604422382515 -0.4177282134594906
0.14092167288901583 -0.3852840825320882 -0.4177282134594906
0.18734737913659874 -0.44223035119272486 -0.41744170576850337
-0.3010336309203613 -0.11539383762204689 -0.4165821826955414
0.1354780267602571 -0.375966852421181 -0.4165821826955414
0.3380504245959212 0.07895005932846179 -0.4165821826955414
0.03640939737066679 -0.1554418826682524 -0.4162956750045541
-0.015935557772713854 -0.4367695146025068 -0.41543615193159217
0.015626129466447633 -0.45716886220080294 -0.41543615193159217
0.15897738757503585 -0.3374774092139464 -0.41514964424060485
-0.29683915832430713 -0.4366835622952107 -0.414290121167643
0.04561775455899877 -0.2901004974322857 -0.414290121167643
0.15477145467134215 -0.01441133685666136 -0.414290121167643
0.14201040211476756 -0.32147308959539556 -0.41400361347665565
-0.2970167930927193 -0.4390844967456843 -0.41314409040369376
-0.03797372936345737 -0.39170185481020375 -0.41314409040369376
0.5647009287821584 0.11625336069500883 -0.4128575827127065
-0.30525675428551413 -0.11810993053260656 -0.41199805963974456
0.037538237673156706 -0.3024948201443965 -0.41199805963974456
0.15706351619924064 0.04224269395916832 -0.41199805963974456
-0.03151584600860354 -0.43012253617160134 -0.41171155194875725
-0.3349905224561766 -0.46901882030003794 -0.4108520288757953
0.137420548905151 -0.4174359756146835 -0.4108520288757953
0.16470754139478194 -0.4346837386121193 -0.410565521184808
-0.28061709286060593 -0.47276061074433207 -0.40970599811184605
0.038649887514187464 -0.3066319912022532 -0.40970599811184605
0.564935865088768 -0.031194957394697697 -0.40970599811184605
0.3533843162175617 0.523793360662991 -0.4089610781152791
0.03440957368757538 -0.302913121373238 -0.4085599673478969
0.33583285506767946 0.20733415565987312 -0.4085599673478969
0.1345210910723595 -0.12434433788849028 -0.40781504735132984
0.09200907988366312 -0.3047353102879172 -0.4074139365839477
-0.02508661342284842 -0.38900295236110344 -0.4074139365839477
0.03587076291161061 -0.3214788197492153 -0.4071274288929604
-0.34560849748416617 -0.4422418115003644 -0.40626790581999844
0.15570546974396082 -0.40009080000231206 -0.40626790581999844
0.5797941539433695 0.14643981101743128 -0.40598139812901113
-0.2575188428132094 -0.13521443968454866 -0.4051218750560492
0.13641777198669539 -0.3688213506079576 -0.4051218750560492
0.5729867312055112 0.04720500716706844 -0.4051218750560492
0.1345210910723595 -0.41696610300146436 -0.4048353673650619
0.088175606978253 -0.301423281380104 -0.4039758442921
0.15607219958842455 0.04553753240552226 -0.4039758442921
0.11237977671286054 -0.3325723975442438 -0.40368933660111267
0.1320170138531304 -0.4567448308181417 -0.40282981352815084
0.012944417478806439 -0.45857848004046053 -0.40282981352815084
0.3382910910563506 0.4030418292194814 -0.40254330583716347
-0.27991228394077716 -0.4652369187790055 -0.4016837827642016
0.01773482607211425 -0.468159297227076 -0.4016837827642016
0.5616811377191522 -0.1125402210198133 -0.4016837827642016
0.10821968503972487 -0.33302507969600376 -0.4009388627676345
-0.009443293494941548 -0.4334861364637923 -0.4005377520002523
0.12463657573329742 -0.3326870006206387 -0.4005377520002523
0.5647009287821584 0.1992718292354903 -0.39979283200368537
-0.3062423407425105 -0.13904791258995877 -0.3993917212363031
0.13963811843339277 -0.3768607564170614 -0.3993917212363031
0.3616185472565369 0.09531537863765661 -0.3993917212363031
-0.01798695284018298 -0.3330308098498235 -0.3991052135453158
0.15031339499957974 -0.39721426278479954 -0.39824569047235386
-0.006715740276742411 -0.33900736028381867 -0.39824569047235386
0.5687693379941781 -0.11976021483269342 -0.39824569047235386
0.043956009951272364 -0.4346837386121193 -0.3979591827813666
0.11828756530101872 -0.3145854447040608 -0.3970996597084047
0.1571838494294552 -0.11357164870736763 -0.3970996597084047
-0.01642262084739232 -0.22336139589370288 -0.39681315201741735
0.10140080199422703 -0.3067064832019099 -0.39595362894445546
0.03753250751933701 -0.28264556731279605 -0.39595362894445546
0.5719323829026778 0.07591307780399634 -0.39595362894445546
0.006217216894424562 -0.5177022071526007 -0.3956671212534682
-0.031447084162766585 -0.4005492123078917 -0.39480759818050626
0.15734429373640824 0.051135892687414225 -0.39480759818050626
0.3382910910563506 0.4407748921225095 -0.39452109048951894
-0.3512698894580753 -0.4700158670646737 -0.393661567416557
0.138050865825323 -0.4082562691954502 -0.393661567416557
0.5742187142767565 0.050287829922091826 -0.393661567416557
-0.001329395686181091 -0.19317494557128043 -0.39291664741999005
-0.01941376114129973 -0.35865605773172804 -0.39251553665260774
0.15007845869297018 -0.4228910820510818 -0.39251553665260774
0.5720297955176137 0.0426208841112715 -0.39251553665260774
0.5647009287821584 0.27619341411176196 -0.3917706166560408
0.09032441466065778 -0.28454224822713203 -0.3913695058886586
0.15828976911666628 -0.09078855712005715 -0.3913695058886586
0.043956009951272364 -0.034690351224742816 -0.3906245858920916
-0.026037818956926254 -0.3548340451339574 -0.3902234751247094
0.16108035402688262 -0.42021510021726033 -0.3902234751247094
0.5693595438376119 -0.07376427012159148 -0.3902234751247094
0.043956009951272364 -0.4346837386121193 -0.38947855512814233
0.13979283258652583 -0.4591514954224351 -0.38907744436076014
0.15157975899374365 -0.05412130282750186 -0.38907744436076014
0.006217216894424562 -0.10260986445019338 -0.3883325243641932
0.09436417310357878 -0.30199629676207856 -0.3879314135968109
0.14474941564060625 -0.3405716922766094 -0.3879314135968109
0.564414421091171 -0.037922157979079656 -0.3879314135968109
0.14291576641828754 -0.3214788197492153 -0.38718649360024393
-0.020559791905248967 -0.4495191068514419 -0.3867853828328617
0.16299422540267783 -0.05979415510905047 -0.3867853828328617
0.14961431623357063 0.16908537891306785 -0.38604046283629473
0.15337902729314387 -0.3958161052527815 -0.38563935206891253
0.03314320969341147 -0.2843818039201791 -0.38563935206891253
0.5736514290486017 0.08393529315164092 -0.38563935206891253
0.09678229801551161 -0.3969449455552715 -0.38489443207234547
0.09643275863250714 -0.5012050943055517 -0.3844933213049633
0.10501652905448683 -0.49081632543035203 -0.3844933213049633
0.15089787068919386 0.12379997327561448 -0.384206813613976
0.15466831190258673 -0.3365720449104266 -0.3837484013083962
0.12178295913106384 -0.31638471300346105 -0.383347290541014
0.15457089928765105 -0.04719927701324859 -0.383347290541014
0.16346982816971675 0.11625336069500883 -0.38260237054444707
0.11593820223492284 -0.4819288568559258 -0.3822012597770648
-0.020324855598639394 -0.36720544723078924 -0.3822012597770648
0.3485194156245973 0.3278736714120521 -0.3822012597770648
-0.025751311265938968 -0.3322400486226985 -0.38145633978049787
0.13836029413158932 -0.43811610075014723 -0.38105522901311556
0.10772116165740694 -0.3168775062319592 -0.38105522901311556
0.565021817396064 -0.013952924551081682 -0.38105522901311556
0.1345210910723595 -0.41776832453622875 -0.3803103090165486
0.15764226173503498 -0.41761361038309563 -0.3799091982491664
0.155768501435978 0.06540397569858199 -0.3799091982491664
0.15082337868953713 0.12379997327561448 -0.37962269055817904
0.11449993362616663 -0.329655749249993 -0.37916427825259946
-0.03245559123504183 -0.4061590328974232 -0.37876316748521716
0.15458808974911023 0.1268999864920971 -0.37876316748521716
0.35238153929910604 0.39425750341381066 -0.37801824748865015
0.08922995528108627 -0.2975382370903162 -0.37761713672126795
0.11545113916024446 -0.3251403880400331 -0.37761713672126795
0.5800233600961594 -0.019923744831257126 -0.37761713672126795
0.10112002445705943 -0.5075311841225514 -0.376872216724701
0.15906333988233196 -0.4190690694533111 -0.3764711059573187
0.15768810296559302 0.12493454373192425 -0.3764711059573187
0.14961431623357063 0.16908537891306785 -0.37572618596075175
-0.006475073816313065 -0.4706977553692235 -0.3753250751933695
0.014955701469537397 -0.3248309597337668 -0.3753250751933695
0.5806651373239708 0.02896592755881657 -0.3753250751933695
0.12697447849175383 -0.2158147833130973 -0.3745801551968025
0.12668224064694678 -0.47090977106055404 -0.3741790444294203
0.16155022664010174 -0.035429541067490085 -0.3741790444294203
0.16327500293984543 0.1388931984368258 -0.37343412443285334
0.1563128660488539 -0.3834733539250484 -0.3730330136654711
0.14301317903322322 -0.33250363569840685 -0.3730330136654711
-0.007019438429188938 -0.41988275129571506 -0.3727465059744838
-0.08434786422666257 -0.3592118826522434 -0.37228809366890403
0.16543527092988958 -0.42520606419425916 -0.37188698290152183
0.5749865548886026 0.09656455217036136 -0.37188698290152183
0.025338740190917315 -0.28374002669236753 -0.3711420629049549
0.1416952436546815 -0.35009520792502735 -0.37074095213757263
0.1605187989525476 0.005277471667986194 -0.37074095213757263
0.043956009951272364 -0.05587472989634416 -0.3699960321410056
0.15709216696833933 -0.3864129228345782 -0.3695949213736234
-0.038082602286032496 -0.3962458667892624 -0.3695949213736234
0.5797941539433695 0.20681844181609596 -0.3688500013770564
-0.009655309186272108 -0.3258738477289606 -0.36844889060967423
0.09280557126460788 -0.4849142669960136 -0.36844889060967423
0.5752558721181307 0.15844448326979935 -0.36844889060967423
0.3307444784757449 0.5539855411392332 -0.3677039706131073
0.030444307244311037 -0.31189800256259986 -0.36730285984572497
0.35483977528777716 0.21644510023326946 -0.36730285984572497
0.13764975505794083 -0.36675849523284904 -0.36655793984915797
0.07481861842442482 -0.297022523246539 -0.36615682908177577
0.1498435223863606 0.00621148674060479 -0.36615682908177577
0.021316172209455562 -0.28374002669236753 -0.36541190908520876
0.15809494388679496 -0.39199409265501084 -0.3650107983178265
0.09831797923920357 -0.30574381736019257 -0.3650107983178265
-0.006297439047900903 -0.3516652700716378 -0.3647242906268392
-0.03670163521547369 -0.3835134650017867 -0.3638647675538773
-0.008509278422322953 -0.31730153761462043 -0.3638647675538773
0.5729408899749532 0.05465993728655805 -0.3638647675538773
0.1303208883224856 -0.33297350831162603 -0.36271873678992805
0.1260290031114957 -0.3109639874899813 -0.36271873678992805
0.5657151660082534 0.05595495204982074 -0.36271873678992805
-0.04169259919247259 -0.34783179716622764 -0.3624322290989408
0.038861903205518106 -0.5122814816391209 -0.3615727060259789
0.3482386380874297 0.36471283031919977 -0.3615727060259789
0.17980076655599309 -0.46487018893454174 -0.36128619833499154
0.16347555832353652 -0.35390003006133874 -0.36042667526202965
0.5747630788896324 0.18240225639015786 -0.36042667526202965
0.009666769493911737 -0.4950566392569642 -0.36014016757104234
0.13408559938205883 -0.3110556699510972 -0.3592806444980804
0.5728950487443952 0.1442508922582884 -0.3592806444980804
0.043956009951272364 -0.36675849523284904 -0.35853572450151344
0.09356768172263409 -0.5086141831944835 -0.3581346137341312
0.5753303641177874 0.13495085260884038 -0.3581346137341312
0.0970344247835805 -0.2761934141117619 -0.3573896937375642
0.03373914569066506 -0.2985639346240506 -0.356988582970182
0.3476770830130945 0.24687794716994102 -0.356988582970182
0.021316172209455562 -0.3743051078134546 -0.3567020752791947
0.08937320912657995 -0.5114964505658157 -0.3558425522062328
0.5696059404518611 0.09474236325568203 -0.3558425522062328
0.15321285283237127 -0.3623233561763655 -0.35469652144228353
-0.03231233738954823 -0.35328117344880616 -0.35469652144228353
0.3533843162175617 0.4709670725987517 -0.35441001375129627
-0.027155198951776705 -0.4062277947432602 -0.35355049067833433
0.1414660375018917 -0.4605038117238952 -0.35355049067833433
0.006217216894424562 -0.10870674811440317 -0.353263982987347
0.028885705405340148 -0.3007643136908332 -0.3524044599143851
0.09001498635439148 -0.28280028146592917 -0.3524044599143851
-0.02396923342799789 -0.23091373862812822 -0.3521179522233978
-0.004521091363779599 -0.3129924619421714 -0.35125842915043587
0.15536166051477607 0.13343236184660776 -0.35125842915043587
-0.009363071341465128 -0.3516652700716378 -0.3509719214594486
0.1004266758448702 -0.31243663702165597 -0.35011239838648667
0.15761934111975606 0.09878785185242271 -0.35011239838648667
0.16470754139478194 -0.45732357635393617 -0.34982589069549935
-0.03445541491813324 -0.39909948339149603 -0.34896636762253747
0.34369462610837104 0.27637677903399394 -0.34896636762253747
0.043956009951272364 -0.44223035119272486 -0.34822144762597046
-0.012898576248248415 -0.4437946831855155 -0.3478203368585882
0.3549601085179919 0.29346982787829656 -0.3478203368585882
0.1345210910723595 -0.43670075275666986 -0.34707541686202126
0.12217833974462633 -0.4680618846121403 -0.346674306094639
0.34261162703643905 0.29921144200568206 -0.346674306094639
0.16470754139478194 0.22372812573816667 -0.3463877984036517
-0.04424824779607934 -0.4115052664112463 -0.3455282753306898
0.5709926376762395 0.11898664406702775 -0.3455282753306898
-0.06924890891163157 -0.36011724695576325 -0.3452417676397025
0.17963459209522048 -0.40221095691561815 -0.3443822445667406
0.5777370287220807 0.22694847218486405 -0.3443822445667406
-0.0292982764803618 -0.4067320482793978 -0.34323621380279135
0.02827830910044701 -0.29024375127777935 -0.34323621380279135
0.00392515536652609 -0.4950566392569642 -0.34249129380622434
-0.04150923427024074 -0.3839374963844478 -0.3420901830388421
0.14537973256077824 -0.45707144958586726 -0.3420901830388421
0.03640939737066679 -0.14034865750704117 -0.34134526304227514
-0.036506809985602365 -0.3919826323473713 -0.34094415227489294
0.15571119989778062 0.13217172800626362 -0.34094415227489294
0.08411865807387277 -0.2996813146189012 -0.34019923227832594
0.15133336237949452 -0.41251377348352164 -0.3397981215109437
0.3549944894409104 0.3276903064898201 -0.3397981215109437
-0.08434786422666257 -0.41203817071648263 -0.33951161381995637
-0.030570370628345403 -0.38227575177672146 -0.3386520907469945
0.08168907285430038 0.01814166699331621 -0.33836558305600717
0.09239873034340584 -0.29116057588893873 -0.3375060599830452
0.1525596152969202 -0.33358090461651907 -0.3375060599830452
-0.018920967912801574 -0.36675849523284904 -0.33721955229205797
0.1670397139994185 -0.42016925898670243 -0.336360029219096
0.3422448971919754 0.34447392702785645 -0.336360029219096
0.16470754139478194 -0.45732357635393617 -0.3360735215281087
0.11797240684093273 -0.3239599763531654 -0.3352139984551468
0.5731586358201036 0.2496456114648784 -0.3352139984551468
0.15138493376387216 -0.3523987297605653 -0.33406796769119756
0.09137303280967136 -0.5087631671937969 -0.33406796769119756
-0.001329395686181091 -0.17053510782946363 -0.3337814600002103
-0.04424251764225957 -0.42752104633743665 -0.33292193692724836
0.14834222208558712 -0.35012385869412604 -0.33292193692724836
-0.02396923342799789 -0.2535535763699451 -0.33263542923626105
0.03330365400036439 -0.29537223894645215 -0.33177590616329916
0.34356856272433667 0.3565359008184221 -0.33177590616329916
0.006217216894424562 -0.5177022071526007 -0.33103098616673216
-0.0472221976285276 -0.4027610516823137 -0.3306298753993499
0.5758575382692039 0.262584298789865 -0.3306298753993499
-0.03253581338851833 -0.3214788197492153 -0.32988495540278295
0.009861594723783057 -0.4996923336971388 -0.3294838446354007
0.5763789822668008 0.25542733666900214 -0.3294838446354007
0.1690166170672309 -0.3786199136397234 -0.3283378138714515
-0.005816106127042212 -0.458612860963379 -0.3283378138714515
-0.001329395686181091 -0.11015647703079895 -0.3280513061804642
0.05699210989119477 -0.5022422521469257 -0.3271917831075023
0.15630713589503412 0.2472274865529454 -0.3271917831075023
0.09771058293431052 -0.2720447827462657 -0.326905275416515
-0.043646581645005976 -0.3567135355868341 -0.32604575234355304
0.5606611703392373 0.2592321588053135 -0.32604575234355304
-0.0317278616999341 -0.4133446457873848 -0.32489972157960384
0.028765372175125474 -0.2761934141117619 -0.32489972157960384
0.08168907285430038 -0.027138008490317465 -0.32415480158303683
0.06332392986201416 -0.5029069499900163 -0.32375369081565464
0.15815224542499237 0.23045532632254861 -0.32375369081565464
-0.05415568375042034 -0.45732357635393617 -0.32346718312466727
0.16343544724679826 -0.3324749849293081 -0.3226076600517054
0.043956009951272364 -0.049783576385954036 -0.3223211523607181
0.02196367959108687 -0.2921347020382955 -0.3214616292877562
0.3514933654570454 0.3707065712146541 -0.3214616292877562
0.043956009951272364 -0.36675849523284904 -0.32117512159676886
0.15955040295701042 -0.38327852869517703 -0.320315598523807
-0.00705954950592719 -0.3516652700716378 -0.32002909083281966
0.08799797220984092 -0.4980076684741334 -0.3191695677598577
0.573508175203108 0.26101996679707434 -0.3191695677598577
0.031040243241564628 -0.2897452278954615 -0.3180235369959085
0.03379644722886255 -0.5016978875340499 -0.3180235369959085
0.05366862067574196 -0.2695521658346762 -0.3177370293049212
0.1445144793339967 -0.3462330842505185 -0.3168775062319593
0.34613567163558295 0.4195561325279897 -0.3168775062319593
-0.02656499310834289 -0.46181601694861707 -0.3157314754680101
0.18016176624663718 -0.3982342301647143 -0.3157314754680101
-0.005220170129788622 -0.3365720449104266 -0.31544496777702274
-0.051537003454796414 -0.4027495913746743 -0.31458544470406086
0.3510693340743843 0.42596817465228554 -0.31458544470406086
-0.03533785860637412 -0.3673028598457249 -0.3134394139401116
-0.0034094415227489223 -0.3172499662302427 -0.3134394139401116
-0.03279940046422661 -0.32029840806234766 -0.31269449394354465
-0.018227619300612324 -0.315754396083289 -0.31229338317616245
0.3426001667287995 0.4154762630083305 -0.31229338317616245
-0.016577335000525387 -0.33590734706733605 -0.3111473524122132
0.03458147830216777 -0.2845766291500505 -0.3111473524122132
0.14700709624558625 -0.3596072632658059 -0.3108608447212259
0.15008991900060956 -0.35378542698494386 -0.310001321648264
0.08168907285430038 -0.042236963805348464 -0.3097148139572767
0.10563538566701934 -0.29327500264842504 -0.30885529088431474
0.15928108572748237 0.25452197236548235 -0.30885529088431474
0.13155860154755078 -0.31949618652758316 -0.30770926012036554
0.00130647507090216 -0.3233640403559118 -0.30770926012036554
0.006217216894424562 -0.3365720449104266 -0.30696434012379853
0.1375981836735632 -0.4592259874220918 -0.30656322935641633
0.09678229801551161 -0.18562833299067485 -0.306276721665429
0.03605985798766224 -0.2901921798934016 -0.3054171985924671
0.12697447849175383 -0.07242341412777092 -0.3051306909014798
0.09191739742254723 -0.2762220648808607 -0.3042711678285179
-0.03620311183315584 -0.352473221760222 -0.3042711678285179
0.20244633445162966 -0.44587472902208336 -0.30398466013753056
0.12252214897381111 -0.508127120119805 -0.3031251370645687
0.026456120185767765 -0.26110018895055065 -0.30283862937358136
-0.031217878009976708 -0.4645664907820951 -0.3019791063006194
0.08168907285430038 -0.18562833299067485 -0.30169259860963216
0.16252435278945868 -0.37986908717242807 -0.3008330755366702
-0.04369815302938369 -0.35093754053653003 -0.3008330755366702
0.35027284269343956 0.46003966926449585 -0.299687044772721
0.1717269798239709 -0.35465068021172547 -0.299687044772721
0.08979151035542138 -0.30754881581341253 -0.2994005370817337
-0.008738484575112752 -0.308012958272812 -0.2985410140087718
-0.001329395686181091 -0.06487680154716527 -0.2982545063177845
0.05123903545616966 -0.2781187457951966 -0.29739498324482255
0.09385418941362138 -0.2730017184341633 -0.29739498324482255
0.10432891059611726 -0.20826817073249165 -0.2971084755538353
0.17921629086637897 -0.38609203422067234 -0.29624895248087335
0.044236787488439955 -0.2988332518535788 -0.29596244478988604
-0.04777229239522316 -0.4015749098416263 -0.29510292171692415
-0.028455943868859093 -0.475786131961158 -0.29510292171692415
-0.001329395686181091 -0.20826817073249165 -0.29435800172035714
-0.03353286015315411 -0.36640895584984445 -0.2939568909529749
0.1672574598445689 -0.3390875824372951 -0.2939568909529749
0.09545290232933053 -0.30884956073049497 -0.29321197095640794
-0.0378820469023414 -0.36410543401430656 -0.2928108601890257
0.15011283961588864 -0.3137373819387384 -0.2928108601890257
0.04719927701324867 -0.3063225628959869 -0.2920659401924587
0.016113192541126097 -0.4933146724957614 -0.2916648294250765
-0.05103274991865871 -0.35432406144399997 -0.2916648294250765
-0.01502446331537427 -0.34063472396862654 -0.2909199094285095
-0.04009961643058314 -0.3847798289959505 -0.29051879866112723
0.07188477966871482 -0.2866910559095368 -0.29051879866112723
-0.0486891170063826 -0.32902543232982095 -0.2897738786645603
-0.05449949297960512 -0.4347926115346944 -0.28937276789717803
0.1299999997085798 -0.48055935009300654 -0.28937276789717803
-0.04017983858405957 -0.3804019914776645 -0.28822673713322877
0.18114162254981372 -0.4364085149118629 -0.28822673713322877
0.03941199797221367 -0.3893983329746658 -0.2874818171366618
0.16063340202894238 -0.3662599718505311 -0.2870807063692796
0.07481861842442482 -0.27395865412206094 -0.2870807063692796
-0.001329395686181091 -0.20826817073249165 -0.2863357863727126
0.1016987699928538 -0.5181950003810989 -0.28593467560533037
-0.05708952250613035 -0.3921545369619637 -0.28593467560533037
0.3483933522405628 0.5481006731663538 -0.2847886448413811
0.17998413147822503 -0.35161942884107983 -0.2847886448413811
0.021316172209455562 -0.4884211211336982 -0.28404372484481416
0.17238594751324174 -0.3875073822141496 -0.2836426140774319
0.08996914512383354 -0.2716150212097848 -0.2836426140774319
-0.02933265740328028 -0.36675849523284904 -0.2828976940808649
0.09751002755061942 -0.2839864233066166 -0.2824965833134827
0.06879049660605197 -0.29941772754319285 -0.2824965833134827
0.11369771209140217 -0.3383885036712861 -0.28175166331691576
-0.030707894320019313 -0.3254956575768574 -0.2813505525495335
0.06872746491403471 -0.3095543696503237 -0.2813505525495335
0.06659584769308916 -0.2480526287029888 -0.2806056325529665
0.11276942717260327 -0.5139890674774052 -0.28020452178558425
0.15205536176078258 -0.3336840473852745 -0.28020452178558425
0.17980076655599309 -0.4724168015151473 -0.27945960178901724
-0.04838541885393599 -0.3521809839154149 -0.27905849102163505
0.06497421416210108 -0.25696301789269405 -0.27877198333064773
0.34880019316176475 0.5719381130564976 -0.27791246025768584
0.17951425886500588 -0.41880548237760284 -0.27791246025768584
0.10349230813843432 -0.3441186574910322 -0.27762595256669853
0.35126415930425564 0.5539282396010357 -0.2767664294937366
0.1369564064457515 -0.49812227155052835 -0.2767664294937366
0.05312425606286609 -0.33925375689806775 -0.27647992180274933
-0.023860360505422683 -0.45587384743754034 -0.2756203987297874
0.08719575067507646 -0.5286124200253973 -0.2756203987297874
0.1348591701477245 -0.32684797387831743 -0.2748754787332204
0.17394454935221262 -0.4026693692211978 -0.2744743679658382
0.11362895024556521 -0.3234786434323067 -0.2744743679658382
-0.05415568375042034 -0.45732357635393617 -0.2737294479692712
0.11334817270839762 -0.3347212052266486 -0.2733283372018889
-0.06515184893051308 -0.3951456772558712 -0.2733283372018889
0.34846784424021954 0.5748490311969287 -0.2721823064379397
0.1775946573353909 -0.3525133328369602 -0.2721823064379397
0.14961431623357063 -0.3743051078134546 -0.2714373864413727
0.004028298135281524 -0.3187512665310162 -0.2710362756739905
-0.03614581029495835 -0.4429236998049142 -0.2710362756739905
-0.019442411910398437 -0.46469828431994936 -0.2698902449100413
0.18155419362483546 -0.42805395064267304 -0.2698902449100413
0.12697447849175383 -0.23091373862812822 -0.26960373721905395
0.13289945754137125 -0.28483448607193906 -0.26874421414609206
0.013769559628849909 -0.2761934141117619 -0.2684577064551048
-0.039887600739252585 -0.3632287204798854 -0.2675981833821428
0.17831665671667893 -0.40631947720437606 -0.2675981833821428
0.17476396134843633 -0.4084682848867809 -0.26645215261819366
0.16863842691512765 -0.3715087927494185 -0.26645215261819366
0.10432891059611726 -0.10260986445019338 -0.2661656449272063
0.08693789375318788 -0.5278961507979291 -0.2653061218542444
-0.02396923342799789 -0.2535535763699451 -0.2650196141632571
0.16347555832353652 -0.41146515533450806 -0.2641600910902952
0.17454621550328592 -0.35021554115524206 -0.2641600910902952
-0.04412218441204489 -0.3660078450824623 -0.26301406032634594
0.08770573436503386 -0.5303257360175014 -0.26301406032634594
0.12697447849175383 -0.3676695896901886 -0.26226914032977894
-0.009477674417860026 -0.29771014170490856 -0.26186802956239674
0.14507030425451195 -0.27710450856910157 -0.2611231095658298
0.16368757401486717 -0.4134019473255822 -0.26072199879844754
0.06935778183420686 -0.3031595179874871 -0.26072199879844754
0.021235950055979058 -0.501537443227097 -0.2595759680344983
0.1473852863976895 -0.30525675428551413 -0.2595759680344983
0.1345210910723595 -0.32902543232982095 -0.25883104803793133
0.053244589293080756 -0.33690439383197185 -0.2584299372705491
0.043956009951272364 -0.36675849523284904 -0.2576850172739821
-0.05437915974939045 -0.38758760436762607 -0.2572839065065999
-0.012508925788505692 -0.23846035120873388 -0.2565389865100329
0.1400621498160539 -0.5001220952336197 -0.2561378757426506
-0.009913166108160692 -0.48321241131154896 -0.2561378757426506
0.02269713928001437 -0.523088551743162 -0.2549918449787014
0.08990038327799658 -0.2667272000015413 -0.2549918449787014
-0.029137832173408876 -0.33746594890630693 -0.2538458142147522
