0.19315664687720838 0.2565745746160987 -0.20572253539752344
0.10794004279138808 0.4224878213128995 -0.20572253539752344
-0.11090719474423695 0.18338482644582588 -0.20572253539752344
0.03713390668990401 0.09378672797629888 -0.20572253539752344
0.09672420840961925 0.1080488383629925 -0.20572253539752344
0.11309299668283568 -0.08477647654614771 -0.20572253539752344
-0.05345324243057285 -0.1672435198223281 -0.20572253539752344
-0.1923654063564487 -0.21742794985151243 -0.20572253539752344
0.13549499392684486 -0.4139028616626568 -0.20572253539752344
0.19855686343139342 -0.31560111746477293 -0.20572253539752344
0.2136992288974322 -0.2016328109558467 -0.20572253539752344
0.29949937286731293 -0.09904847743935088 -0.20572253539752344
0.3912338207428912 0.09488457419885286 -0.20572253539752344
0.31415710351438647 0.13192452107691677 -0.20572253539752344
0.319428743483948 -0.1376906863719531 -0.20572253539752344
0.22591400443666015 -0.07125615414766634 -0.20572253539752344
0.38087846042744855 -0.22198747335239022 -0.20572253539752344
0.4399148937826322 -0.38477531999219017 -0.20572253539752344
0.509336358972787 -0.508505556425989 -0.20572253539752344
-0.17336574335170618 -0.2077055819526775 -0.20374443409562418
-0.009816327710675025 -0.13760167181336763 -0.20374443409562418
0.04558039924901386 -0.10262884079578864 -0.20374443409562418
0.0735309706448504 -0.07369910925551193 -0.20374443409562418
0.07798169857412376 0.043651750479662 -0.20374443409562418
-0.0027446155563852627 0.09019647411335172 -0.20374443409562418
-0.07902020175762078 0.12678145769197857 -0.20374443409562418
-0.15551337910206542 0.18374088468016775 -0.20374443409562418
0.11212372704490504 0.469705099389235 -0.20374443409562418
0.1777966902679606 0.31503735859373144 -0.20374443409562418
0.1525264461361976 0.27023336410571314 -0.20374443409562418
0.23367805204661488 0.14930214101410158 -0.20374443409562418
0.39426031573479703 0.17590760352464666 -0.20374443409562418
0.39603071639999693 0.301873094429592 -0.20374443409562418
0.4503988306826983 0.3425032951706029 -0.20374443409562418
0.49937661891772406 0.438302741221584 -0.20374443409562418
0.7098564879463151 0.17540318769266247 -0.20374443409562418
0.6599489920993967 0.12234062026921462 -0.20374443409562418
0.6059468265575467 0.09418234823667865 -0.20374443409562418
0.5045097917961524 0.08974151081391482 -0.20374443409562418
0.503303150001994 -0.10643668580194464 -0.20374443409562418
0.5848108141467534 -0.1381555401778994 -0.20374443409562418
0.7340288858555242 -0.1702799053207435 -0.20374443409562418
0.7929070711065559 -0.21001996047589958 -0.20374443409562418
0.4644037879001451 -0.45115050917742 -0.20374443409562418
0.4363345304261946 -0.36369865062045353 -0.20374443409562418
0.41686012310899623 -0.21344207572818535 -0.20374443409562418
0.39087776250854933 -0.2032054014908567 -0.20374443409562418
0.3132867389415507 0.08311487145255227 -0.20374443409562418
0.4170777142522051 -0.07600359727222447 -0.20374443409562418
0.4469569344173935 0.010172385945016906 -0.20374443409562418
0.4277792422954802 0.04561996127505175 -0.20374443409562418
0.4277001182434041 -0.032791974332235053 -0.20374443409562418
0.2345484166194505 0.10162000913181998 -0.20374443409562418
0.349960737078763 0.08447976135086281 -0.20374443409562418
0.21178047063459005 -0.21186948519317553 -0.20374443409562418
0.2054901084945503 -0.3038314147184723 -0.20374443409562418
0.17495811489973526 -0.3721451431795634 -0.20374443409562418
0.11155996817386374 -0.5141728166559305 -0.20374443409562418
0.4499636483962804 -0.4156534813148377 -0.20324990877014937
0.16259498176286485 -0.3908085289629829 -0.20324990877014937
0.25552618092609214 -0.15715520318264176 -0.20324990877014937
0.5281184308343202 -0.042830838439373825 -0.20324990877014937
0.751604315922899 -0.20936718704627294 -0.20324990877014937
0.6224441914153866 0.14980655684608604 -0.20324990877014937
0.36292719111271277 0.1237549627000726 -0.20324990877014937
0.4512197427229865 0.38353900667850316 -0.20324990877014937
0.15324845311139076 0.3713341216457846 -0.20324990877014937
0.2371990723639955 0.12061967213656247 -0.20324990877014937
-0.005296366235835269 0.14980655684608604 -0.20324990877014937
0.12429894055809511 -0.06695378381603542 -0.20324990877014937
-0.07178035099266948 -0.15170553409590942 -0.20324990877014937
-0.1682325704732777 -0.20173171602094173 -0.20176633279372488
-0.03391949207431767 -0.13823466422997532 -0.20176633279372488
0.057577583645032834 -0.1140820473337854 -0.20176633279372488
0.09918694453048393 -0.04265280932220288 -0.20176633279372488
0.12562426843036748 0.06402619388922444 -0.20176633279372488
-0.010024028347374455 0.09392519506743179 -0.20176633279372488
-0.027955516649091308 0.12255821141242373 -0.20176633279372488
-0.1883399702070837 0.21309590800035302 -0.20176633279372488
0.09747588690434104 0.4935610010901402 -0.20176633279372488
0.17007220468404394 0.3614930676688357 -0.20176633279372488
0.21683451946094262 0.2619352291442457 -0.20176633279372488
0.20868474209711768 0.179478076374575 -0.20176633279372488
0.4315771967951266 0.20186029260556523 -0.20176633279372488
0.4081268058611109 0.3102602439496447 -0.20176633279372488
0.43884671907960654 0.3561521941537078 -0.20176633279372488
0.513945335006212 0.4545528434166865 -0.20176633279372488
0.7060090809141212 0.1584112975093479 -0.20176633279372488
0.6345699523960291 0.13885776614007364 -0.20176633279372488
0.585503149602418 0.09423180076922623 -0.20176633279372488
0.5039757044446399 0.10159033761229148 -0.20176633279372488
0.4949061099754318 -0.08484571009171424 -0.20176633279372488
0.6066886145457591 -0.1036475629662667 -0.20176633279372488
0.716868857061548 -0.17032935785329095 -0.20176633279372488
0.7851034614705631 -0.19981295775809943 -0.20176633279372488
0.5068439513323938 -0.48905093012180983 -0.20176633279372488
0.43478172090420353 -0.33622282353707267 -0.20176633279372488
0.4630388980018345 -0.28887696887611386 -0.20176633279372488
0.3880391871403239 -0.18245511883393342 -0.20176633279372488
0.39448779738451556 -0.041159342839268975 -0.20176633279372488
0.29510798797709653 -0.1435755377451034 -0.20176633279372488
0.32527403283106027 -0.15033075369108934 -0.20176633279372488
0.3035346995231874 -0.1464536751393668 -0.20176633279372488
0.2054505464685124 0.009648189100013627 -0.20176633279372488
0.33866577864491826 -0.10319259966682995 -0.20176633279372488
0.38266864210566737 0.07595414473967689 -0.20176633279372488
0.1883993132461407 -0.21651802325263877 -0.20176633279372488
0.2126903972334637 -0.31630334342694716 -0.20176633279372488
0.17099202178942713 -0.3892557194409919 -0.20176633279372488
0.10682241555581501 -0.5103847526627934 -0.20176633279372488
0.4600915270620046 -0.319151809301682 -0.2012718074682501
0.1321717837396541 -0.38671385926805146 -0.2012718074682501
0.17370202057302914 0.06593506164555721 -0.2012718074682501
0.13278499514324285 0.3768233527585551 -0.2012718074682501
0.4498647433311855 0.3973164822462315 -0.2012718074682501
0.4600915270620046 -0.05496648992652584 -0.2012718074682501
0.47795378181815507 -0.3799289718025369 -0.20048056694749036
0.3587731783787243 -0.14980655684608604 -0.20048056694749036
-0.09998807555775302 -0.15592878037546426 -0.20048056694749036
0.1862926353596179 -0.33531289693819905 -0.20048056694749036
0.17446358957426034 -0.053463132937082394 -0.20048056694749036
-0.012823041689561927 0.11072916562706601 -0.20048056694749036
0.1333883160403222 0.37536944830165897 -0.20048056694749036
0.2516293213613507 0.1628323539190928 -0.20048056694749036
0.48566837689556225 0.3842807946667153 -0.20048056694749036
0.6063424468179267 0.1251989766504592 -0.20048056694749036
0.43989511276961313 -0.04970474046347384 -0.20048056694749036
0.6902337230314746 -0.18048690803854367 -0.20048056694749036
0.8039053143451157 -0.21544984854961313 -0.19978823149182562
0.662085341505448 -0.17019089076215804 -0.19978823149182562
0.6108821893057856 -0.1128655150331173 -0.19978823149182562
0.5172685451934029 -0.10446847500655489 -0.19978823149182562
0.4920576441006967 0.07945538404403858 -0.19978823149182562
0.5643968087111527 0.11080828967914194 -0.19978823149182562
0.6781277430638508 0.17424599843105149 -0.19978823149182562
0.7648477041391146 0.1834144979653545 -0.19978823149182562
0.4997623486715943 0.5042922006529434 -0.19978823149182562
0.4689237493749848 0.3451044983826002 -0.19978823149182562
0.4603091182052134 0.2827745263597545 -0.19978823149182562
0.40874001726469966 0.1995656950953621 -0.19978823149182562
0.24113549395477502 0.2224226556388079 -0.19978823149182562
0.18273205301619924 0.2557734435888296 -0.19978823149182562
0.17536362566662458 0.33575796973112626 -0.19978823149182562
0.14138973580650468 0.41359625596086236 -0.19978823149182562
-0.16219936150248493 0.1797747915698599 -0.19978823149182562
-0.11068960360102797 0.1570167360915087 -0.19978823149182562
0.02446416785123916 0.1340213084569299 -0.19978823149182562
0.07632998398703786 0.05892269253032429 -0.19978823149182562
0.11449744860718411 -0.12709795390028245 -0.19978823149182562
0.03351398130742836 -0.10426077436985545 -0.19978823149182562
0.025265298878508393 -0.10387504461598508 -0.19978823149182562
-0.08049388722753574 -0.16688746158798623 -0.19978823149182562
-0.19235551584993915 -0.20895178577287407 -0.19978823149182562
0.12119332151411319 -0.4208756687518517 -0.19978823149182562
0.1686084097206385 -0.3968417379337757 -0.19978823149182562
0.17517570604294408 -0.2683047153363614 -0.19978823149182562
0.2401662243168444 -0.21221565292100786 -0.19978823149182562
0.4006693639529508 -0.0037237757008254354 -0.19978823149182562
0.37841572430658404 -0.11844376070447316 -0.19978823149182562
0.3619480309682726 -0.12124277404666062 -0.19978823149182562
0.34120763881785887 -0.15049889230175087 -0.19978823149182562
0.3141472130078769 -0.13992594084309928 -0.19978823149182562
0.4057926463248699 0.011725195467007793 -0.19978823149182562
0.2711432907045869 0.09969136036246812 -0.19978823149182562
0.38627867698163365 -0.19242474939550566 -0.19978823149182562
0.4055453836621324 -0.30861841986906846 -0.19978823149182562
0.4381741646369607 -0.3239882669848258 -0.19978823149182562
0.46812261834771574 -0.4443260596858675 -0.19978823149182562
0.10027490024652852 0.4421006957212308 -0.1992937061663508
0.48904103961530027 0.37496393753476964 -0.1992937061663508
0.5316889036842485 -0.1167327030783304 -0.1992937061663508
0.45173404906148024 -0.3156604605038299 -0.1992937061663508
-0.15621560506423962 -0.17201074395990534 -0.1992937061663508
0.23507261346445377 0.1237549627000726 -0.1992937061663508
0.22484582973363465 -0.245516988338482 -0.1992937061663508
0.45206043577629346 0.3809378034665056 -0.19850246564559113
0.7066717448502575 0.1386599560098836 -0.19850246564559113
0.502066836688307 0.019538695609509948 -0.19850246564559113
0.17141731356933554 0.05861608682852985 -0.19850246564559113
0.4335849696165544 -0.07554863397278772 -0.19850246564559113
0.7070278030845993 -0.15724421774122724 -0.19850246564559113
0.4499636483962804 -0.3113778711852179 -0.19850246564559113
0.13647415407128502 -0.3809378034665056 -0.19850246564559113
-0.008936072631329867 -0.12029328542174908 -0.19850246564559113
-0.08360939677802706 0.17921103269881847 -0.19850246564559113
0.15290228538355843 0.3187462985347926 -0.19850246564559113
0.5009986619852813 -0.5194246756124731 -0.19781013018992638
0.4881904560554837 -0.4183733706049491 -0.19781013018992638
0.41043129387782357 -0.32392892394576883 -0.19781013018992638
0.374093572961934 -0.20249328502217293 -0.19781013018992638
0.29358484997463413 0.09046351778910812 -0.19781013018992638
0.3964263366603768 0.0012511490734512147 -0.19781013018992638
0.3989780873398268 0.08940523359259188 -0.19781013018992638
0.4280166144517081 0.027698363479844442 -0.19781013018992638
0.4560463098996207 -0.025700481164926202 -0.19781013018992638
0.39016564603986553 -0.12081748226675236 -0.19781013018992638
0.2819931763455043 0.12114386898156575 -0.19781013018992638
0.22113688979257354 -0.11975919807023626 -0.19781013018992638
0.19795354253431408 -0.20041627865517878 -0.19781013018992638
0.19272146459079056 -0.2708960280418494 -0.19781013018992638
0.1798341346089169 -0.36334259238611166 -0.19781013018992638
0.10342008131654833 -0.5217192731226762 -0.19781013018992638
-0.1606366614739845 -0.20008000143385582 -0.19781013018992638
-0.059377655829761185 -0.14131061175442877 -0.19781013018992638
-0.014425303744100391 -0.10746529847893224 -0.19781013018992638
0.10988847257375889 -0.06666695912725992 -0.19781013018992638
0.12678145769197857 0.06367013565488257 -0.19781013018992638
0.03660970984490059 0.08969205828136738 -0.19781013018992638
-0.05836882416579252 0.17805384343720748 -0.19781013018992638
-0.1564134151944295 0.18670803663301677 -0.19781013018992638
0.11216328907094308 0.4516648155159136 -0.19781013018992638
0.12842328177255494 0.4070091786255378 -0.19781013018992638
0.21452014093772054 0.29873780386608156 -0.19781013018992638
0.20500547367558505 0.19406657347608203 -0.19781013018992638
0.19323577092928446 0.1950754051400507 -0.19781013018992638
0.37873222051488786 0.20182073057952707 -0.19781013018992638
0.40037264875766587 0.2908253986584844 -0.19781013018992638
0.4730283095764257 0.3341458171700785 -0.19781013018992638
0.5327274068677456 0.48725085793708145 -0.19781013018992638
0.7807516386063847 0.19556993046552534 -0.19781013018992638
0.6840422659565298 0.12385386776516775 -0.19781013018992638
0.6265685326298466 0.09013713107429473 -0.19781013018992638
0.45015156801996087 0.06137553814467942 -0.19781013018992638
0.5202950401853086 -0.08309509043953332 -0.19781013018992638
0.5604702776268827 -0.1071092402445905 -0.19781013018992638
0.6452912614523232 -0.15378254046290357 -0.19781013018992638
0.7009154700617304 -0.17417676488548497 -0.19781013018992638
0.13129152866030894 -0.4677269980873358 -0.19731560486445154
0.45643203965349094 -0.3188452035998876 -0.19731560486445154
0.6193089008518765 -0.11910642464060948 -0.19731560486445154
0.5535963756027829 0.08067191634470668 -0.19731560486445154
0.22585466139760318 0.2378815173131508 -0.19731560486445154
-0.0871205265888983 0.1414985313781091 -0.19731560486445154
-0.08412370311652093 -0.183543074549978 -0.19731560486445154
0.42941117586954697 -0.24098713635713256 -0.19652436434369186
0.1598750924727533 -0.40848286409545276 -0.19652436434369186
0.08183899611282734 -0.11665357902625434 -0.19652436434369186
0.07219575226606847 0.1140721568272757 -0.19652436434369186
0.40856198814752887 -0.13037171155492575 -0.19652436434369186
0.6323841504574303 -0.16088392413672198 -0.19652436434369186
0.6291994073613728 0.11006650169092982 -0.19652436434369186
0.2643682937455819 0.1336454692095689 -0.19652436434369186
0.1370972559813833 0.44372273878878804 -0.19652436434369186
0.5123430729516736 0.44852952495240345 -0.19652436434369186
-0.07474750294551835 -0.16019158868105715 -0.19583202888802712
-0.05773583174918469 -0.19234562534342975 -0.19583202888802712
0.03135785088835812 -0.13949075855668133 -0.19583202888802712
0.10971044345658794 -0.11292485807217428 -0.19583202888802712
0.13646426356477548 0.11689095118248226 -0.19583202888802712
0.054491745614070004 0.10752464151798923 -0.19583202888802712
-0.08471713350709073 0.12242963482780023 -0.19583202888802712
-0.15200224929119419 0.1834738410044115 -0.19583202888802712
0.07990045683696607 0.48980260861653163 -0.19583202888802712
0.15972673487511085 0.33261278866110655 -0.19583202888802712
0.20704291801654132 0.25977909872517563 -0.19583202888802712
0.18292986314638926 0.19754803176742478 -0.19583202888802712
0.4005506778748368 0.1939973399305155 -0.19583202888802712
0.3645591246867796 0.21706200111066085 -0.19583202888802712
0.3994528316522827 0.29264525185623197 -0.19583202888802712
0.46280152584560663 0.43544438484033976 -0.19583202888802712
0.5209774851344641 0.47998133565260154 -0.19583202888802712
0.7447007423792709 0.14956918468985814 -0.19583202888802712
0.6297334947128854 0.11884927147136261 -0.19583202888802712
0.5828129318318348 0.13954021108922876 -0.19583202888802712
0.502323989857554 0.09481534065328648 -0.19583202888802712
0.5124320875102591 -0.07974220873281408 -0.19583202888802712
0.5682343252368374 -0.11521945558237742 -0.19583202888802712
0.7248702768277304 -0.2028790147760433 -0.19583202888802712
0.7882189710210544 -0.19491715703589885 -0.19583202888802712
0.4677368885938452 -0.4237439156396057 -0.19583202888802712
0.46496754677118624 -0.3644898911412132 -0.19583202888802712
0.38493356809634205 -0.2814788700070106 -0.19583202888802712
0.43818405514347025 -0.20338343060802763 -0.19583202888802712
0.32208928973500245 -0.10086833063709832 -0.19583202888802712
0.28005463706964306 -0.14541517195586964 -0.19583202888802712
0.20698357497748435 -0.10530916805986215 -0.19583202888802712
0.15721454622169875 -0.015908879720524894 -0.19583202888802712
0.32742027274362095 0.11292485807217413 -0.19583202888802712
0.1967567912466651 0.023910299486707254 -0.19583202888802712
0.29405959428708983 -0.14441623079841054 -0.19583202888802712
0.18276172453572773 -0.20702313700352223 -0.19583202888802712
0.23428137294369408 -0.2127695212855396 -0.19583202888802712
0.20841769842136126 -0.29832240259268283 -0.19583202888802712
0.14988568089816198 -0.4226658504300705 -0.19583202888802712
0.09925617807605032 -0.48025826983486763 -0.19583202888802712
0.163376331777115 0.2983421836057018 -0.1953375035625523
0.061187618520999076 0.08006859544762747 -0.1953375035625523
0.15035053470410828 -0.3186770649892262 -0.1953375035625523
0.7589134002334169 -0.21493554221111927 -0.1953375035625523
0.7618310996537184 0.20190974513811266 -0.1953375035625523
0.05483791334190234 -0.08153239041103288 -0.19454626304179257
0.1602410412136046 0.08781286204456311 -0.19454626304179257
0.3865160491378614 -0.1628323539190928 -0.19454626304179257
0.22484582973363465 0.2443400180638518 -0.19454626304179257
0.3884941504397607 0.23211535201811445 -0.19454626304179257
0.7161567405928642 0.1414985313781091 -0.19454626304179257
0.5411442279073269 0.0065128985365032225 -0.19454626304179257
0.6974636832899163 -0.19963492864092847 -0.19454626304179257
0.3848247725247376 -0.27018391157316585 -0.19454626304179257
0.13110360903662846 -0.4753130165801195 -0.19454626304179257
0.5069329658909791 -0.4268890967096255 -0.19385392758612785
0.43552350889241565 -0.3382800488910479 -0.19385392758612785
0.3727583545831521 -0.24344987247799724 -0.19385392758612785
0.36686361270349227 0.0703264465357736 -0.19385392758612785
0.372896821674285 -0.06890221359840622 -0.19385392758612785
0.2380397654173028 -0.11340949289113966 -0.19385392758612785
0.1708139926722562 -0.0362437611040493 -0.19385392758612785
0.18617394928150394 0.03559098767442252 -0.19385392758612785
0.41998552316599697 -0.0949241362248909 -0.19385392758612785
0.3065710850216027 0.12721663997839625 -0.19385392758612785
0.17117005090659806 -0.01566161705778743 -0.19385392758612785
0.23440005902180805 -0.20968368325457679 -0.19385392758612785
0.17057662051602826 -0.335213991873104 -0.19385392758612785
0.10495310982552027 -0.4284517967381259 -0.19385392758612785
0.11965040249863171 -0.4900993238118165 -0.19385392758612785
-0.10983902004121131 -0.19096095443210026 -0.19385392758612785
-0.045659523301089786 -0.14768998845305384 -0.19385392758612785
0.1033805192905103 -0.06937695791086192 -0.19385392758612785
0.09281745833836824 0.06017878685703028 -0.19385392758612785
0.02908303439117393 0.08707107405635085 -0.19385392758612785
-0.09018658360684217 0.1343180236522148 -0.19385392758612785
-0.1333982065468316 0.18016052132373014 -0.19385392758612785
0.10067052050690829 0.5095836216355243 -0.19385392758612785
0.14399093901850227 0.3657855474939571 -0.19385392758612785
0.1997437242125329 0.280390914290966 -0.19385392758612785
0.23924640721146134 0.22132480941625388 -0.19385392758612785
0.38057185472565414 0.17189205788179138 -0.19385392758612785
0.4352762462296782 0.25231176631050595 -0.19385392758612785
0.4338816848118393 0.35508401945068213 -0.19385392758612785
0.483096845203093 0.40529812099939494 -0.19385392758612785
0.7863694463037788 0.16402910520674163 -0.19385392758612785
0.7147028361359683 0.16257520074984577 -0.19385392758612785
0.5813788083879581 0.09175917414185214 -0.19385392758612785
0.5172289831673648 0.07000005982096022 -0.19385392758612785
0.5305910574616942 -0.0738276858401353 -0.19385392758612785
0.619180324267253 -0.10815763393459706 -0.19385392758612785
0.6542421698434173 -0.15972673487511085 -0.19385392758612785
0.7786647417328811 -0.192770917123338 -0.19385392758612785
0.3961197309585824 0.24589282758584283 -0.19335940226065304
0.6193089008518765 -0.15111210370533962 -0.19335940226065304
0.1839288043038484 -0.24098713635713256 -0.19335940226065304
0.14737349224475 -0.04559028975552326 -0.19335940226065304
0.1555727221411224 0.3191518093016819 -0.19335940226065304
0.12715729693933941 0.3876336763734345 -0.1925681617398933
0.38869196056995076 0.22796133928412585 -0.1925681617398933
0.718678819752786 0.13678075977307932 -0.1925681617398933
0.42941117586954697 -0.24119483699383198 -0.1925681617398933
0.1373247376311017 -0.47948681032712687 -0.1925681617398933
-0.1656313672612801 -0.17748019405965676 -0.1925681617398933
0.18133749159836035 -0.07364965672296435 -0.1925681617398933
0.4760152425422938 -0.019538695609509948 -0.1925681617398933
0.26063957279150185 0.1628323539190928 -0.1925681617398933
-0.08297640436141936 0.17921103269881847 -0.1925681617398933
0.7434743195720931 -0.16190264630720003 -0.19187582628422856
0.6625699763244134 -0.18003194473910678 -0.19187582628422856
0.5761269494314154 -0.10521026299476714 -0.19187582628422856
0.5078428924898529 -0.0773981586900635 -0.19187582628422856
0.6228991547148237 0.09095804311458291 -0.19187582628422856
0.6675844631247281 0.17115026989357898 -0.19187582628422856
0.7311804199807892 0.1971326304940259 -0.19187582628422856
0.49149388522965554 0.46917101203772216 -0.19187582628422856
0.4980809625649801 0.41266654834896976 -0.19187582628422856
0.4776372856098511 0.3396251577763395 -0.19187582628422856
0.3699989032670027 0.1359697382393007 -0.19187582628422856
0.23161093618613013 0.20341310212755598 -0.19187582628422856
0.22115667080559248 0.3071645154121725 -0.19187582628422856
0.18546183281282033 0.3539169396825616 -0.19187582628422856
0.08711063608238889 0.4812868825118551 -0.19187582628422856
-0.11777120626182742 0.15710575065009433 -0.19187582628422856
-0.030774311004297724 0.12732543555000095 -0.19187582628422856
0.0021314041527965145 0.09693190904631868 -0.19187582628422856
0.10503223387759619 0.11036321688621459 -0.19187582628422856
0.014998953121651247 -0.10617953263269776 -0.19187582628422856
-0.0480134638503499 -0.18755862019283356 -0.19187582628422856
-0.10139252748210145 -0.1684007090839391 -0.19187582628422856
0.09512194635508092 -0.4696655373631971 -0.19187582628422856
0.1720700869989623 -0.36326346833403556 -0.19187582628422856
0.20075255587650156 -0.2927639379343458 -0.19187582628422856
0.25048202260624913 -0.15259567968176396 -0.19187582628422856
0.23486491282775435 0.055619263356152485 -0.19187582628422856
0.39996713799077654 0.10129362241700658 -0.19187582628422856
0.4492416414210871 -0.011369137232666053 -0.19187582628422856
0.3992945835481307 -0.13513893569250296 -0.19187582628422856
0.21964342330963949 -0.11559529482973824 -0.19187582628422856
0.4513087572815718 0.01241753092267261 -0.19187582628422856
0.21858513911312338 0.10748507949195119 -0.19187582628422856
0.4020342538512612 -0.20803196866749088 -0.19187582628422856
0.3750430615868457 -0.28672083845704366 -0.19187582628422856
0.44977572877259986 -0.3520179624327384 -0.19187582628422856
0.4695171797655546 -0.43607737725694756 -0.19187582628422856
0.47025896775376674 0.03256449268251654 -0.19138130095875378
0.26124289368858106 0.13960944463479527 -0.19138130095875378
0.1839288043038484 -0.24119483699383198 -0.19138130095875378
0.351434422548678 -0.17585815099209937 -0.19138130095875378
-0.0028138491019516457 0.13678075977307932 -0.19059006043799406
0.05916995519306175 -0.09393508557394133 -0.19059006043799406
0.18941803541661878 -0.32603560183229147 -0.19059006043799406
0.40615859506572116 -0.14278429722434371 -0.19059006043799406
0.41088625717726046 0.13678075977307932 -0.19059006043799406
0.20084157043508702 0.3321776063746886 -0.19059006043799406
0.4369378513232736 0.22796133928412585 -0.19059006043799406
0.5672057125598499 -0.08132468977433346 -0.19059006043799406
0.4549781351965951 -0.4170183712131481 -0.19059006043799406
0.7129126544577497 -0.1867179271395263 -0.18989772498232932
0.662085341505448 -0.17355366297538669 -0.18989772498232932
0.5026899385984052 -0.1088005168577143 -0.18989772498232932
0.5288602188225325 0.055906088044927985 -0.18989772498232932
0.5852361059266614 0.08747658482324017 -0.18989772498232932
0.666229463732927 0.1310640470105904 -0.18989772498232932
0.7183722140509916 0.17522515857549154 -0.18989772498232932
0.4893278643040756 0.49027735292898744 -0.18989772498232932
0.4945500517410899 0.39539772398338907 -0.18989772498232932
0.4760844760878601 0.33850753054076616 -0.18989772498232932
0.39924513101558323 0.19055544366521093 -0.18989772498232932
0.2509073143861574 0.2288218133504522 -0.18989772498232932
0.210544157320903 0.30254564887223756 -0.18989772498232932
0.17789559533305563 0.36915821021369544 -0.18989772498232932
0.12261755445148072 0.40437830389401186 -0.18989772498232932
-0.1838101182257343 0.2170916726301895 -0.18989772498232932
-0.15698706457198036 0.1719612914273576 -0.18989772498232932
-0.042662699828712285 0.13762145282638658 -0.18989772498232932
0.11985810313533113 0.09432081532781156 -0.18989772498232932
0.07111768705653329 -0.06242393183468612 -0.18989772498232932
0.027085152076255694 -0.13799729207374742 -0.18989772498232932
-0.027184057141350564 -0.15831239244425288 -0.18989772498232932
-0.12296372217931291 -0.16382140457004235 -0.18989772498232932
0.10599161300901729 -0.45611554344518707 -0.18989772498232932
0.18444311064234212 -0.3638173366985675 -0.18989772498232932
0.17765822317682772 -0.2663167235279527 -0.18989772498232932
0.21062328137297892 -0.1869157372697162 -0.18989772498232932
0.30009280325788257 0.08625016201606267 -0.18989772498232932
0.439034638703287 0.01673968226732248 -0.18989772498232932
0.4050706393496766 -0.1134589454236871 -0.18989772498232932
0.29663112597955893 -0.16100261021483595 -0.18989772498232932
0.1852244606565924 -0.08097852204650112 -0.18989772498232932
0.39613951197160147 -0.12203401456742045 -0.18989772498232932
0.4087202362516807 0.08558749807992636 -0.18989772498232932
0.3706022241640819 -0.2215522910659724 -0.18989772498232932
0.4549286826640476 -0.28965831889036403 -0.18989772498232932
0.4743833089682267 -0.35809073342956904 -0.18989772498232932
0.4635136423142904 -0.42982657714294586 -0.18989772498232932
0.05607422665558938 -0.09256030516912138 -0.18940319965685448
0.39604060690650644 -0.2587307050351691 -0.18940319965685448
0.4242977840041374 0.24084866926599952 -0.18940319965685448
-0.015523149966654383 0.14204250923613146 -0.18940319965685448
0.163376331777115 0.4066432298846864 -0.1886119591360948
0.3578137992473032 0.15340670121554276 -0.1886119591360948
0.7198261185078875 0.13678075977307932 -0.1886119591360948
0.49787326192828046 0.04559028975552326 -0.1886119591360948
0.4464722995984281 -0.3075700261790618 -0.1886119591360948
0.266682672268804 -0.13925338640045354 -0.1886119591360948
0.08522154933907507 0.10223322053540873 -0.1886119591360948
0.011735085973517478 -0.14378323838180285 -0.1886119591360948
0.4620992998834324 -0.4498152907986379 -0.18791962368043005
0.45851893652699477 -0.3515629991333015 -0.18791962368043005
0.4115884831394347 -0.28764065556242685 -0.18791962368043005
0.3661910582608465 -0.20166248247537522 -0.18791962368043005
0.37142313620437006 0.055668715888700065 -0.18791962368043005
0.20285923376302437 0.058487510243906485 -0.18791962368043005
0.3026247729243136 0.13839291233412734 -0.18791962368043005
0.42925292776539514 0.09370760392422281 -0.18791962368043005
0.26234073991113516 0.09726818626764147 -0.18791962368043005
0.45527485039188 0.01454398982221435 -0.18791962368043005
0.2152421479129137 0.11219296059047143 -0.18791962368043005
0.24204542055364867 -0.20862539905806068 -0.18791962368043005
0.20634069205436695 -0.32655979867729473 -0.18791962368043005
0.13216189323314456 -0.33848774952774735 -0.18791962368043005
0.15288250437053932 -0.43454434874797565 -0.18791962368043005
-0.11731624296239053 -0.2056483565987023 -0.18791962368043005
-0.051663060752354044 -0.18332548340676905 -0.18791962368043005
0.023188292511514087 -0.07976198974583316 -0.18791962368043005
0.11424029543793725 -0.07473761243900895 -0.18791962368043005
0.16188286529418108 0.05345324243057285 -0.18791962368043005
0.006038154224047521 0.09246140010402637 -0.18791962368043005
-0.09258008618214032 0.1395896636217762 -0.18791962368043005
-0.10908734154648965 0.18907186768878642 -0.18791962368043005
0.10393438765504207 0.4260088416302802 -0.18791962368043005
0.19119832658832817 0.35960398092552187 -0.18791962368043005
0.14640422260681937 0.2840108396734415 -0.18791962368043005
0.17842968268456846 0.21341240420865673 -0.18791962368043005
0.3740342299228772 0.20880342817523162 -0.18791962368043005
0.4192041731517468 0.2445674997135702 -0.18791962368043005
0.4455920445190829 0.3953680524638607 -0.18791962368043005
0.4947478618712796 0.39588235880235445 -0.18791962368043005
0.734602535233075 0.1472350251536168 -0.18791962368043005
0.6774452981146958 0.1258913121061239 -0.18791962368043005
0.6076875557032182 0.15660133481810987 -0.18791962368043005
0.5573547680763915 0.06391739831761989 -0.18791962368043005
0.5333406182713344 -0.1344466002368383 -0.18791962368043005
0.6320478732361076 -0.11765252018371346 -0.18791962368043005
0.6532729002054869 -0.14597893082691096 -0.18791962368043005
0.807020823895607 -0.19644029503836125 -0.18791962368043005
0.5464356488899074 0.11627773977889351 -0.18742509835495522
0.1430117788740621 0.03727237378103691 -0.18742509835495522
0.1839288043038484 -0.3418109597149381 -0.18742509835495522
0.1363455774866615 -0.09216468490874147 -0.18663385783419553
0.16555224320920417 -0.30612601222867547 -0.18663385783419553
0.41088625717726046 -0.1628323539190928 -0.18663385783419553
0.6116734298265452 -0.11594146255757058 -0.18663385783419553
0.5672057125598499 0.05861608682852985 -0.18663385783419553
0.2631517614449138 0.13678075977307932 -0.18663385783419553
0.16269388682795974 0.40693005457346176 -0.18663385783419553
0.5220951123700371 -0.5013646107261328 -0.1859415223785308
0.49223567321786765 -0.4436930672692597 -0.1859415223785308
0.45326707757045215 -0.38084878890792007 -0.1859415223785308
0.44189299508453134 -0.31255484145984797 -0.1859415223785308
0.34230548504041286 -0.09915727301095544 -0.1859415223785308
0.22586455190411273 -0.05085203921857541 -0.1859415223785308
0.1744438085612414 -0.030635843913164817 -0.1859415223785308
0.19863598748346936 0.09393508557394133 -0.1859415223785308
0.3469342420868572 0.15074615496448818 -0.1859415223785308
0.32685651387257963 -0.15783764813179704 -0.1859415223785308
0.39859235758595646 0.10865215926007185 -0.1859415223785308
0.20157346791678973 -0.0495267113463029 -0.1859415223785308
0.19293905573399955 -0.214292659288002 -0.1859415223785308
0.20243394198311596 -0.29571130887417574 -0.1859415223785308
0.133981746430892 -0.3605633600569431 -0.1859415223785308
0.15486060567243862 -0.4331794588496651 -0.1859415223785308
-0.1967666817531745 -0.18946748794916635 -0.1859415223785308
-0.11525901760841531 -0.1591728665105791 -0.1859415223785308
-0.09346034126148549 -0.13904568576375412 -0.1859415223785308
0.009193225800576873 -0.17122939394565503 -0.1859415223785308
0.12607923172980437 -0.09830668945113877 -0.1859415223785308
0.1668478995619482 0.042949524517487785 -0.1859415223785308
0.035007447790362266 0.11079839917263254 -0.1859415223785308
-0.05655886147455463 0.1163469733244599 -0.1859415223785308
-0.15104287015977308 0.1968754773247789 -0.1859415223785308
0.10688175859487198 0.4894861124082276 -0.1859415223785308
0.1291551792542578 0.3769618198496879 -0.1859415223785308
0.18397825683639582 0.2985498842424011 -0.1859415223785308
0.2152718194324422 0.18229687072978143 -0.1859415223785308
0.38483466303124714 0.17672851556493482 -0.1859415223785308
0.4412797836809427 0.2678398615304151 -0.1859415223785308
0.48799264592529373 0.37790141796809 -0.1859415223785308
0.471356813976321 0.45127908576204334 -0.1859415223785308
0.5268524460011048 0.45491879215753794 -0.1859415223785308
0.7333464409063688 0.15803545826198692 -0.1859415223785308
0.6797102241053705 0.12539678678064894 -0.1859415223785308
0.5930199345496351 0.09497358875743833 -0.1859415223785308
0.5092869064402392 0.054353278522936956 -0.1859415223785308
0.5018393550385886 -0.11156985868037328 -0.1859415223785308
0.5666221726757893 -0.1128358435135888 -0.1859415223785308
0.6585148686555199 -0.13955999210224784 -0.1859415223785308
0.759130991376626 -0.1665511843666633 -0.1859415223785308
0.8159024987411346 -0.2258843329171318 -0.1859415223785308
-0.022960810861795713 -0.13063875523068216 -0.18544699705305598
0.5521523616523963 0.11072916562706601 -0.18544699705305598
0.16345545582919094 -0.3157989275949628 -0.18465575653229624
0.42943095688256605 -0.3485562851544146 -0.18465575653229624
0.42391205425026707 0.057607255164561326 -0.18465575653229624
0.3886227270243842 -0.1589552753673701 -0.18465575653229624
0.0967340989161288 -0.10857303520799592 -0.18465575653229624
0.042791276413335785 0.08309509043953332 -0.18465575653229624
0.396050497413016 0.252193080232392 -0.18465575653229624
0.18725201449103912 0.3355304880814079 -0.18465575653229624
-0.1077224516481791 -0.20015912548593176 -0.18396342107663155
-0.07438155420466706 -0.19132690317295167 -0.18396342107663155
0.0021116231397774275 -0.12835404822698857 -0.18396342107663155
0.06927805284576705 -0.065331740748478 -0.18396342107663155
0.0723045478376729 0.05534232917388667 -0.18396342107663155
0.03336562370978591 0.11521945558237742 -0.18396342107663155
-0.06110849446892301 0.15428695629488792 -0.18396342107663155
-0.20256251856773932 0.19146537026408444 -0.18396342107663155
0.1365631686298705 0.45250550856922084 -0.18396342107663155
0.18350351252393998 0.3648162778560266 -0.18396342107663155
0.17758898963126118 0.25084797134710024 -0.18396342107663155
0.17933960928344211 0.22032586825879477 -0.18396342107663155
0.36706142283368215 0.19166318039427446 -0.18396342107663155
0.47116889435264053 0.2969871842139008 -0.18396342107663155
0.45002299143533736 0.3952196948662181 -0.18396342107663155
0.48571782942810965 0.4516648155159136 -0.18396342107663155
0.7249988534123539 0.18666847460697888 -0.18396342107663155
0.7023693745186266 0.14399093901850227 -0.18396342107663155
0.594414495967474 0.1404798092076309 -0.18396342107663155
0.5571965199722396 0.06601418569763313 -0.18396342107663155
0.5110573071054391 -0.13966878767385227 -0.18396342107663155
0.6234728040923744 -0.09616044953857794 -0.18396342107663155
0.65222450651548 -0.16948866479998367 -0.18396342107663155
0.7257802034266042 -0.20894189526636453 -0.18396342107663155
0.4985754878904547 -0.48019892679581067 -0.18396342107663155
0.4394005874441382 -0.3675658386656665 -0.18396342107663155
0.43427730507221907 -0.2807370820187983 -0.18396342107663155
0.3740342299228772 -0.21187937569968493 -0.18396342107663155
0.21602349792716385 0.03375135346365614 -0.18396342107663155
0.4137050515324669 -0.10540807312495702 -0.18396342107663155
0.2759401863616926 -0.1202339423826921 -0.18396342107663155
0.14771965997258235 -0.04504631189750104 -0.18396342107663155
0.20777481549824403 0.12686058174405465 -0.18396342107663155
0.4552946314048988 -0.024266357721049275 -0.18396342107663155
0.2041054375832208 -0.008718481488121032 -0.18396342107663155
0.21305634597431497 -0.19492704754240825 -0.18396342107663155
0.21061339086646938 -0.2280107918166734 -0.18396342107663155
0.13511915467948402 -0.35910945560004726 -0.18396342107663155
0.09889022933519903 -0.4492416414210872 -0.18396342107663155
0.09252074314308334 -0.48698381426132503 -0.18396342107663155
0.3578137992473032 0.15340670121554276 -0.1834688957511567
0.22182922524823823 -0.26704862100965543 -0.1834688957511567
0.5572657535178058 0.11441832455510818 -0.182677655230397
0.1839288043038484 0.245418083273387 -0.182677655230397
0.0952109609136664 -0.11101599031584151 -0.182677655230397
0.2532612549354175 0.11383478467104792 -0.182677655230397
0.502066836688307 -0.019538695609509948 -0.182677655230397
0.21905988342557925 -0.16103228173436443 -0.182677655230397
0.42106358837553215 -0.319151809301682 -0.182677655230397
0.7173930539065513 -0.20160313943631822 -0.18198531977473226
0.6558246508849367 -0.1867475986590548 -0.18198531977473226
0.6426603867207972 -0.11547660875162429 -0.18198531977473226
0.4791406425992944 -0.08640841012021466 -0.18198531977473226
0.5008700854006578 0.052572987351227694 -0.18198531977473226
0.6291103928027872 0.08674468734153747 -0.18198531977473226
0.6984824054603945 0.1712392844521646 -0.18198531977473226
0.7677654035594161 0.19237529686295823 -0.18198531977473226
0.5057856671358777 0.4900201997597404 -0.18198531977473226
0.4434359141000128 0.3806905408037681 -0.18198531977473226
0.4588651042548271 0.2669497159445604 -0.18198531977473226
0.369088976668129 0.22124568536417782 -0.18198531977473226
0.23399454825491872 0.168954577448471 -0.18198531977473226
0.17682742063002999 0.2602538430376315 -0.18198531977473226
0.1683710375644106 0.3830345908465187 -0.18198531977473226
0.09991884201218663 0.4275319796327426 -0.18198531977473226
-0.19679635327270298 0.2095748876829724 -0.18198531977473226
-0.14918345493598775 0.2013855482931094 -0.18198531977473226
-0.00303144024516062 0.13022335395728316 -0.18198531977473226
0.0828577182833054 0.08187855813886523 -0.18198531977473226
0.10782135671327413 0.11017529726253425 -0.18198531977473226
0.09381639949582736 -0.13334875401428414 -0.18198531977473226
0.03595693641527395 -0.1301343393986978 -0.18198531977473226
-0.08369841133661253 -0.19156427532917947 -0.18198531977473226
-0.19980306725158986 -0.22510298290288153 -0.18198531977473226
0.1541880512297929 -0.43504876457995995 -0.18198531977473226
0.17630322378502672 -0.4002242911600234 -0.18198531977473226
0.1802396453758062 -0.3377162900200066 -0.18198531977473226
0.20321529199736624 -0.2081605452521144 -0.18198531977473226
0.27948098769209234 0.08343136766085611 -0.18198531977473226
0.41897669150202843 0.021299205768200265 -0.18198531977473226
0.40668279191072443 -0.13122229511474243 -0.18198531977473226
0.2717663926146852 -0.1260198886907474 -0.18198531977473226
0.15219016891487466 -0.004346877610923727 -0.18198531977473226
0.45912225742407387 -0.029973179977028634 -0.18198531977473226
0.15227918347346012 0.017936433554971484 -0.18198531977473226
0.364826168362536 -0.22981086400140177 -0.18198531977473226
0.4036464064123092 -0.2756335806598982 -0.18198531977473226
0.4936697966617447 -0.39379546192885073 -0.18198531977473226
0.5305613859421658 -0.4813956780834596 -0.18198531977473226
0.43452456773495657 -0.25106556249030937 -0.18149079444925745
0.25552618092609214 0.1628323539190928 -0.18149079444925745
0.1683611470579012 0.03256449268251654 -0.18069955392849774
0.1839288043038484 0.24517082061064954 -0.18069955392849774
0.3884941504397607 0.14762075490748733 -0.18069955392849774
0.5479884584118984 0.07643877955864228 -0.18069955392849774
0.5404321114386431 -0.0864578626527621 -0.18069955392849774
0.36655700700169797 -0.18798391197274184 -0.18069955392849774
0.16373239001145687 -0.3105173971188917 -0.18069955392849774
0.11177755931707271 0.4033694722300432 -0.180007218472833
0.11732613346890007 0.37722886352544444 -0.180007218472833
0.21153320797185257 0.22316444362702026 -0.180007218472833
0.19643040453185168 0.17778679976145093 -0.180007218472833
0.13357623566400254 0.07370899976202133 -0.180007218472833
-0.019212308894696557 0.08945468612513946 -0.180007218472833
-0.045639742288070696 0.11443810556812713 -0.180007218472833
-0.18508599356545935 0.17463172818492173 -0.180007218472833
-0.1396885686868712 -0.20804185917400042 -0.180007218472833
-0.096140668525559 -0.15029119166505142 -0.180007218472833
0.014820924004480306 -0.10679274403628651 -0.180007218472833
0.04997178413923025 -0.07452002129580011 -0.180007218472833
0.3765859806023272 0.17406796931388055 -0.180007218472833
0.3855072174738929 0.2812019358247446 -0.180007218472833
0.4408643824075439 0.3481606648940348 -0.180007218472833
0.46657969933223425 0.453326420609509 -0.180007218472833
0.7464315810184325 0.1709623502698985 -0.180007218472833
0.6999462004238 0.1422996624053782 -0.180007218472833
0.5813491368684294 0.13354656414447405 -0.180007218472833
0.5472565609301956 0.044344085935326676 -0.180007218472833
0.490128995331345 -0.09813855084047723 -0.180007218472833
0.5727938487377153 -0.13814564967138987 -0.180007218472833
0.6554982641701235 -0.18111990045515136 -0.180007218472833
0.7350871700520403 -0.16339611279013394 -0.180007218472833
0.49755676571997676 -0.49955464803489485 -0.180007218472833
0.4381346026109228 -0.37904871672319174 -0.180007218472833
0.4557298136913167 -0.28886707836960435 -0.180007218472833
0.36704164182066323 -0.25576355308232007 -0.180007218472833
0.29466291518416915 -0.10555643072259947 -0.180007218472833
0.441863323565003 -0.031654566083643025 -0.180007218472833
0.32262337708651523 -0.16316863114041558 -0.180007218472833
0.20212733628132165 -0.0662911198798991 -0.180007218472833
0.1953424488158071 0.09995840403822454 -0.180007218472833
0.2571284429806306 0.0920558893371369 -0.180007218472833
0.24625877632669413 -0.260105485439989 -0.180007218472833
0.14805593719390514 -0.286968101119781 -0.180007218472833
0.15089451256213063 -0.40843341156290536 -0.180007218472833
0.1240022253628102 -0.492799432088909 -0.180007218472833
0.15035053470410828 -0.09770336855405942 -0.17951269314735815
0.3848247725247376 0.14572177765766395 -0.17951269314735815
0.22716020825685676 -0.23954312240674625 -0.17872145262659847
0.003516075064126005 -0.11506120747822542 -0.17872145262659847
0.24363779210167757 0.1154271562190767 -0.17872145262659847
0.43643343549128943 0.2409970268636421 -0.17872145262659847
0.48055498503015237 0.04090218967002197 -0.17872145262659847
0.3995319557043586 -0.215647658679803 -0.17872145262659847
0.13446638124985724 0.4754811551907809 -0.17802911717093373
0.17856814977570137 0.3710571874635188 -0.17802911717093373
0.17743074152710933 0.2610154120388627 -0.17802911717093373
0.21667627135679063 0.17657026746078297 -0.17802911717093373
0.05753802161899494 0.06047550205231517 -0.17802911717093373
6.873902024100438E-4 0.09242183807798833 -0.17802911717093373
-0.04521445050816243 0.16473133116891586 -0.17802911717093373
-0.14567232512511652 0.19947668053677647 -0.17802911717093373
0.4833737793853591 -0.49689410178384047 -0.17802911717093373
0.4349004069823175 -0.37402433941636765 -0.17802911717093373
0.42302190866441236 -0.33226662093327425 -0.17802911717093373
0.3807894458688631 -0.252252423271449 -0.17802911717093373
0.3717989754517309 0.06607352873669012 -0.17802911717093373
0.32499709864879434 -0.09631869764272993 -0.17802911717093373
0.19195000508304982 -0.033968944606865115 -0.17802911717093373
0.2206621454801177 0.1311629520756853 -0.17802911717093373
0.41574249587342316 0.10112548380634505 -0.17802911717093373
0.2866812764310056 -0.13463451986051864 -0.17802911717093373
0.22857455068771473 -0.1886960284414256 -0.17802911717093373
0.17529439212105805 -0.2868691960546861 -0.17802911717093373
0.1272463114979249 -0.38874141310249816 -0.17802911717093373
0.11317212073491174 -0.4210240263494941 -0.17802911717093373
-0.1805660320906196 -0.21422342574243564 -0.17802911717093373
-0.08536001643020798 -0.148629586571456 -0.17802911717093373
-0.0032688124013885407 -0.16325764569900103 -0.17802911717093373
0.07836742832799413 -0.13746320472223458 -0.17802911717093373
0.3926086011477111 0.18881471451953943 -0.17802911717093373
0.4589343378003936 0.29401014175454226 -0.17802911717093373
0.423991178302343 0.29409915631312783 -0.17802911717093373
0.49133563712550343 0.41151924959386804 -0.17802911717093373
0.5189598218065267 0.4738591121232233 -0.17802911717093373
0.7367487751456357 0.14945049861174417 -0.17802911717093373
0.6986307630580368 0.17937917130947986 -0.17802911717093373
0.5550997325922262 0.06466907681234169 -0.17802911717093373
0.5211950762776728 0.09079979501043092 -0.17802911717093373
0.4806637806017571 -0.08733811773210727 -0.17802911717093373
0.583970121093446 -0.10128373191049704 -0.17802911717093373
0.7089267803344225 -0.14657236121748077 -0.17802911717093373
0.7809296677235557 -0.2250238588508056 -0.17802911717093373
0.15542436454347994 -0.0846676809745433 -0.17753459184545892
0.5150926337613138 -0.10018588568794305 -0.17674335132469923
0.5171795306348173 0.09770336855405942 -0.17674335132469923
0.24076954521392374 0.11613927268776048 -0.17674335132469923
0.06445148566913285 0.07788279350902876 -0.17674335132469923
0.1922763917978632 -0.319151809301682 -0.17674335132469923
0.3563203327643692 -0.1628323539190928 -0.17674335132469923
0.09995840403822454 0.43042989804002507 -0.1760510158690345
0.17507680097784908 0.3470331471519522 -0.1760510158690345
0.15189345371958976 0.289994596111687 -0.1760510158690345
0.23762436414390392 0.20076244638301097 -0.1760510158690345
0.11425018594444679 0.08508308224794202 -0.1760510158690345
0.009598736567466192 0.09133388236194374 -0.1760510158690345
0.0058502346003670375 0.10963131940451187 -0.1760510158690345
-0.12117354050109409 0.15617604303820173 -0.1760510158690345
-0.17717358835786232 0.20076244638301097 -0.1760510158690345
-0.10796971431091658 -0.20017890649895084 -0.1760510158690345
-0.06683509773792132 -0.1642961488824982 -0.1760510158690345
-0.032327120526288756 -0.13242893690890095 -0.1760510158690345
0.09114596273826339 -0.13481254897768957 -0.1760510158690345
0.38784137701013394 0.246456586456884 -0.1760510158690345
0.42833311066001195 0.32605538284531044 -0.1760510158690345
0.45448360987112013 0.39452735941055345 -0.1760510158690345
0.4696358658436686 0.4128247964531216 -0.1760510158690345
0.7926400274307993 0.2041153280897302 -0.1760510158690345
0.6553499065724808 0.15349571577412807 -0.1760510158690345
0.5668991068580554 0.14144907884556168 -0.1760510158690345
0.5587295484812116 0.0820961492820742 -0.1760510158690345
0.45724306118726954 0.05585663551238041 -0.1760510158690345
0.5004052315947115 -0.11907675312108099 -0.1760510158690345
0.6341050985900828 -0.11089730423772755 -0.1760510158690345
0.6828652956818997 -0.1278001798624568 -0.1760510158690345
0.7689918263665937 -0.19972394319951395 -0.1760510158690345
0.48585629651924245 -0.4649774372776958 -0.1760510158690345
0.47942746728807006 -0.34731997184072755 -0.1760510158690345
0.40118367029144447 -0.3007257956744904 -0.1760510158690345
0.398384656949257 -0.18927956832548587 -0.1760510158690345
0.37157149380201254 -0.08110709863112463 -0.1760510158690345
0.2193071460883167 -0.03575912628508392 -0.1760510158690345
0.2064494876259715 0.0569050292023871 -0.1760510158690345
0.36095898031732304 0.09645716473386284 -0.1760510158690345
0.4129434825312357 -0.06368991666790165 -0.1760510158690345
0.20847704146041823 -0.15233852651251711 -0.1760510158690345
0.21638944666801527 -0.2433311863998833 -0.1760510158690345
0.2434993250105447 -0.25077873780153404 -0.1760510158690345
0.2078440490438104 -0.33577775074414534 -0.1760510158690345
0.18561019041046278 -0.38278732818378136 -0.1760510158690345
0.12847273430510253 -0.4898619516555886 -0.1760510158690345
0.13789838700865253 0.0846775714810527 -0.17555649054355965
0.42391205425026707 0.2854845251433565 -0.17476525002279994
0.25790979299488076 0.17585815099209923 -0.17476525002279994
0.1857486575015957 0.05610389817511787 -0.17476525002279994
0.25456680179467106 -0.18888394806510594 -0.17476525002279994
0.3797212711658375 -0.1622883760610704 -0.17476525002279994
