0.043205933861067324 0.44227758862749056 -0.20249865330133024
0.07861053711568697 0.2935017347296515 -0.20249865330133024
-0.0013064429245247164 0.395824210925462 -0.20249865330133024
0.01828086920817081 0.42147715092202215 -0.20249865330133024
0.7631119756852341 0.41480496027177094 -0.2020320665425714
-0.03578720439680185 0.24273709537669133 -0.2020320665425714
0.7172838242399423 0.3147314322531781 -0.20063230626629489
0.7243666112379014 0.38710837027184714 -0.20063230626629489
0.09364396248289636 0.4660641815890156 -0.20063230626629489
0.7122446872453471 0.31649513020128645 -0.20063230626629489
0.6762055259988154 0.3964027785063229 -0.20063230626629489
0.2223192588134051 0.5131334538126059 -0.2001657195075361
-0.10952657575104663 0.2918966762795212 -0.2001657195075361
0.2876694002451662 0.3081338954843283 -0.19876595923125961
0.10984385474700269 0.4652149936880744 -0.19876595923125961
0.2927272007101119 0.44129775643409713 -0.19876595923125961
-7.558705491893258E-4 0.34734584669041996 -0.19876595923125961
0.1527791682879898 0.45134803521776223 -0.19876595923125961
0.01338170824120309 0.24510735611118623 -0.19829937247250076
-0.15868615665387648 0.41480496027177094 -0.19829937247250076
0.2577238620680249 0.3001272667040269 -0.19689961219622432
0.11090767255697286 0.4701421498605677 -0.19689961219622432
0.7194487868005832 0.3199945308919776 -0.19689961219622432
0.6867970454226406 0.36241659899833006 -0.19689961219622432
0.7631119756852341 0.3041865715052286 -0.19643302543746546
-0.03977185531660228 0.393183329870887 -0.19643302543746546
0.11049707620926512 0.4641045172022284 -0.19503326516118902
0.6647461552036986 0.3001179349688517 -0.19503326516118902
0.6841281691625402 0.37606892755961324 -0.19503326516118902
0.09338267389799136 0.29656254386710945 -0.19503326516118902
0.719588762828211 0.4393474237824852 -0.19503326516118902
-0.12181647097675416 0.3041865715052286 -0.1945666784024302
-0.15868615665387648 0.41480496027177094 -0.1945666784024302
0.28834128517777896 0.30052853131655943 -0.19316691812615372
-0.008799826270191427 0.4242673397394 -0.19316691812615372
0.6945983760290884 0.31098940644793227 -0.19316691812615372
0.6487422293782709 0.4444798781288323 -0.19316691812615372
0.16086978268486787 0.24036683464219646 -0.1927003313673949
-0.10952657575104663 0.41480496027177094 -0.1927003313673949
0.04067703362859448 0.30149903177477777 -0.1913005710911184
0.11214879333527128 0.47397749301756525 -0.1913005710911184
0.15132341760066234 0.29507879797425635 -0.1913005710911184
0.7151095299441261 0.44424658474945283 -0.1913005710911184
-0.0849467852996317 0.3041865715052286 -0.1908339843323596
-0.027099358948712546 0.3577134044700411 -0.1894342240560831
0.7232468030168802 0.4505268425223466 -0.1894342240560831
-0.0123645491071089 0.3461980432638733 -0.1894342240560831
0.6637196643344293 0.44964032768070483 -0.1894342240560831
0.1977394683619902 0.48855366336119094 -0.18896763729732427
-0.10952657575104663 0.34106558891752625 -0.18896763729732427
0.15343238975025222 0.28962906463195337 -0.1875678770210478
-0.0298242256198641 0.4032429403897273 -0.1875678770210478
0.7204752776698528 0.43635193679125356 -0.1875678770210478
-0.023114708028912113 0.3588612078965878 -0.1875678770210478
0.7508220804595268 0.43938475072318584 -0.18710129026228897
-0.07265689007392431 0.3656453793689412 -0.18710129026228897
0.6811606773768342 0.45331703133972445 -0.1857015299860125
0.15494413084863073 0.2811931760335937 -0.1857015299860125
0.02619418063672048 0.31208121946342793 -0.1857015299860125
0.7206059219623053 0.36359239763040224 -0.1857015299860125
0.12400009700774542 0.5131334538126059 -0.18523494322725367
-0.0849467852996317 0.26731688582810625 -0.18523494322725367
0.2868202123442252 0.2988301555146773 -0.18383518295097717
-0.0473678877491959 0.3844301622765714 -0.18383518295097717
0.7124686488895513 0.3643016095037157 -0.18383518295097717
0.7238347023329161 0.3098509347565607 -0.18383518295097717
0.15595195824754984 0.46541096012675315 -0.18383518295097717
0.5787448838292718 0.25502699060239875 -0.18336859619221837
-0.170976051879584 0.3779352745946486 -0.18336859619221837
0.1274061803466849 0.2801573534291492 -0.1819688359159419
-0.019428672634717432 0.42733748061203297 -0.1819688359159419
0.7255330781347984 0.31068145918715157 -0.1819688359159419
-0.014772136782304398 0.3465806444060555 -0.1819688359159419
0.7508220804595268 0.3041865715052286 -0.18150224915718305
-0.05135253866899633 0.41480496027177094 -0.18150224915718305
-0.03084138475395829 0.40679833149146954 -0.18010248888090657
0.08722372868237491 0.27994272352012 -0.18010248888090657
0.6658472999543693 0.2909075123509525 -0.18010248888090657
0.7263542708302139 0.3097202904641083 -0.18010248888090657
0.09863644080161577 0.47022613547714426 -0.18010248888090657
0.12400009700774542 0.25502699060239875 -0.17963590212214778
-0.10952657575104663 0.463973872909776 -0.17963590212214778
0.7304509025721163 0.31126002676801245 -0.1782361418458713
0.7342769139939387 0.3174562989243297 -0.1782361418458713
0.7364978669656307 0.45226254526492954 -0.1782361418458713
0.2462738230080833 0.29521877400188395 -0.1782361418458713
0.1320347209935724 0.2886305689682095 -0.1782361418458713
-0.0849467852996317 0.2942669370140161 -0.17714432883037562
0.7130005577945362 0.36815561613106357 -0.176369794810836
0.7313654126192838 0.36414297000573775 -0.176369794810836
0.6650354389941291 0.29348307125930123 -0.176369794810836
0.1596006667010439 0.2754821541063857 -0.176369794810836
0.7274274203753593 0.30687411123567954 -0.176369794810836
0.11641339631032702 0.47338026196635385 -0.176369794810836
0.5787448838292718 0.25502699060239875 -0.17450344777580068
-0.003798016216296806 0.5008435585868983 -0.17450344777580068
-0.03623512768521034 0.34741116883664624 -0.17450344777580068
-0.04866499893854539 0.3571348368891802 -0.17450344777580068
0.0965647955927265 0.2716094840086874 -0.17450344777580068
-0.05011141789069776 0.3852793501775126 -0.17450344777580068
0.3593651215960474 0.4543808491496945 -0.17450344777580068
0.7307121911570215 0.3820039111310256 -0.1726371007407654
0.6656420017805156 0.29510679317978183 -0.1726371007407654
0.7412663836401461 0.426861562118099 -0.1726371007407654
0.046891969255262005 0.45949464002569124 -0.1726371007407654
-0.043009967422388475 0.36229528644105274 -0.1726371007407654
0.005953647041762661 0.3186880879674529 -0.1726371007407654
-0.04807709962250938 0.27960678105381365 -0.17217051398200653
0.7227335575822453 0.3632937821047966 -0.17077075370573008
-0.022956068530934154 0.3291023044229499 -0.17077075370573008
-0.025456973557881464 0.32636810601662325 -0.17077075370573008
0.2714975031865854 0.2829568739817021 -0.17077075370573008
0.2023586772737026 0.4262083406558367 -0.17077075370573008
-0.0318678756232277 0.4131905700864655 -0.17077075370573008
0.09794589239865271 0.47632909028170967 -0.17077075370573008
0.7434966683470131 0.463973872909776 -0.16967894069023445
-0.10952657575104663 0.34106558891752625 -0.16967894069023445
0.7075414927170581 0.3910370307805964 -0.16890440667069478
0.7349394671913762 0.35721882250575676 -0.16890440667069478
0.7391387480202057 0.3353545669903182 -0.16890440667069478
0.6930306445196586 0.28740811166026137 -0.16890440667069478
0.7303389217500142 0.3032720614580613 -0.16890440667069478
0.07149042317702724 0.4734082571718794 -0.16890440667069478
0.2703590314952139 0.42283025252242284 -0.16890440667069478
-0.07581101656313391 0.3656453793689412 -0.1671966991336375
0.7508220804595268 0.41480496027177094 -0.1671966991336375
0.71742380026757 0.35987836703068204 -0.16703805963565949
0.732970471069414 0.29952070391764035 -0.16703805963565949
0.06178541859484375 0.2764246593590785 -0.16703805963565949
0.16994022927513938 0.4847463154097189 -0.16703805963565949
0.7274367521105345 0.4555099891058909 -0.16703805963565949
0.3059222742478115 0.2982049292579405 -0.16703805963565949
0.19666631881684493 0.4166993025123318 -0.16703805963565949
0.7364978669656307 0.3818825985737483 -0.16517171260062416
0.005720353662383195 0.4531677235769216 -0.16517171260062416
0.7364325448194047 0.4595133034960417 -0.16517171260062416
0.7442152119555017 0.3837862725494842 -0.16517171260062416
0.744177885014801 0.31403155211503986 -0.16517171260062416
0.05088595191023753 0.28528047604032103 -0.16517171260062416
0.7181236804057082 0.35686421656910006 -0.16517171260062416
0.28027866598642653 0.40753553857030844 -0.16517171260062416
-0.13410636620246155 0.35335548414323364 -0.16470512584186536
0.2223192588134051 0.5131334538126059 -0.16470512584186536
0.10545793921466974 0.4845036902951643 -0.1633053655655889
0.7402958831819276 0.4255737826639247 -0.1633053655655889
0.7405011813557815 0.37483713851649003 -0.1633053655655889
0.7408091286165623 0.29404297536981183 -0.1633053655655889
0.013642996826108086 0.3051197450227463 -0.1633053655655889
0.16318405300831168 0.2786456123307705 -0.1633053655655889
0.19711424210525344 0.3367170003258939 -0.1633053655655889
0.751307330688636 0.36637325471260485 -0.16283877880683004
-0.0836590058454573 0.3779352745946486 -0.16283877880683004
0.27257065273173064 0.33923656882319153 -0.16143901853055356
0.15172468221319485 0.4828053144932822 -0.16143901853055356
0.7410890806718177 0.4141144118688079 -0.16143901853055356
0.7410144267904162 0.36839824124561815 -0.16143901853055356
0.6770920408404572 0.28207969087523543 -0.16143901853055356
-0.05823002749310136 0.3828717625023169 -0.16143901853055356
-0.06602202636437382 0.38106140587833265 -0.16143901853055356
0.2057554288774669 0.3285050733717387 -0.16143901853055356
-0.09723668052533924 0.27960678105381365 -0.1605991623647877
0.20054832064971834 0.33283499849302056 -0.15957267149551826
0.7326905190141588 0.37104845403536835 -0.15957267149551826
0.7294244117028471 0.2938843358718337 -0.15957267149551826
0.10595252117895407 0.2655531878799978 -0.15957267149551826
0.10312500542087562 0.4938820841462167 -0.15957267149551826
0.7228362066691723 0.35655626930831924 -0.15957267149551826
0.6589511476599139 0.46134232359037625 -0.15957267149551826
0.2912154596117334 0.2903009495645659 -0.15957267149551826
-0.060366994848216775 0.4762637681354835 -0.15835954592274534
-0.14639626142816908 0.3656453793689412 -0.15835954592274534
0.726195631332236 0.39266075270107714 -0.15770632446048297
0.1704814699152997 0.27358781186582487 -0.15770632446048297
-0.054012083193921596 0.4150849123270262 -0.15770632446048297
0.7445044957459321 0.4612396745034493 -0.15770632446048297
0.7461002224608876 0.37297079148145473 -0.15770632446048297
-0.01599459409025252 0.31501138430843345 -0.15770632446048297
0.6599123163829571 0.4622941605782443 -0.15770632446048297
0.7631119756852341 0.463973872909776 -0.15583997742544764
-0.0849467852996317 0.3041865715052286 -0.15583997742544764
0.7145869527743164 0.3670078127045168 -0.15583997742544764
0.10138930267829285 0.4885723268315412 -0.15583997742544764
0.1884170649219889 0.48564216198653587 -0.15583997742544764
0.7415929943712772 0.4669413646954821 -0.15583997742544764
0.7471267133301568 0.3721962574619151 -0.15583997742544764
0.19359617794421194 0.3406643243049936 -0.15583997742544764
-0.04664934414070732 0.3412895505617304 -0.15583997742544764
0.2725333257910299 0.33919924188249095 -0.1539736303904124
0.7409864315848907 0.4203946696417017 -0.1539736303904124
0.7438139473429692 0.41889226027849824 -0.1539736303904124
0.7438512742836698 0.3618380314174692 -0.1539736303904124
0.748993060365192 0.32927960739127826 -0.1539736303904124
0.19761815580471298 0.27680726050126075 -0.1539736303904124
0.7118247591624642 0.3944151189140104 -0.1539736303904124
0.2764806497701296 0.3298021845610882 -0.1539736303904124
0.5787448838292718 0.25502699060239875 -0.15313377422464647
-0.060366994848216775 0.28197704178830857 -0.15313377422464647
0.7146616066557179 0.3750331049551686 -0.15210728335537707
-0.055365184794322155 0.3414481900597085 -0.15210728335537707
-0.028097854612456428 0.31031752151531966 -0.15210728335537707
-0.04694795966631294 0.3218235509863122 -0.15210728335537707
0.033911525626591436 0.4295397701133747 -0.15210728335537707
0.1934095432407083 0.36819294307176437 -0.15210728335537707
0.041815505319966015 0.336772990736945 -0.15210728335537707
0.755375967225013 0.35335548414323364 -0.15052088837559707
0.20954411335858847 0.34446234052129043 -0.15052088837559707
0.20551280376291234 0.4208239294597599 -0.15024093632034177
0.7298909984616058 0.3960668360400165 -0.15024093632034177
0.6650354389941291 0.476609042336965 -0.15024093632034177
-0.009079778325446734 0.46492570989764403 -0.15024093632034177
0.05224838524581331 0.28981569933545687 -0.15024093632034177
-0.01979261030654933 0.4446571810971607 -0.15024093632034177
0.3766288316701239 0.28533646645137206 -0.15024093632034177
0.22300047548119306 0.47980982750205053 -0.15024093632034177
0.6692440515581336 0.28618565435231325 -0.15024093632034177
0.6924987356146737 0.467305302367314 -0.15024093632034177
0.7123753315377996 0.37382931111757095 -0.14837458928530647
7.652022843645469E-4 0.4633486466530392 -0.14837458928530647
0.011552688146868512 0.2824156333415418 -0.14837458928530647
0.7427687930033495 0.284804557546387 -0.14837458928530647
0.18802513204463148 0.4829826174616106 -0.14837458928530647
0.2034411585540231 0.4257604173674282 -0.14837458928530647
0.19389479346981756 0.33570917292697483 -0.14837458928530647
0.5585883358508905 0.4710006694966839 -0.14837458928530647
0.6032313569289351 0.2903102812997412 -0.14837458928530647
-0.03578720439680185 0.24273709537669133 -0.14790800252654765
-0.060366994848216775 0.463973872909776 -0.14790800252654765
0.2745396488536929 0.3319578153865539 -0.14650824225027115
0.7100703929495309 0.37056320380625907 -0.14650824225027115
0.7009346242130332 0.4747800222426304 -0.14650824225027115
-0.029478951418382512 0.4538302767743591 -0.14650824225027115
0.04895428272897605 0.2956107068792414 -0.14650824225027115
0.1680085600938779 0.27006974770478337 -0.14650824225027115
0.2832088308314319 0.35925314077394527 -0.14650824225027115
0.25176088329108703 0.42737480755273377 -0.14650824225027115
0.43739709113087333 0.47231644415638385 -0.14650824225027115
0.7141110342803823 0.3947230661747912 -0.14650824225027115
-0.060366994848216775 0.49091459236051055 -0.14529511667749823
0.7508220804595268 0.27960678105381365 -0.14529511667749823
0.2002403733889375 0.4164566773977772 -0.14464189521523588
0.7232374712817049 0.3957588887792357 -0.14464189521523588
0.2898623580113327 0.48049104416983834 -0.14464189521523588
-0.05687692589270081 0.4318540404368185 -0.14464189521523588
0.6449535448971491 0.3070794094095333 -0.14464189521523588
0.6685721666255209 0.47250307885988735 -0.14464189521523588
0.2410480513099844 0.2765832988570565 -0.14464189521523588
0.2830221961279284 0.35636963460481563 -0.14464189521523588
0.051595163783551015 0.32112367084817406 -0.14464189521523588
-0.06984803778619617 0.35593104305158235 -0.14464189521523588
-0.04807709962250938 0.48855366336119094 -0.1434287696424629
0.4649443733679943 0.4910359049177879 -0.1434287696424629
0.7013825475014417 0.4871445713497393 -0.1434287696424629
0.725514414664448 0.26731688582810625 -0.1434287696424629
0.5566286714641037 0.26509593285641425 -0.1434287696424629
0.3153659902450901 0.25502699060239875 -0.1434287696424629
0.7397826377472928 0.3810054154672816 -0.14277554818020055
0.053984087988396205 0.43782635094893146 -0.14277554818020055
-0.08487213141823033 0.3870057211849201 -0.14277554818020055
0.6657913095433183 0.4693956110465536 -0.14277554818020055
0.5693571582430442 0.2718614408584172 -0.14277554818020055
0.6644382079429179 0.4838504688329019 -0.14277554818020055
-0.08252986588926098 0.38372095040325804 -0.14277554818020055
0.2043650003363656 0.3392459005583668 -0.14277554818020055
0.17361693293415897 0.42789738472254363 -0.14277554818020055
0.43023031851633775 0.39543227804810455 -0.14277554818020055
0.3547739078898605 0.3991743038533503 -0.14277554818020055
0.3566309231897206 0.3420920797867957 -0.14277554818020055
0.39042113625903485 0.30254418611439765 -0.14277554818020055
0.5975016715313768 0.3376968325192875 -0.14277554818020055
0.6513737786976707 0.4297170730817031 -0.14277554818020055
0.2864096159965175 0.25502699060239875 -0.14230896142144173
0.5276722972155309 0.2650212789750129 -0.14230896142144173
0.7529870430201678 0.4762637681354835 -0.14230896142144173
0.5180232830443985 0.49090526062533535 -0.14230896142144173
0.2815851089109511 0.4925383142809913 -0.14230896142144173
0.6631970871646193 0.49405005537936986 -0.1415624226074276
-0.170976051879584 0.3656453793689412 -0.1415624226074276
0.6819632066018992 0.25502699060239875 -0.1415624226074276
0.051576500313200574 0.3239978452821284 -0.14090920114516525
0.7312720952675318 0.4692556350189259 -0.14090920114516525
0.11819575772878563 0.4950765462486393 -0.14090920114516525
-0.07618428597014103 0.347504486188398 -0.14090920114516525
0.7332970818005452 0.362995166579191 -0.14090920114516525
0.06308252978419325 0.27701255867511465 -0.14090920114516525
0.05300425579500263 0.3089924151204445 -0.14090920114516525
0.17080808064643083 0.4348401956928749 -0.14090920114516525
0.28149179155919946 0.33162187292024764 -0.14090920114516525
0.33608244233398193 0.30218024844256575 -0.14090920114516525
0.39457375841198833 0.3436784747665756 -0.14090920114516525
0.3531221907638543 0.45177729503582026 -0.14090920114516525
0.4225129735264668 0.35692020698015114 -0.14090920114516525
0.601962240945111 0.3416628199687375 -0.14090920114516525
0.6572527718580319 0.41153885296045917 -0.14090920114516525
0.24781355931198734 0.25502699060239875 -0.14044261438640643
0.37326940700706035 0.33654902909274076 -0.14044261438640643
-0.0849467852996317 0.26731688582810625 -0.1396960755723923
0.06927880194051046 0.47350157452363123 -0.1396960755723923
0.2526380663975537 0.4978480715956667 -0.1396960755723923
0.08375232319720924 0.3306513724620293 -0.1396960755723923
0.4697688804535606 0.31545930759684193 -0.1396960755723923
0.4697688804535606 0.36672786064926166 -0.1396960755723923
0.3057169760739577 0.3099255886379622 -0.1396960755723923
0.4142357244260852 0.40258971892746487 -0.1396960755723923
0.5779703498097322 0.30231089273501816 -0.1396960755723923
0.5662776856352362 0.4593826592035891 -0.1396960755723923
0.6635610248364511 0.3640963113298618 -0.1396960755723923
0.7631119756852341 0.4516746459488934 -0.1396960755723923
0.2822943207842646 0.4814895398335822 -0.13904285411012995
0.05375079460901674 0.43800365391725976 -0.13904285411012995
0.21284754761060096 0.49102657318261267 -0.13904285411012995
0.29238192650863043 0.4732122907332007 -0.13904285411012995
-0.04939287428220918 0.3121278781393038 -0.13904285411012995
-0.011534024676518071 0.3011164306325956 -0.13904285411012995
0.04482032404637275 0.4846343345876168 -0.13904285411012995
0.19822471859109944 0.33505595146471256 -0.13904285411012995
0.1852629384327793 0.3177455827147601 -0.13904285411012995
0.3515917861951254 0.4550807292878328 -0.13904285411012995
0.364366931649942 0.30209626282598917 -0.13904285411012995
0.36846356339184444 0.3436784747665756 -0.13904285411012995
0.45018156832086514 0.41635402831085033 -0.13904285411012995
0.5983508594323176 0.40642506208446244 -0.13904285411012995
0.5978562774680333 0.3594117802719232 -0.13904285411012995
0.6532121305271805 0.42182242512350376 -0.13904285411012995
0.30089246898839134 0.390225169820356 -0.13857626735137113
0.4118747954267656 0.42709485549747844 -0.13857626735137113
0.4118747954267656 0.4588320868282537 -0.13857626735137113
0.6386546236539051 0.3041865715052286 -0.13857626735137113
-0.170976051879584 0.3917089157132091 -0.137829728537357
0.06704851723364323 0.4732402859387262 -0.137829728537357
0.2092081708922821 0.32162758454763346 -0.137829728537357
0.6156239012415696 0.27960678105381365 -0.137829728537357
0.4735948918753829 0.36587867274832053 -0.137829728537357
0.32501500441622266 0.2942202783381401 -0.137829728537357
0.3757236533581318 0.36488950881975185 -0.137829728537357
0.4118747954267656 0.43623062423397624 -0.137829728537357
0.36457222982379583 0.42295156507970005 -0.137829728537357
0.49861327388003124 0.4247712534388595 -0.137829728537357
0.6308252978419321 0.4612210110330989 -0.137829728537357
0.5807512068919348 0.3041865715052286 -0.137829728537357
0.7191035125991019 0.37467849901851197 -0.13717650707509466
0.24360494674798278 0.4854461955478572 -0.13717650707509466
0.05305091447087847 0.3184547945880736 -0.13717650707509466
0.2537485428833997 0.48838569212803773 -0.13717650707509466
0.11660003101383051 0.49183843414285305 -0.13717650707509466
-4.105963477077377E-4 0.27713387123239186 -0.13717650707509466
-0.08530139123628838 0.38749097141402933 -0.13717650707509466
0.053340198261309 0.4878444514878776 -0.13717650707509466
0.17804017540719266 0.32305534002943553 -0.13717650707509466
0.17008953703794225 0.427178841114055 -0.13717650707509466
0.36333110904549737 0.4527851224347394 -0.13717650707509466
0.32520163911972616 0.3993609385568539 -0.13717650707509466
0.36570136977999224 0.30209626282598917 -0.13717650707509466
0.34613272111764704 0.3437531286479771 -0.13717650707509466
0.42030135228994997 0.3569015435098007 -0.13717650707509466
0.42301688722592634 0.41257467556490385 -0.13717650707509466
0.5976696427645299 0.44851118772450854 -0.13717650707509466
0.602074221767213 0.3848594220946296 -0.13717650707509466
0.6018875870637097 0.33791146242831654 -0.13717650707509466
0.50356842525805 0.3567708992173483 -0.13717650707509466
0.6579993106720461 0.36837957777526786 -0.13717650707509466
0.6532121305271805 0.4207772707838839 -0.13717650707509466
0.5207854766562506 0.3421294067274963 -0.13670992031633583
0.32501500441622266 0.4633206514475137 -0.13670992031633583
0.4022164495204579 0.332592373378466 -0.13670992031633583
0.19955915672114968 0.24273709537669133 -0.1359633815023217
0.2221979462561279 0.5039976850761079 -0.1359633815023217
0.3698073332570699 0.42278359384654685 -0.1359633815023217
0.30218958017774095 0.29713177971279514 -0.1359633815023217
0.3862685141060812 0.35335548414323364 -0.1359633815023217
0.3146007879607257 0.3538034074316422 -0.1359633815023217
0.49769876383286404 0.43938475072318584 -0.1359633815023217
0.5759266998063686 0.32877569369181875 -0.1359633815023217
0.5275603163934288 0.4490897553053695 -0.1359633815023217
0.5266644698166119 0.42857860139033155 -0.1359633815023217
0.734706173811997 0.4738561804602879 -0.13531016004005936
0.0502887208590263 0.47862469713480316 -0.13531016004005936
0.23452516842253607 0.2689499394837621 -0.13531016004005936
0.7387001564669725 0.4629660455108569 -0.13531016004005936
0.23875244445689103 0.2598794928934906 -0.13531016004005936
0.29416428792708915 0.4904760008072773 -0.13531016004005936
-0.0629798806972662 0.33692229849974786 -0.13531016004005936
-0.04091032700797382 0.43542809500891105 -0.13531016004005936
0.1847123660574438 0.33044607428817535 -0.13531016004005936
0.18545890487145802 0.418668298634294 -0.13531016004005936
0.37523840312902257 0.3414108631190077 -0.13531016004005936
0.31123203156248697 0.3414668535300588 -0.13531016004005936
0.3356065238400479 0.36027029990803944 -0.13531016004005936
0.36681184626583824 0.395404282842579 -0.13531016004005936
0.32452975418711344 0.3992862846754524 -0.13531016004005936
0.3656640428392915 0.41571947031893836 -0.13531016004005936
0.4693956110465536 0.451599992067492 -0.13531016004005936
0.4303236358680894 0.4540169114778627 -0.13531016004005936
0.4307715591564979 0.3953949511074038 -0.13531016004005936
0.4379290000358585 0.35665891839524616 -0.13531016004005936
0.45987724116787343 0.3607835453426742 -0.13531016004005936
0.5500311346952537 0.4437706662555189 -0.13531016004005936
0.5965778297490341 0.45344767563217686 -0.13531016004005936
0.5972403829464716 0.420254693614074 -0.13531016004005936
0.5983508594323176 0.37023659307512796 -0.13531016004005936
0.602382169027994 0.3387139916533817 -0.13531016004005936
0.6579899789368708 0.33255504643776523 -0.13531016004005936
0.6590537967468411 0.38388892163641125 -0.13531016004005936
0.6532121305271805 0.36834225083456706 -0.13531016004005936
0.6518776923971302 0.411156251818277 -0.13531016004005936
0.6546398860089824 0.43966470277844116 -0.13531016004005936
0.35397137866479533 0.2918966762795212 -0.13484357328130053
0.3718136563197329 0.4224476513802405 -0.13484357328130053
0.5614531785496699 0.33698762064597404 -0.13484357328130053
0.02567160346691062 0.5254233490383133 -0.1340970344672864
0.16086978268486787 0.2304472001509838 -0.1340970344672864
0.2223192588134051 0.5131334538126059 -0.1340970344672864
0.3398991220206292 0.42709485549747844 -0.1340970344672864
0.4066770189341922 0.31319169594927393 -0.1340970344672864
0.351890401720731 0.3794096887523265 -0.1340970344672864
0.5841012998198232 0.4284199618923535 -0.1340970344672864
0.4255831143990999 0.4060144657367547 -0.1340970344672864
0.4637592430007471 0.4060144657367547 -0.1340970344672864
0.4976054464811121 0.36387234968565757 -0.1340970344672864
0.6660899250689241 0.3266947167477544 -0.1340970344672864
0.7328864854528374 0.4743507624245722 -0.13344381300502403
0.059163201010619094 0.4412604294933964 -0.13344381300502403
0.08600127137442677 0.49742814351278386 -0.13344381300502403
0.7407344747351609 0.46040915007285854 -0.13344381300502403
0.05892057589606454 0.2578451746253021 -0.13344381300502403
0.7553386402843121 0.28816398220945055 -0.13344381300502403
0.01933535528296575 0.4787273462217301 -0.13344381300502403
0.04593080053221875 0.4502655539374418 -0.13344381300502403
0.17703234800827358 0.3257988701709374 -0.13344381300502403
0.17066810461880316 0.426068364628209 -0.13344381300502403
0.3356531825159239 0.3093656845274516 -0.13344381300502403
0.37252286819304625 0.343697138236926 -0.13344381300502403
0.4061451100292073 0.3461700480583478 -0.13344381300502403
0.34962279007316316 0.32625612519452113 -0.13344381300502403
0.3655613937523646 0.3957682205144109 -0.13344381300502403
0.33798611630971803 0.3585625923709822 -0.13344381300502403
0.32555624505638286 0.45044285690577 -0.13344381300502403
0.3243151242780844 0.4166153168957552 -0.13344381300502403
0.3678196736647572 0.4554446669596646 -0.13344381300502403
0.4407191888532361 0.451599992067492 -0.13344381300502403
0.43481220048734953 0.36098884351652805 -0.13344381300502403
0.4592800101166622 0.39831578421723407 -0.13344381300502403
0.5763372961540765 0.3945457632064628 -0.13344381300502403
0.5479874846918901 0.3464686635839534 -0.13344381300502403
0.6470905122522647 0.3388632994161846 -0.13344381300502403
0.607663931137144 0.33515860055163943 -0.13344381300502403
0.6033993281620883 0.3839729072529878 -0.13344381300502403
0.6578126759685424 0.34933350628273263 -0.13344381300502403
0.653566736463837 0.4447784936544379 -0.13344381300502403
0.2092081708922821 0.5062466332533255 -0.13297722624626523
0.3175122893353807 0.3508172521755856 -0.13297722624626523
0.3973919424348917 0.45672311467866383 -0.13297722624626523
0.5146545266461596 0.33193915191620355 -0.13297722624626523
0.6645595205001952 0.36310714740129313 -0.13297722624626523
0.06730980581854823 0.4762637681354835 -0.1322306874322511
-0.10952657575104663 0.3027121573475507 -0.1322306874322511
0.3144421484627476 0.393183329870887 -0.1322306874322511
0.3911583433378737 0.2949668171521542 -0.1322306874322511
0.41253734862420305 0.40758219724618444 -0.1322306874322511
0.554165093377857 0.2938656724014834 -0.1322306874322511
0.526151224381977 0.4516746459488934 -0.1322306874322511
0.4429868005008042 0.3679316544868593 -0.1322306874322511
0.35879588575036153 0.40586515797395184 -0.1322306874322511
0.317689592303709 0.4608850685667925 -0.1322306874322511
0.6639996163896846 0.3284397512255124 -0.1322306874322511
0.6444869581383904 0.3796243186613555 -0.13157746596998876
0.6492928017536063 0.40882331802448285 -0.13157746596998876
0.6459333770905428 0.33395480671404176 -0.13157746596998876
0.5968017913932384 0.34186811814259144 -0.13157746596998876
0.651812370250904 0.4155328356154347 -0.13157746596998876
0.6317491396242744 0.3336188642477354 -0.13157746596998876
0.6192259510191876 0.427552110521062 -0.13157746596998876
0.43173272787954114 0.42266228128926964 -0.13157746596998876
0.4608010829502161 0.44216560780538844 -0.13157746596998876
0.5651485456790397 0.3385553521554037 -0.13157746596998876
0.4625461174279739 0.39479772005619257 -0.13157746596998876
0.4407658475291119 0.39921163079405103 -0.13157746596998876
0.4135358442879471 0.39193287735741333 -0.13157746596998876
0.3617540458008926 0.4504055299650694 -0.13157746596998876
0.3295408959761833 0.42497655161271336 -0.13157746596998876
0.3037666434223458 0.45662979732691217 -0.13157746596998876
0.33965649690607463 0.3951616577280245 -0.13157746596998876
0.36569203804481704 0.35894519351316445 -0.13157746596998876
0.3921848342071431 0.32978352109073783 -0.13157746596998876
0.33191115671067806 0.31015888201734154 -0.13157746596998876
0.31379825873566053 0.3424466857234524 -0.13157746596998876
0.39550693192950603 0.3022642340591423 -0.13157746596998876
0.3284957416365634 0.3228873687962824 -0.13157746596998876
0.17803084367201746 0.43107950641727877 -0.13157746596998876
0.2846179228428835 0.3382287414242726 -0.13157746596998876
0.2740637303597589 0.4851942386981274 -0.13157746596998876
0.7453070249709974 0.2855604280955763 -0.13157746596998876
0.007857321017498609 0.2778337513705301 -0.13157746596998876
0.06203737544457352 0.26600111116840636 -0.13157746596998876
0.6645595205001952 0.48536220993128054 -0.13157746596998876
0.05622370443043852 0.4489124523370411 -0.13157746596998876
-0.06997868207864859 0.3251643121790254 -0.13157746596998876
0.041768846644090044 0.4792219281860144 -0.13157746596998876
0.1850856354644509 0.5078516917034559 -0.1311108792112299
0.36673719238443675 0.4053332490689669 -0.1311108792112299
0.4729696656186463 0.38993588602992557 -0.1311108792112299
0.3105414831595239 0.390225169820356 -0.1311108792112299
0.5566286714641037 0.33698762064597404 -0.1311108792112299
0.6647834821443992 0.4197134529739139 -0.1311108792112299
-0.0849467852996317 0.463973872909776 -0.13036434039721578
0.17543662129331833 0.24656310679851368 -0.13036434039721578
0.3236339076102965 0.40606112441263054 -0.13036434039721578
0.32501500441622266 0.46172492473255844 -0.13036434039721578
0.3604755980818934 0.2918966762795212 -0.13036434039721578
0.4478672979974215 0.3894226405952908 -0.13036434039721578
0.4207492755783585 0.4063784034085866 -0.13036434039721578
0.49861327388003124 0.41480496027177094 -0.13036434039721578
0.5904002210630674 0.34071098298086944 -0.13036434039721578
0.5180232830443985 0.45055483772787214 -0.13036434039721578
0.6645595205001952 0.3348599850260338 -0.13036434039721578
0.04814242176873566 0.4933968339171076 -0.12971111893495346
0.19005011857764476 0.49313554533220255 -0.12971111893495346
0.7408091286165623 0.28281689795407444 -0.12971111893495346
0.7475839683537405 0.4735668966698575 -0.12971111893495346
0.06749644052205173 0.44752202379593975 -0.12971111893495346
0.028237830640084213 0.49497389716171236 -0.12971111893495346
0.040434408514039795 0.4790259617473357 -0.12971111893495346
0.04343922724044666 0.27928017032268254 -0.12971111893495346
0.17794685805544086 0.3266480580718785 -0.12971111893495346
0.1691003731093736 0.32796383273157836 -0.12971111893495346
0.3214596133144804 0.3355505334289969 -0.12971111893495346
0.39479772005619257 0.30742468361101494 -0.12971111893495346
0.3711044444464194 0.3222154838636696 -0.12971111893495346
0.35500720126923996 0.39556292234055696 -0.12971111893495346
0.32983017976661366 0.39709332690928595 -0.12971111893495346
0.3254162690287552 0.3604662663467182 -0.12971111893495346
0.3320418010031306 0.4423149155681913 -0.12971111893495346
0.370815160655989 0.4552673639913364 -0.12971111893495346
0.354801903095386 0.41557016255613544 -0.12971111893495346
0.4302209867811625 0.36192201703404575 -0.12971111893495346
0.4591400340890347 0.3686222028898224 -0.12971111893495346
0.4583468365991446 0.39859573627248934 -0.12971111893495346
0.520692159304499 0.34278262818975874 -0.12971111893495346
0.6419113992300416 0.3708431558615144 -0.12971111893495346
0.6455974346242365 0.33452404255972745 -0.12971111893495346
0.6060961996277142 0.37005929010679967 -0.12971111893495346
0.6509911775554885 0.3756583312119055 -0.12971111893495346
0.6054803051061526 0.43753706715850094 -0.12971111893495346
0.6199071676869754 0.35210503162976003 -0.12971111893495346
0.4649070464272937 0.454828772438103 -0.12971111893495346
0.43043561669019154 0.4496869863565807 -0.12971111893495346
0.4380316491227854 0.4126120025056044 -0.12971111893495346
0.29606796190282514 0.4516746459488934 -0.1292445321761946
0.3164671349957609 0.3879482264376129 -0.1292445321761946
0.4720551555714788 0.3681836113365891 -0.1292445321761946
0.554165093377857 0.463973872909776 -0.1292445321761946
0.1850856354644509 0.24273709537669133 -0.1292445321761946
-0.14639626142816908 0.390225169820356 -0.1284979933621805
0.09941097482115539 0.27960678105381365 -0.1284979933621805
0.4108109776167955 0.35335548414323364 -0.1284979933621805
0.30719139023163544 0.37272816636690004 -0.1284979933621805
0.47615178731338126 0.45175863156546997 -0.1284979933621805
0.5121629533543874 0.42709485549747844 -0.1284979933621805
0.5346151081858622 0.31648579846611136 -0.1284979933621805
0.5207854766562506 0.42048798699345347 -0.1284979933621805
0.7441312263389251 0.3753597156862999 -0.12784477189991814
0.05236036606791543 0.26119526755319045 -0.12784477189991814
0.07748139715949053 0.2570893040761128 -0.12784477189991814
0.7473880019150617 0.4646270943720384 -0.12784477189991814
-0.006765508002002915 0.4766277058073153 -0.12784477189991814
0.28822930435567684 0.47845672590165 -0.12784477189991814
-0.050298052594201385 0.30365466260024365 -0.12784477189991814
0.04000514869598175 0.44907109183501914 -0.12784477189991814
0.20122020558233109 0.418668298634294 -0.12784477189991814
0.19955915672114968 0.33407611927131897 -0.12784477189991814
0.1935868462090367 0.34067365604016886 -0.12784477189991814
0.3133316719769016 0.34170014690943823 -0.12784477189991814
0.3857086099955706 0.3062862119196434 -0.12784477189991814
0.3413921996486574 0.3586185827820333 -0.12784477189991814
0.3271706352416884 0.4154955086747341 -0.12784477189991814
0.3672131108783708 0.42622700412618697 -0.12784477189991814
0.36545874466543754 0.3604102759356671 -0.12784477189991814
0.42011471758644636 0.39568423489783433 -0.12784477189991814
0.42729082193615714 0.45093743887005433 -0.12784477189991814
0.46626947976286937 0.37023659307512796 -0.12784477189991814
0.5221292465214761 0.3714590503830761 -0.12784477189991814
0.6421540243445963 0.4386568753795222 -0.12784477189991814
0.5930317703824671 0.35124651199364376 -0.12784477189991814
0.6435444528856976 0.4465048646618456 -0.12784477189991814
0.6218388368682372 0.41461832556826744 -0.12784477189991814
0.17315967791057527 0.24273709537669133 -0.12737818514115934
0.3147407639883534 0.41480496027177094 -0.12737818514115934
0.4784660576368252 0.42042266484722723 -0.12737818514115934
0.6126004190448123 0.30489578337854206 -0.12663164632714521
0.4445078733343578 0.40468002760670446 -0.12663164632714521
0.4242580080042249 0.4063877351437618 -0.12663164632714521
0.49571110424055126 0.390225169820356 -0.12663164632714521
0.5787448838292718 0.4516746459488934 -0.12663164632714521
-0.04807709962250938 0.48855366336119094 -0.12663164632714521
0.16086978268486787 0.23958296888748173 -0.12663164632714521
0.7434780048766629 0.3721962574619151 -0.12597842486488284
0.05040070168112842 0.32354059025854476 -0.12597842486488284
0.2216567056159676 0.26422808148512283 -0.12597842486488284
0.6623012405878024 0.4820401122089178 -0.12597842486488284
0.058948571101590075 0.3181935060031686 -0.12597842486488284
0.0709865094775677 0.5068811912452377 -0.12597842486488284
0.29063689203087245 0.475339926353141 -0.12597842486488284
-0.0035647228369173403 0.28791202535972077 -0.12597842486488284
0.040481067189915766 0.30916038635359766 -0.12597842486488284
0.1784507717549004 0.32802915487780465 -0.12597842486488284
0.17064010941327765 0.3287663619566435 -0.12597842486488284
0.3096176413771814 0.32829044346270964 -0.12597842486488284
0.3038226338333968 0.4006300545406779 -0.12597842486488284
0.3309033293117591 0.41695125936206157 -0.12597842486488284
0.4700954911846917 0.43400967126228424 -0.12597842486488284
0.48163884759638526 0.42622700412618697 -0.12597842486488284
0.4679491920944012 0.3569108752449759 -0.12597842486488284
0.38517670109058566 0.38696839424421947 -0.12597842486488284
0.5604733463562762 0.4466168454839477 -0.12597842486488284
0.592229241157402 0.4532797043990237 -0.12597842486488284
0.6488355467300227 0.4237260990992397 -0.12597842486488284
0.6501326579193721 0.3104761610132976 -0.12597842486488284
0.6526148994759693 0.44664484068947324 -0.12597842486488284
0.5923785489202048 0.35420467204417466 -0.12597842486488284
0.6145320882260737 0.30489578337854206 -0.125511838106124
0.6033340060158621 0.4608384098909167 -0.12476529929210989
0.3516197814006509 0.4616036121752811 -0.12476529929210989
0.29606796190282514 0.32425913386703337 -0.12476529929210989
0.49096125103638655 0.41480496027177094 -0.12476529929210989
0.5711021927208023 0.3516477766061764 -0.12476529929210989
0.17315967791057527 0.30655683223972346 -0.12476529929210989
0.07483118436974047 0.3779352745946486 -0.12476529929210989
-0.060366994848216775 0.463973872909776 -0.12476529929210989
0.744756452595662 0.4678465430074743 -0.12411207782984754
0.660322912730665 0.3087404582707147 -0.12411207782984754
0.6523162839503636 0.31928531901866425 -0.12411207782984754
0.6060215457463127 0.3244737637760624 -0.12411207782984754
0.6333821932799304 0.32748791423764434 -0.12411207782984754
0.46189289596571165 0.4125466803593783 -0.12411207782984754
0.47979116403170025 0.43405632993816007 -0.12411207782984754
0.35383140263716767 0.44189498748530837 -0.12411207782984754
0.5653351803825433 0.4395153950156384 -0.12411207782984754
0.5338405741663226 0.3714590503830761 -0.12411207782984754
0.40777816368486314 0.37412792664317657 -0.12411207782984754
0.37722606272133524 0.37013394398820104 -0.12411207782984754
0.451861280652397 0.3604289394060174 -0.12411207782984754
0.4010873095642616 0.29897013154230495 -0.12411207782984754
0.31564594230034543 0.32907430921742437 -0.12411207782984754
0.3682396017476402 0.452234550059404 -0.12411207782984754
0.1516593600669687 0.436641220581684 -0.12411207782984754
0.14580836211213294 0.31255713795736195 -0.12411207782984754
0.006709517590951987 0.481368227276305 -0.12411207782984754
0.25574553421088747 0.48727521564219173 -0.12411207782984754
0.27939215114478466 0.2681567419938722 -0.12411207782984754
0.23706340039018411 0.49393807455726774 -0.12411207782984754
0.05943382133069918 0.4341589790250871 -0.12411207782984754
0.034303458503948864 0.26705559724320127 -0.12411207782984754
0.033062337725650426 0.46429115190573206 -0.12411207782984754
0.3153659902450901 0.3590385108649161 -0.12364549107108871
0.4967375951098208 0.35100388687908923 -0.12364549107108871
0.5787448838292718 0.44936970736062476 -0.12364549107108871
-0.10952657575104663 0.34106558891752625 -0.1228989522570746
0.21002936358769772 0.463973872909776 -0.1228989522570746
0.3223274646857717 0.4624248048706967 -0.1228989522570746
0.4105123620911898 0.41010176574348206 -0.1228989522570746
0.3806974682065009 0.3582453133750262 -0.1228989522570746
0.5083742688732658 0.42851327924410526 -0.1228989522570746
0.5736777516291511 0.3504813097092794 -0.1228989522570746
0.5324968043010971 0.40006081869499205 -0.1228989522570746
0.050111417890697896 0.32341927770126744 -0.12224573079481224
0.18794114642805487 0.25989815636384095 -0.12224573079481224
0.05864995557598446 0.31808152518106647 -0.12224573079481224
0.26293097029577334 0.267092924183902 -0.12224573079481224
0.0011104764858460023 0.268203400669748 -0.12224573079481224
0.03815746513129673 0.47959519759302155 -0.12224573079481224
0.17413017836879374 0.43529745071645864 -0.12224573079481224
0.18209014847321925 0.3173349863670524 -0.12224573079481224
0.4156261529671865 0.43400967126228424 -0.12224573079481224
0.4859874361880173 0.4559579123942994 -0.12224573079481224
0.46501902724939587 0.45164665074336785 -0.12224573079481224
0.3540273690758464 0.3991649721181752 -0.12224573079481224
0.3063422023306944 0.3040839224183017 -0.12224573079481224
0.33459869644112894 0.32129164208132727 -0.12224573079481224
0.4530744062251699 0.3604289394060174 -0.12224573079481224
0.4814242176873562 0.37394129193967307 -0.12224573079481224
0.5014781165788103 0.37660083646459835 -0.12224573079481224
0.5798366968447676 0.3765728412590728 -0.12224573079481224
0.5921079286001247 0.3102895263097941 -0.12224573079481224
0.604183193916803 0.44731672562208596 -0.12224573079481224
0.6212509375522008 0.34038437224973833 -0.12224573079481224
0.12718221870248067 0.5166981766495233 -0.1217791440360534
0.3153659902450901 0.45691908111734253 -0.1217791440360534
0.5295853029264419 0.38086543943965395 -0.1217791440360534
0.3794750108985528 0.3597757179437551 -0.12103260522203929
0.42394072900826874 0.4060237974719299 -0.12103260522203929
0.49477793072303367 0.3870710433311464 -0.12103260522203929
0.5295853029264419 0.3041865715052286 -0.12103260522203929
0.5807512068919348 0.4474846968552391 -0.12103260522203929
0.40704095660602413 0.4623594827244704 -0.12103260522203929
0.21002936358769772 0.41141754040318185 -0.12103260522203929
0.14857988745916034 0.23841650199058467 -0.12103260522203929
-0.04807709962250938 0.4762637681354835 -0.12103260522203929
0.047797147567254075 0.31352763841558035 -0.12037938375977694
0.16084178747934233 0.498706591231783 -0.12037938375977694
-0.04967282633746449 0.453083737960345 -0.12037938375977694
0.23334936979046378 0.48755516769744706 -0.12037938375977694
0.04710659916429103 0.4502002317912155 -0.12037938375977694
-0.09807653669110501 0.366326596036729 -0.12037938375977694
0.2331813985573106 0.33866733297750584 -0.12037938375977694
0.17315034617540018 0.3257988701709374 -0.12037938375977694
0.3277025441466735 0.3956375762219585 -0.12037938375977694
0.29950204044729 0.32867304460489183 -0.12037938375977694
0.3066501495914753 0.299026121953356 -0.12037938375977694
0.37593828326716083 0.31958393454426987 -0.12037938375977694
0.39998616481359067 0.37801926021122517 -0.12037938375977694
0.5013288088160075 0.38660445657238757 -0.12037938375977694
0.5602867116527729 0.4454410468518754 -0.12037938375977694
0.5320675444830391 0.3524409740960664 -0.12037938375977694
0.3207783966466925 0.43828360597251503 -0.12037938375977694
0.42710418723265353 0.45515538316923426 -0.12037938375977694
0.6634583757495242 0.30662215438594975 -0.12037938375977694
0.6521949713930861 0.3156179470948199 -0.12037938375977694
0.6205510574140627 0.3279824962019288 -0.12037938375977694
0.3329376475799474 0.46151029482352945 -0.11991279700101812
0.4471767495944583 0.419825433796016 -0.11991279700101812
0.2993620644196624 0.390225169820356 -0.11991279700101812
0.40704095660602413 0.31648579846611136 -0.11991279700101812
0.5035497617876995 0.4464955329266703 -0.11991279700101812
-0.04807709962250938 0.4762637681354835 -0.11916625818700399
0.07987032136433571 0.27960678105381365 -0.11916625818700399
0.3877429282637591 0.35925314077394527 -0.11916625818700399
0.5121629533543874 0.4025150650460635 -0.11916625818700399
0.3741559218487021 0.40640639861411215 -0.11916625818700399
0.40704095660602413 0.4630406993922584 -0.11916625818700399
0.5711021927208023 0.34279195992493383 -0.11916625818700399
0.6033340060158621 0.463973872909776 -0.11916625818700399
0.16381861100022366 0.257098635811288 -0.11851303672474163
0.1275834833150132 0.5036057521987507 -0.11851303672474163
0.1419730189551354 0.2582930979137106 -0.11851303672474163
-0.028004537260704614 0.2817810753496298 -0.11851303672474163
0.03457407882402895 0.4915024916765467 -0.11851303672474163
0.0395012349965222 0.26324824929172924 -0.11851303672474163
0.19643302543746546 0.4154488499988581 -0.11851303672474163
0.14255158653599645 0.4472607352110349 -0.11851303672474163
0.3837956042846594 0.3410935841230518 -0.11851303672474163
0.33919924188249095 0.33006347314599316 -0.11851303672474163
0.3918675552111872 0.44819390872855247 -0.11851303672474163
0.46883570693604293 0.4262363358613622 -0.11851303672474163
0.47785949485043877 0.391596934891107 -0.11851303672474163
0.48870297112399363 0.3988476931222191 -0.11851303672474163
0.4995837743382497 0.36785700060545795 -0.11851303672474163
0.5653538438528938 0.4342243011713133 -0.11851303672474163
0.5353523152647013 0.39554425887020667 -0.11851303672474163
0.6025688037314977 0.3694247321148876 -0.11851303672474163
0.6010383991627686 0.4339723443215835 -0.11851303672474163
0.639867749226678 0.43632394158572807 -0.11851303672474163
0.7255424098699736 0.3830117385299446 -0.11851303672474163
0.3443130327584877 0.4508721167238282 -0.11804644996598282
0.5035497617876995 0.44178300666320625 -0.11804644996598282
0.34464897522479404 0.4025150650460635 -0.11804644996598282
0.49477793072303367 0.39321132507641254 -0.11804644996598282
0.5518041643785372 0.3256122354674339 -0.1172999111519687
0.6072533347894361 0.4592613466463119 -0.1172999111519687
0.3692940878224351 0.4091592604907892 -0.1172999111519687
0.3510318820846148 0.35350479190603656 -0.1172999111519687
0.4927156172493196 0.33025010784949665 -0.1172999111519687
0.34169081517426303 0.4578055959589843 -0.1172999111519687
-0.10952657575104663 0.3027121573475507 -0.1172999111519687
0.07565237706515594 0.4379103365655081 -0.1172999111519687
0.04106896650595191 0.4919317514946048 -0.11664668968970633
0.1555413618998421 0.5021779967169485 -0.11664668968970633
0.1441099863102508 0.25430844699391014 -0.11664668968970633
0.11435108283661298 0.5006195969426941 -0.11664668968970633
0.05963911950455311 0.44975230850280695 -0.11664668968970633
0.03115866374991435 0.276135375568648 -0.11664668968970633
0.03432212197429917 0.4468221436578016 -0.11664668968970633
0.20202273480739624 0.42278359384654685 -0.11664668968970633
0.15293780778596788 0.4445731954805841 -0.11664668968970633
0.38387958990123605 0.30636086580104477 -0.11664668968970633
0.3434265179168459 0.32051710806178746 -0.11664668968970633
0.3806508095306249 0.4374904084826251 -0.11664668968970633
0.47287634826689434 0.41682994680478436 -0.11664668968970633
0.39171824744838435 0.44666350415982353 -0.11664668968970633
0.39171824744838435 0.36415230174091284 -0.11664668968970633
0.31815617906246796 0.37745002436553937 -0.11664668968970633
0.35784404876249365 0.36698914923416653 -0.11664668968970633
0.40098466047733455 0.37825255359060467 -0.11664668968970633
0.5217933040551698 0.4444892098640075 -0.11664668968970633
0.5936849918447293 0.36921010220585854 -0.11664668968970633
0.6455881028890612 0.3268440245105573 -0.11664668968970633
0.6495260951329856 0.33477599940945724 -0.11664668968970633
0.6475384355406731 0.34550749486091026 -0.11664668968970633
0.1175332045313481 0.5219706070234981 -0.11618010293094751
0.41160417510668545 0.4127519785332321 -0.11618010293094751
0.32354059025854476 0.463973872909776 -0.11618010293094751
0.02567160346691062 0.24273709537669133 -0.11543356411693338
0.06292389028621528 0.41480496027177094 -0.11543356411693338
0.13757777168762736 0.4516746459488934 -0.11543356411693338
0.4927156172493196 0.4611276936813472 -0.11543356411693338
0.31748429412985524 0.460857073361267 -0.11543356411693338
0.48829237477628606 0.4068263266969951 -0.11543356411693338
0.5357442481420587 0.31648579846611136 -0.11543356411693338
0.6107527354801273 0.4626674299852513 -0.11543356411693338
0.14508981850364436 0.5043709544831152 -0.11478034265467103
0.14618163151914007 0.2538791871758521 -0.11478034265467103
0.07500848733806874 0.5077770378220544 -0.11478034265467103
0.19806607909312146 0.5026072565350068 -0.11478034265467103
0.026287497988472294 0.3038039703630464 -0.11478034265467103
0.27230003241165057 0.42129051621851865 -0.11478034265467103
0.2734105088974966 0.42617101371513594 -0.11478034265467103
