0.44593417939926694 0.11422207526963664 -0.17516451981588815
0.57754592283476 0.17893253481945515 -0.17516451981588815
0.6044646625910639 0.1267584589692567 -0.17445453044778675
0.40761503893230533 0.6229294575143309 -0.17445453044778675
0.571054591469261 0.5983739680832791 -0.17445453044778675
0.509640511128485 0.2412797440440218 -0.17445453044778675
0.3752496664521376 0.3225025277548285 -0.17445453044778675
0.5745842528992511 0.34941112480587383 -0.17445453044778675
0.5718457224794312 0.43409257100986043 -0.17445453044778675
0.36704421789793634 0.4121538995355254 -0.17445453044778675
0.3727849890742996 0.12770173055830566 -0.17445453044778675
0.3657155235090607 0.6397562055383357 -0.17445453044778675
0.5795643211812198 0.6460649682091799 -0.17445453044778675
0.6142523731656054 0.6619383019388768 -0.1739473951848571
0.3782519072086808 0.2791931763006396 -0.1739473951848571
0.6083087478840703 0.6654578206636084 -0.17313597876416975
0.6037648159282208 0.16899268366603484 -0.17313597876416975
0.3415353141725768 0.6502741908914956 -0.17313597876416975
0.4993659507015309 0.10344037957975305 -0.17313597876416975
0.5855586599890479 0.6560859610046691 -0.1724259893960683
0.6063816338849378 0.11640275690023401 -0.1724259893960683
0.3807165845865188 0.6476878010505547 -0.1724259893960683
0.5747059653623542 0.3226039548074145 -0.1724259893960683
0.37720720856704587 0.6133344583397027 -0.1724259893960683
0.5750406746358877 0.28787533200199455 -0.1724259893960683
0.575781092119765 0.5858477270889179 -0.1724259893960683
0.5620174410838553 0.5467070274960103 -0.1724259893960683
0.5558709616971483 0.2932611084943071 -0.1724259893960683
0.3415353141725768 0.5321116746288961 -0.17191885413313868
0.3798544546395384 0.113664226480414 -0.17191885413313868
0.3310477569351925 0.5638177712672555 -0.17110743771245127
0.5650501099561743 0.6346544247932636 -0.17110743771245127
0.6596714073135814 0.36804327436590784 -0.17110743771245127
0.4860080078759648 0.09008243675418712 -0.17110743771245127
0.5731338460472724 0.6780652033000385 -0.1703974483443498
0.3630682774365682 0.6472618074296937 -0.1703974483443498
0.34867577867462585 0.638873790180838 -0.1703974483443498
0.5774647811926913 0.5860810093098655 -0.1703974483443498
0.5904575866289479 0.38897781801964215 -0.1703974483443498
0.46999267627264774 0.6324737431626662 -0.1703974483443498
0.5529498625826738 0.286769777128808 -0.1703974483443498
0.3773492064406661 0.5509466782941019 -0.1703974483443498
0.33282273035544613 0.6328084524362 -0.16989031308142025
0.32888736071511226 0.14952883227479621 -0.16989031308142025
0.3415353141725768 0.5976031224836262 -0.16907889666073284
0.5827897014534521 0.6218543307569202 -0.16907889666073284
0.4860080078759648 0.10086413244407057 -0.16907889666073284
0.5829925555586241 0.12447635028607336 -0.16836890729263138
0.34181930991981746 0.14145523888895686 -0.16836890729263138
0.33663638753267683 0.6634901358434416 -0.16836890729263138
0.36415354689923757 0.5357731912272479 -0.16836890729263138
0.3742962521578298 0.6221687546199366 -0.16836890729263138
0.5881754779457646 0.3830950489696587 -0.16836890729263138
0.36950889527577435 0.17330333340093654 -0.16836890729263138
0.6169300473538737 0.6316420413314617 -0.16786177202970176
0.3258039783165003 0.6352224162877449 -0.16705035560901438
0.6329555216624495 0.32796944588920973 -0.16705035560901438
0.5759839462249368 0.6752353885328913 -0.16634036624091292
0.35226629633616746 0.6617050197179292 -0.16634036624091292
0.5829925555586241 0.12937527692597345 -0.16634036624091292
0.6044646625910639 0.15186165448427247 -0.16634036624091292
0.3673484990556941 0.13357435690303066 -0.16634036624091292
0.4545960496901047 0.23377414215266343 -0.16634036624091292
0.352327152567719 0.37454474843666535 -0.16634036624091292
0.3839318221534925 0.2895387356644037 -0.16634036624091292
0.37505695505222425 0.5829671987954775 -0.16634036624091292
0.5958129350054846 0.3952358671641936 -0.16634036624091292
0.5799193158652706 0.258958479309748 -0.16634036624091292
0.6158346351859456 0.664747831295507 -0.1658332309779833
0.32898878776769824 0.6145921537917683 -0.16502181455729592
0.5592180544324837 0.16926653670801672 -0.16502181455729592
0.477498278164006 0.219584497495893 -0.1643118251891945
0.37670007330411626 0.6624454372018065 -0.1643118251891945
0.3376912288795704 0.6530431494270915 -0.1643118251891945
0.36075574063760923 0.47218857196113295 -0.1643118251891945
0.3699957451281868 0.19548542980147776 -0.1643118251891945
0.3693466119916368 0.48470467025023584 -0.1643118251891945
0.5859237973783573 0.3911584996502395 -0.1643118251891945
0.5642488362407456 0.6167829781276241 -0.1643118251891945
0.29898666561278237 0.5299512784088157 -0.1629932735055775
0.6215145501307573 0.22109576057942312 -0.1629932735055775
0.5958940766475533 0.2597698957304354 -0.16228328413747603
0.604413949064771 0.13521747515492252 -0.16228328413747603
0.3673687844662114 0.18622513990038309 -0.16228328413747603
0.6149927906494825 0.45204515931756883 -0.16228328413747603
0.6154187842703434 0.303413956458158 -0.16228328413747603
0.3569420834603785 0.1798453782927285 -0.16228328413747603
0.35238800879927057 0.4967542040974435 -0.16228328413747603
0.3605934573534717 0.6090948075416114 -0.16228328413747603
0.5950015185847973 0.43538069457770173 -0.16228328413747603
0.3498117616635881 0.3332030818026434 -0.16228328413747603
0.4647184695381798 0.6348369934879183 -0.16228328413747603
0.36926547034956814 0.5431063671292101 -0.16228328413747603
0.41334566740341006 0.2588671949624207 -0.16228328413747603
0.57127773098495 0.596588851957767 -0.16228328413747603
0.31234460843834827 0.5951384451057884 -0.16096473245385903
0.5790267578025144 0.15656786972425926 -0.16025474308575757
0.3439594207293804 0.3334465067288496 -0.16025474308575757
0.5950116612900558 0.5592332684903716 -0.16025474308575757
0.34655595327558003 0.6226556044723491 -0.16025474308575757
0.37235899545343865 0.6296337856902604 -0.16025474308575757
0.5898794524292083 0.577337997376959 -0.16025474308575757
0.3534834209671986 0.3116599758333934 -0.16025474308575757
0.5769880740455375 0.6625062934333581 -0.16025474308575757
0.46850169859963464 0.22215060192631686 -0.16025474308575757
0.3439594207293804 0.2051514279129162 -0.16025474308575757
0.39250240809700293 0.18102193210272519 -0.15893619140214058
0.38824247188839417 0.664342123085163 -0.15893619140214058
0.5394499218834875 0.14351420805645113 -0.15893619140214058
0.3531385689884064 0.5696092559699117 -0.15822620203403912
0.3843071022480605 0.26704221540084605 -0.15822620203403912
0.5904170158079136 0.5617182312787268 -0.15822620203403912
0.5768866469929516 0.6589360611823335 -0.15822620203403912
0.5924354141543734 0.3901036583033459 -0.15822620203403912
0.5127238935270968 0.12758001809520256 -0.15690765035042215
0.6329555216624495 0.2862829272763956 -0.15690765035042215
0.31234460843834827 0.32796944588920973 -0.15690765035042215
0.35037975315806924 0.15576659600883053 -0.15690765035042215
0.37101001565404595 0.28972130435905835 -0.15619766098232069
0.5669772239553068 0.6324027442258564 -0.15619766098232069
0.35645523360796605 0.5919333502440732 -0.15619766098232069
0.5918369945441165 0.4356139767986493 -0.15619766098232069
0.383495685827373 0.16668014686707575 -0.1548791092987037
0.57754592283476 0.19253390257122746 -0.1548791092987037
0.6329555216624495 0.6218543307569202 -0.1548791092987037
0.3524184369150464 0.22109576057942312 -0.1548791092987037
0.5861570795993049 0.6574755116250962 -0.15416911993060223
0.36854533827620806 0.6453245507253026 -0.15416911993060223
0.5156247072310542 0.22640039542966697 -0.15416911993060223
0.5855688026943064 0.6245624330609643 -0.15416911993060223
0.3805745867128984 0.6253637067763932 -0.15416911993060223
0.3424684430563674 0.21995977759046084 -0.15285056824698523
0.5260818363526629 0.648580359113311 -0.15285056824698523
0.5832461231900888 0.17978452206117695 -0.15285056824698523
0.3611411634374357 0.6320781776575813 -0.15214057887888377
0.37818090827187073 0.632382458815339 -0.15214057887888377
0.5417624586824464 0.2523860063021803 -0.15214057887888377
0.6041908095490818 0.6343704290460231 -0.1508220271952668
0.32570255126391434 0.5817805022802223 -0.1508220271952668
0.5260818363526629 0.14094810362602728 -0.1508220271952668
0.4680452768629981 0.20533399660757087 -0.15011203782716534
0.35689136993408554 0.2888693171173366 -0.15011203782716534
0.5808017312227681 0.5983435399675036 -0.15011203782716534
0.5985210373095288 0.6694033330092009 -0.14879348614354834
0.31234460843834827 0.39475916001703965 -0.14879348614354834
0.3453489713498075 0.4484039281297341 -0.14808349677544685
0.3783634769665253 0.6378696623602375 -0.14808349677544685
0.5716124402584836 0.28066386856313547 -0.14808349677544685
0.6142523731656054 0.6585912092035415 -0.14676494509182988
0.32713267270537594 0.646389534777455 -0.14676494509182988
0.4860080078759648 0.09008243675418712 -0.14676494509182988
0.33945605959456543 0.3582149929703318 -0.14605495572372842
0.3643056874781165 0.615545568086076 -0.14605495572372842
0.5637721290935916 0.2576703557419069 -0.14402641467201
0.3461502450652364 0.30169983926945576 -0.14402641467201
0.4148975013079746 0.23449427422602362 -0.14402641467201
0.6195975788368835 0.5951384451057884 -0.14380327515632094
0.31234460843834827 0.43483298849373775 -0.14380327515632094
0.3424684430563674 0.34583074984959067 -0.1419978736202915
0.35447740608254064 0.6304654875214653 -0.1419978736202915
0.5289116511198101 0.23113703878542954 -0.1419978736202915
0.6062396360113174 0.6352224162877449 -0.14084160522081202
0.581947856916989 0.629501930521899 -0.13996933256857308
0.6119296936613877 0.38755783928343923 -0.13996933256857308
0.37504681234696563 0.6268343990388892 -0.13996933256857308
0.6195975788368835 0.24088417853893668 -0.13794079151685462
0.32570255126391434 0.2077378177538572 -0.13794079151685462
0.5459311105437279 0.22861150517604012 -0.13794079151685462
0.3608064541639021 0.2655613804330916 -0.13794079151685462
0.6058339278009738 0.4020821932137434 -0.13794079151685462
0.39867931559948555 0.22685681716630365 -0.13591225046513616
0.45281093356459245 0.20967507445824834 -0.13591225046513616
0.6329555216624495 0.2344537034049892 -0.13491826534979412
0.32570255126391434 0.24781164623055513 -0.13491826534979412
0.5890680360085208 0.627828384154231 -0.13388370941341773
0.6180761730480946 0.36574088027220736 -0.13388370941341773
0.6079740386105369 0.4106933499782882 -0.13388370941341773
0.32570255126391434 0.5417066738035243 -0.13185516836169928
0.610651712798805 0.4442048481526769 -0.13185516836169928
0.6023448371920181 0.28831146832811405 -0.13185516836169928
0.3363929626064706 0.37524459509950825 -0.13185516836169928
0.6139683774183647 0.40303560750805095 -0.12982662730998082
0.6178023200061127 0.3376861575269411 -0.12982662730998082
0.598541322720046 0.30565549432030675 -0.12982662730998082
0.31234460843834827 0.6084963879313542 -0.12899492547877625
0.343523284403261 0.5691325488227577 -0.12779808625826236
0.3260474032427066 0.3393698465998674 -0.12779808625826236
0.4675178561895512 0.18788854356279222 -0.12779808625826236
0.6463134644880156 0.5550646166290905 -0.1260332555432673
0.3390604940894803 0.18102193210272519 -0.1260332555432673
0.5126427518850282 0.6454158350726301 -0.12576954520654393
0.5575445080648161 0.23610696436213968 -0.12576954520654393
0.33596696898560974 0.5529143631142687 -0.12374100415482547
0.3987300291257786 0.22477756258829223 -0.12374100415482547
0.6195975788368835 0.23702995054067166 -0.12307158560775838
0.31234460843834827 0.2611695890561212 -0.12307158560775838
0.3466168095071316 0.6328490232572342 -0.12171246310310702
0.33167660466122517 0.43213502889495214 -0.12171246310310702
0.6329555216624495 0.2878854747072532 -0.12010991567224945
0.32570255126391434 0.24781164623055513 -0.12010991567224945
0.47794455719538415 0.17472331213713946 -0.11968392205138857
0.5637417009778158 0.21999020570623662 -0.11968392205138857
0.6042516657806334 0.5130028179217082 -0.11968392205138857
0.6051543665486481 0.2826822669095953 -0.11765538099967011
0.3364639615432807 0.31555477465269277 -0.11765538099967011
0.6334322288096034 0.35468533154034176 -0.11714824573674051
0.3524184369150464 0.17940924196660896 -0.11714824573674051
0.3952510812220814 0.21441171781401092 -0.11562683994795167
0.4251720617349286 0.6491889214288262 -0.11562683994795167
0.3274369538631337 0.40047964578288575 -0.11562683994795167
0.3657763797406123 0.19437987492829126 -0.11390258005399098
0.6329555216624495 0.30125356023807776 -0.11390258005399098
0.33376600194449524 0.5773278546717003 -0.11359829889623323
0.6242632232558359 0.48019116641016224 -0.11359829889623323
0.4256487688820824 0.6381638008127366 -0.11359829889623323
0.35598866916607086 0.24745665154650442 -0.11156975784451476
0.5988861746988381 0.6446348467677185 -0.11156975784451476
0.34326971677179613 0.5723072155686971 -0.11156975784451476
0.4860080078759648 0.10086413244407057 -0.11065691437124146
0.6596714073135814 0.43483298849373775 -0.11065691437124146
0.591056006239205 0.6406284781905744 -0.10954121679279633
0.33445570590207946 0.6208502029363197 -0.10954121679279633
0.4651748912748165 0.6389042182966139 -0.10954121679279633
0.48490245300277834 0.3667145799770322 -0.10954121679279633
0.4925196246519812 0.17704599164135706 -0.10954121679279633
0.32432314334874585 0.6084963879313542 -0.10751267574107785
0.3399530521522365 0.6121781899402231 -0.10751267574107785
0.6161084882279277 0.2971254791978307 -0.10751267574107785
0.6060266392008871 0.6418861736426399 -0.10751267574107785
0.46195965370784264 0.3891908148300726 -0.10751267574107785
0.5943726708587646 0.33300022769747145 -0.10751267574107785
0.6110878491249245 0.5042293778730259 -0.10751267574107785
0.33665667294319396 0.2930582543891353 -0.10751267574107785
0.3309463298826065 0.3029676774267798 -0.10548413468935941
0.6121731185875939 0.5987086773568129 -0.10548413468935941
0.49662742028171103 0.6517347404487329 -0.10548413468935941
0.32389714972788497 0.4041715904970134 -0.10548413468935941
0.46921168796773616 0.39027608429274196 -0.10548413468935941
0.432028530489737 0.3471290161226905 -0.10548413468935941
0.5059587091196159 0.2603886007512096 -0.10548413468935941
0.28562872278721646 0.36804327436590784 -0.10416558300574241
0.6329555216624495 0.22109576057942312 -0.10416558300574241
0.34750936756988776 0.6452636944937511 -0.10345559363764097
0.4465528844200411 0.1606858080592478 -0.10345559363764097
0.502449333100143 0.2732191229033288 -0.10345559363764097
0.32919164187287003 0.3150273539792461 -0.10345559363764097
0.5787529047605324 0.25342056223855675 -0.10345559363764097
0.345460541107652 0.6089325242574737 -0.10345559363764097
0.5125210394219251 0.6181116725164997 -0.10345559363764097
0.3524184369150464 0.2077378177538572 -0.10213704195402397
0.6596714073135814 0.35468533154034176 -0.10213704195402397
0.6133496723975908 0.5606025337002817 -0.10142705258592251
0.33574382946992065 0.6401314856329033 -0.10142705258592251
0.6066047734006267 0.5912943598127817 -0.10142705258592251
0.5588123462221402 0.31848601647242597 -0.10142705258592251
0.5131904579689921 0.3822734898437127 -0.10142705258592251
0.49628256830291884 0.6225643201250216 -0.10142705258592251
0.4646068997803352 0.29741961765032987 -0.10142705258592251
0.29898666561278237 0.5149907881523922 -0.10010850090230553
0.5127238935270968 0.11679832240531912 -0.10010850090230553
0.3593053337856305 0.6252622797238073 -0.09939851153420406
0.32797451724183907 0.33022112645661716 -0.09939851153420406
0.522744886322586 0.6495642015233942 -0.09939851153420406
0.437252023697912 0.6536719971531241 -0.09939851153420406
0.6042415230753747 0.3189728663248384 -0.09939851153420406
0.34481140797110216 0.31902357985113133 -0.09939851153420406
0.5579400735699013 0.2113891916469504 -0.09939851153420406
0.5173388244197564 0.626712686575786 -0.09939851153420406
0.28562872278721646 0.43483298849373775 -0.09807995985058707
0.6195975788368835 0.2077378177538572 -0.09807995985058707
0.5164665517675174 0.3243789282276681 -0.09736997048248561
0.6198917172893826 0.36850983880780297 -0.09736997048248561
0.37720720856704587 0.21494928119271628 -0.09736997048248561
0.6183195979743008 0.29078628841121057 -0.09736997048248561
0.6316978262103842 0.3333653650867808 -0.09736997048248561
0.47849226327934796 0.29325096578904847 -0.09736997048248561
0.4000587235146542 0.21930050174865237 -0.09736997048248561
0.5572402269070583 0.5157007775204939 -0.09736997048248561
0.6329555216624495 0.2745275318816871 -0.09605141879886862
0.30372330896854494 0.35468533154034176 -0.09605141879886862
0.383495685827373 0.49533422536124055 -0.09605141879886862
0.5565606656547326 0.5341605010911318 -0.09605141879886862
0.5632751365359208 0.512586967006106 -0.09534142943076716
0.5590354857378291 0.3891603867142968 -0.09534142943076716
0.5554449680762874 0.6474240907138314 -0.09534142943076716
0.3194749302351387 0.35428976603525664 -0.09534142943076716
0.6105807138619949 0.28471080796131376 -0.09534142943076716
0.6201351422155889 0.29379867187301245 -0.09534142943076716
0.6239082285717853 0.29273368782086023 -0.09534142943076716
0.40346667248154117 0.23540711769929681 -0.09534142943076716
0.5365693935900474 0.21942221421175548 -0.09534142943076716
0.6463134644880156 0.5550646166290905 -0.09402287774715018
0.3939832430647574 0.49638906670813415 -0.09402287774715018
0.5827897014534521 0.5149907881523922 -0.09402287774715018
0.5394499218834875 0.11165597083921279 -0.09402287774715018
0.385858936152625 0.5060753502300898 -0.09331288837904872
0.5068309817718548 0.562286222773208 -0.09331288837904872
0.5212133378285386 0.3326858038344552 -0.09331288837904872
0.5839763979687075 0.6341878603513684 -0.09331288837904872
0.34983204707410537 0.24717265579926392 -0.09331288837904872
0.6193237257949016 0.40780267897958933 -0.09331288837904872
0.45956597526681486 0.6550006915419997 -0.09331288837904872
0.613836522250003 0.5276691697256325 -0.09331288837904872
0.41023185688902225 0.187918971678568 -0.09331288837904872
0.459292122224833 0.6670096545681728 -0.09280575311611909
0.3718822883062849 0.5158934889204069 -0.09199433669543174
0.31234460843834827 0.2344537034049892 -0.09199433669543174
0.6428345165843183 0.35468533154034176 -0.09199433669543174
0.562869428325577 0.5225268181595262 -0.09128434732733028
0.3879077626148606 0.39220319829187444 -0.09128434732733028
0.5257369843738707 0.23581282590964056 -0.09128434732733028
0.3431074334876586 0.5977958338835395 -0.09128434732733028
0.5964113546157416 0.2473653671991771 -0.09128434732733028
0.31267931771188184 0.40502357773873504 -0.09128434732733028
0.31174618882809135 0.33126582509825225 -0.09128434732733028
0.5214973335757792 0.2117441863310011 -0.09128434732733028
0.4322516700054259 0.20031335750456766 -0.09128434732733028
0.5230795955961195 0.6683282062517899 -0.08996579564371325
0.3390604940894803 0.19437987492829126 -0.08996579564371325
0.5948493780059184 0.5417066738035243 -0.08996579564371325
0.567494501923495 0.5138649478686886 -0.08925580627561179
0.3808281543443633 0.3990190962256484 -0.08925580627561179
0.48617029116010235 0.22160289584235285 -0.08925580627561179
0.37227785381136996 0.22571069147208273 -0.08925580627561179
0.5696041846172822 0.21026335136324661 -0.08925580627561179
0.4838577543611434 0.6574450835093206 -0.08925580627561179
0.3396082001734443 0.6512783187120964 -0.08925580627561179
0.395484363443029 0.19592156612759715 -0.08925580627561179
0.5335874382440211 0.19898466311569207 -0.08925580627561179
0.5633461354727308 0.5308641218820891 -0.0879372545919948
0.4621625078130145 0.27123115267264475 -0.0879372545919948
0.31154333472291956 0.5417066738035243 -0.0879372545919948
0.5595121928849829 0.5060753502300898 -0.08722726522389335
0.4351524837093833 0.5717290813689573 -0.08722726522389335
0.49246891112568814 0.28879831818052654 -0.08722726522389335
0.5656485295664313 0.21493913848745763 -0.08722726522389335
0.3263922552214986 0.4659812363428745 -0.08722726522389335
0.607892896968468 0.6310537644264635 -0.08722726522389335
0.48744827202268504 0.6620397289914629 -0.08722726522389335
0.6220926843304972 0.4429978662269044 -0.08722726522389335
0.4478714361036581 0.16743070705621155 -0.08722726522389335
0.5499881926471648 0.4081171028426057 -0.08590871354027636
0.44593417939926694 0.11422207526963664 -0.08590871354027636
0.6341320754724461 0.5417066738035243 -0.08590871354027636
0.5661658075346194 0.3413273887147758 -0.08590871354027636
0.38693406291003585 0.526512901326153 -0.0851987241721749
0.5603946082424804 0.4020619078032262 -0.0851987241721749
0.5044981595623786 0.650416188765116 -0.0851987241721749
0.3242622871171943 0.5170396146146279 -0.0851987241721749
0.6109559939565629 0.2765155021123713 -0.0851987241721749
0.41381223184530525 0.16958096057103314 -0.0851987241721749
0.6276204586964299 0.540448978351459 -0.0851987241721749
0.45745629257302767 0.1499243977798813 -0.0851987241721749
0.3023946145796694 0.44819093131930365 -0.08388017248855792
0.6062396360113174 0.18102193210272519 -0.08388017248855792
0.40264511335559516 0.5652073218876826 -0.08388017248855792
0.5061108496984948 0.5856550156890046 -0.08317018312045646
0.5140627306212311 0.6183348120321889 -0.08317018312045646
0.4241577912090693 0.3371485941482357 -0.08317018312045646
0.35159687778910037 0.2465032372521968 -0.08317018312045646
0.3261691157058097 0.2919831276317244 -0.08317018312045646
0.6296997132744414 0.39978994182530153 -0.08317018312045646
0.5970300596365158 0.23477826997326412 -0.08317018312045646
0.6139480920078477 0.5656840290348365 -0.08317018312045646
0.49796625737584516 0.16993595525508381 -0.08317018312045646
0.28562872278721646 0.4081171028426057 -0.08185163143683948
0.6329555216624495 0.2344537034049892 -0.08185163143683948
0.5526557241301746 0.49533422536124055 -0.08185163143683948
0.32570255126391434 0.6645044063693007 -0.08185163143683948
0.42372165488294994 0.529971563819333 -0.08114164206873802
0.428072875438886 0.337290592021856 -0.08114164206873802
0.5755478098988173 0.21803266359132834 -0.08114164206873802
0.42593276462932306 0.6609240314130176 -0.08114164206873802
0.5810654415594915 0.21834708745434475 -0.08114164206873802
0.32911050023080135 0.6104336446357453 -0.08114164206873802
0.3241811454751255 0.6017514889343903 -0.08114164206873802
0.4764738649328881 0.13847328354293076 -0.08114164206873802
0.3657763797406123 0.1517297993159107 -0.079823090385121
0.6463134644880156 0.5149907881523922 -0.079823090385121
0.5928816931857515 0.5283487309779583 -0.079823090385121
0.409714578920834 0.5620732259627774 -0.079823090385121
0.5177039618090656 0.5944791692639799 -0.07911310101701954
0.46861326835747924 0.39502287035376316 -0.07911310101701954
0.44614717620969735 0.30655819508832144 -0.07911310101701954
0.3321127409873447 0.45492568761100893 -0.07911310101701954
0.38903360289856437 0.18933895041477078 -0.07911310101701954
0.520878628555005 0.6557208236153598 -0.07911310101701954
0.44953483976606723 0.6595243380873318 -0.07911310101701954
0.33396885604966703 0.5880994076563252 -0.07911310101701954
0.3695697515073259 0.4955573648769295 -0.07779454933340256
0.5275626713204173 0.36804327436590784 -0.07779454933340256
0.49340204000947874 0.6701133223773023 -0.07779454933340256
0.40789903467954597 0.19107335301399012 -0.07779454933340256
0.5138700192213178 0.5691832623490508 -0.0770845599653011
0.5033723192786748 0.6195823647789956 -0.0770845599653011
0.5203309224710411 0.32357765451223935 -0.0770845599653011
0.42998984673275986 0.15240936056823648 -0.0770845599653011
0.39022029941381975 0.1869757000895189 -0.0770845599653011
0.586998924135768 0.23236430612171916 -0.0770845599653011
0.3580070675125307 0.232891726795166 -0.0770845599653011
0.4797803868471893 0.12490234390693425 -0.0770845599653011
0.4079091773848046 0.5684225594546563 -0.07657742470237149
0.550333044625957 0.4972410539498559 -0.07576600828168412
0.6432503674999206 0.4615488741448697 -0.07576600828168412
0.44593417939926694 0.11422207526963664 -0.07576600828168412
0.5629607126729043 0.5135910948267064 -0.07505601891358266
0.47850240598460664 0.527435887504685 -0.07505601891358266
0.4382865796342883 0.29870774121817106 -0.07505601891358266
0.5195093633450951 0.6653766790215395 -0.07505601891358266
0.3516881621364277 0.6450405549780621 -0.07505601891358266
0.6212812679098098 0.47871033144240777 -0.07505601891358266
0.34691094795963073 0.23179631462723801 -0.07505601891358266
0.4483582859560705 0.6605487513184496 -0.07505601891358266
0.5394499218834875 0.14351420805645113 -0.07373746722996567
0.5928816931857515 0.5149907881523922 -0.07373746722996567
0.3018266230851882 0.4615488741448697 -0.07373746722996567
0.5153305687785551 0.5251334934109845 -0.07302747786186421
0.5520877326356933 0.516187627372906 -0.07302747786186421
0.43554804921446844 0.30824188416124787 -0.07302747786186421
0.6189991592266265 0.3598479685169652 -0.07302747786186421
0.3221120336023727 0.4604027484506488 -0.07302747786186421
0.3377622278163805 0.2465438080732311 -0.07302747786186421
0.6195975788368835 0.5516668103674619 -0.07302747786186421
0.45030568536572013 0.6571813731725971 -0.07302747786186421
0.6096982985044974 0.6541892751213125 -0.07302747786186421
0.6463134644880156 0.5016328453268263 -0.07170892617824723
0.3962146382216477 0.5032049646419081 -0.07170892617824723
0.29898666561278237 0.2878854747072532 -0.07170892617824723
0.4297261363960365 0.5984145389043134 -0.07099893681014577
0.5159797019151051 0.5614950917630378 -0.07099893681014577
0.5231505945329298 0.383460186358968 -0.07099893681014577
0.5925672693227351 0.6337415813199903 -0.07099893681014577
0.31409929644808476 0.34438034299761194 -0.07099893681014577
0.37160843526430287 0.6534995711637281 -0.07099893681014577
0.616179487164738 0.2730974104402257 -0.07099893681014577
0.607142336779332 0.6516637415119227 -0.07099893681014577
0.48745841472794355 0.12495305743322717 -0.07099893681014577
0.34711380206480263 0.35468533154034176 -0.06968038512652876
0.29898666561278237 0.5684225594546563 -0.06968038512652876
0.5782559122028615 0.5032353927576839 -0.06968038512652876
0.5661658075346194 0.13837185649034478 -0.06968038512652876
0.5594817647692073 0.5060753502300898 -0.06897039575842728
0.5033824619839334 0.6195823647789956 -0.06897039575842728
0.49213420185215473 0.2886157494858719 -0.06897039575842728
0.4870324211070828 0.6636929899486133 -0.06897039575842728
0.4003832900829291 0.17291791060110992 -0.06897039575842728
0.4931586150832725 0.13101839517786532 -0.06897039575842728
0.5211017680706941 0.15553331378788282 -0.06897039575842728
0.42425921826165525 0.6623034393281861 -0.06897039575842728
0.5264875445630066 0.6694134757144592 -0.06765184407481031
0.4178388858329664 0.35468533154034176 -0.06765184407481031
0.3244042849908146 0.648580359113311 -0.06765184407481031
0.5203613505868168 0.5550646166290905 -0.06765184407481031
0.42722088819716425 0.6047435869856752 -0.06694185470670885
0.5041127367625521 0.5647407574457872 -0.06694185470670885
0.4540077727851064 0.2881998985702696 -0.06694185470670885
0.4117431199725525 0.6574146553935446 -0.06694185470670885
0.41138812528850166 0.16668014686707575 -0.06694185470670885
0.5509010361204382 0.177269131157046 -0.06694185470670885
0.500755501321958 0.13695187775414186 -0.06694185470670885
0.42785987862845554 0.6626178631912025 -0.06694185470670885
0.3695697515073259 0.4955573648769295 -0.06562330302309187
0.42185539711536896 0.6752962447644428 -0.06562330302309187
0.459292122224833 0.2344537034049892 -0.06562330302309187
0.636921319418559 0.5417066738035243 -0.06562330302309187
0.5173388244197564 0.5385522924681021 -0.06491331365499041
0.45706072706794254 0.2955837879985247 -0.06491331365499041
0.5718761505952069 0.4061291326119217 -0.06491331365499041
0.33896920974215294 0.6440871406837545 -0.06491331365499041
0.3667500794454372 0.6547572666157935 -0.06491331365499041
0.6276204586964299 0.4211301936893796 -0.06491331365499041
0.6352274876403741 0.44469169800508934 -0.06491331365499041
0.6195367226053319 0.25777178279449287 -0.06491331365499041
0.5661658075346194 0.1543060464515932 -0.06359476197137343
0.37591908499920457 0.16766398927715928 -0.06359476197137343
0.5661556648293609 0.5283487309779583 -0.06359476197137343
0.5086465260131429 0.5660897372451801 -0.06288477260327197
0.3895305954562355 0.5016227026215676 -0.06288477260327197
0.3807064418812602 0.3989480972888384 -0.06288477260327197
0.48132207804649535 0.12374607550745469 -0.06288477260327197
0.31678711334161175 0.4137057334400901 -0.06288477260327197
0.4114692669305705 0.1554521721458141 -0.06288477260327197
0.6090491653679476 0.6062244219534296 -0.06288477260327197
0.595031946700573 0.6438842865785825 -0.06288477260327197
0.4030609642711974 0.5833931924163384 -0.061566220919654975
0.5260818363526629 0.606589559342739 -0.061566220919654975
0.5394499218834875 0.11165597083921279 -0.061566220919654975
0.5618044442734249 0.1588804065232184 -0.061566220919654975
0.5133121704320953 0.5309148354083822 -0.060856231551553515
0.3940136711805332 0.5287341537777849 -0.060856231551553515
0.4222205345046783 0.3816649275281971 -0.060856231551553515
0.5847066727473261 0.22863179058655725 -0.060856231551553515
0.34096732267809565 0.6333358731096467 -0.060856231551553515
0.4526689356909722 0.12464877627546952 -0.060856231551553515
0.5987847476462522 0.6373118135710149 -0.060856231551553515
0.5985616081305631 0.6378798050654961 -0.060856231551553515
0.383495685827373 0.1543060464515932 -0.060349096288623894
0.28562872278721646 0.39475916001703965 -0.0595376798679365
0.39544379262199475 0.4081171028426057 -0.0595376798679365
0.6409276879957031 0.29404209679921867 -0.0595376798679365
0.5064455589720283 0.5417573873298173 -0.058827690499835036
0.5128151778744242 0.5393941370045653 -0.058827690499835036
0.480683087615204 0.3817359264650073 -0.058827690499835036
0.46468804142240405 0.40396873639184144 -0.058827690499835036
0.31267931771188184 0.4246598551193697 -0.058827690499835036
0.6281478793698766 0.30624377122530516 -0.058827690499835036
0.6187455915951617 0.5077083257767231 -0.058827690499835036
0.6125788267979375 0.24184773553850294 -0.058827690499835036
0.6372154578710582 0.5417066738035243 -0.05750913881621805
0.459292122224833 0.2611695890561212 -0.05750913881621805
0.31234460843834827 0.6218543307569202 -0.05750913881621805
0.3657763797406123 0.4615488741448697 -0.05750913881621805
0.5221261813018119 0.5250929225899502 -0.05679914944811659
0.46680786682144987 0.527435887504685 -0.05679914944811659
0.42220024909416104 0.37688771335140026 -0.05679914944811659
0.3181056650252288 0.3337609305918659 -0.05679914944811659
0.6248616428660929 0.5257724838422759 -0.05679914944811659
0.5288203667724828 0.15232821892616777 -0.05679914944811659
0.5662875199977226 0.6617151624231878 -0.05679914944811659
0.34633281375989106 0.5817805022802223 -0.05548059776449961
0.5260818363526629 0.6065591312269633 -0.05548059776449961
0.6329555216624495 0.6352122735824863 -0.05548059776449961
0.29898666561278237 0.2878854747072532 -0.05548059776449961
0.5082611032133163 0.5949863045269094 -0.05477060839639815
0.39407452741208476 0.5164006241833367 -0.05477060839639815
0.37763320218790675 0.4020517650979676 -0.05477060839639815
0.46341006055982137 0.11686932134212917 -0.05477060839639815
0.3221424617181485 0.41156562263052715 -0.05477060839639815
0.34506497560256705 0.2345247023417994 -0.05477060839639815
0.35099845817884345 0.6609848876445692 -0.05477060839639815
0.39775632942095374 0.1557564533035719 -0.05477060839639815
0.405860350922569 0.35468533154034176 -0.05426347313346853
0.6332090892939144 0.5817805022802223 -0.05426347313346853
0.29898666561278237 0.45867848855668814 -0.05426347313346853
0.547695941258723 0.5100817188072337 -0.05426347313346853
0.38783676367805053 0.514747363226186 -0.052742067344679705
0.42522277526122154 0.5994288094301728 -0.052742067344679705
0.3759393704097218 0.39828882144702993 -0.052742067344679705
0.3387054994054296 0.6116609119720351 -0.052742067344679705
0.3363929626064706 0.6198866459367535 -0.052742067344679705
0.6335336558621891 0.35876269905429586 -0.052742067344679705
0.6078624688526921 0.6538647085530375 -0.052742067344679705
0.4395747032021296 0.11422207526963664 -0.052234932081750084
0.5559521033392171 0.14914340947496973 -0.052234932081750084
0.4674062864317068 0.6746572543331516 -0.052234932081750084
0.5499273364156133 0.4081171028426057 -0.052234932081750084
0.5064455589720283 0.5416356748667142 -0.05071352629296126
0.4140049432452185 0.5549124760502114 -0.05071352629296126
0.3819742800385842 0.38757812469395636 -0.05071352629296126
0.48749898554897797 0.29867731310239526 -0.05071352629296126
0.42932042818569277 0.14252022294110894 -0.05071352629296126
0.32691967589494547 0.27133257972523056 -0.05071352629296126
0.4361261834142082 0.6645754053061109 -0.05071352629296126
0.4656515984219703 0.10352152122182173 -0.05071352629296126
0.5928816931857515 0.5149907881523922 -0.04939497460934424
0.31979949680341374 0.24781164623055513 -0.04939497460934424
0.5560231022760272 0.14960997391686504 -0.04939497460934424
0.4181431669907242 0.5671040077710393 -0.04868498524124278
0.46680786682144987 0.5274460302099436 -0.04868498524124278
0.38549379876331563 0.37676600088829715 -0.04868498524124278
0.3265951093266704 0.2953505057775771 -0.04868498524124278
0.30699940276707033 0.34150995740943035 -0.04868498524124278
0.5995758786564225 0.6458925422197839 -0.04868498524124278
0.5805177354755275 0.65997061711871 -0.04868498524124278
0.6064932036427823 0.6495743442286529 -0.04868498524124278
0.5758115202355408 0.4955573648769295 -0.0473664335576258
0.41673333095977977 0.12758001809520256 -0.0473664335576258
0.5061108496984948 0.5592941247219231 -0.04665644418952434
0.5143872971895059 0.5430657963081756 -0.04665644418952434
0.4560870273631178 0.3834196155379336 -0.04665644418952434
0.4639374812332682 0.29674005639800427 -0.04665644418952434
0.4206281297790792 0.13354392878725488 -0.04665644418952434
0.6367996069554559 0.4450974062154331 -0.04665644418952434
0.6311602628316785 0.34847799592208334 -0.04665644418952434
0.5456674002070045 0.18008880321893472 -0.04665644418952434
0.5498969082998375 0.40993264708389376 -0.045337892505907355
0.6329555216624495 0.2344537034049892 -0.045337892505907355
0.31234460843834827 0.2611695890561212 -0.045337892505907355
0.42802216191259296 0.5311075468082953 -0.044627903137805895
0.42790044944948985 0.599570807303793 -0.044627903137805895
0.4322719554159432 0.3060510598253919 -0.044627903137805895
0.3716692914958544 0.6658229580529177 -0.044627903137805895
0.3062184144621586 0.29737904682929545 -0.044627903137805895
0.3901391577717509 0.18126535702893143 -0.044627903137805895
0.46830898719972147 0.10784231366198206 -0.044627903137805895
0.3524184369150464 0.5283487309779583 -0.04330935145418891
0.6463134644880156 0.5149907881523922 -0.04330935145418891
0.4178186004224491 0.35468533154034176 -0.04330935145418891
0.5160202727361394 0.5680675647706055 -0.04259936208608745
0.3928472600757951 0.5159644878572172 -0.04259936208608745
0.5537714217086198 0.3786424013611366 -0.04259936208608745
0.3399530521522365 0.662333867443962 -0.04259936208608745
0.6177414637745612 0.6135068843290987 -0.04259936208608745
0.5904677293342065 0.2044312958395562 -0.04259936208608745
0.5715312986164147 0.17413503523214102 -0.04259936208608745
0.4656718838324874 0.09855159564511158 -0.04259936208608745
0.44442291631573666 0.39475916001703965 -0.041280810402470475
0.39999786728310266 0.17257305862231787 -0.041280810402470475
0.5260818363526629 0.6064881322901531 -0.041280810402470475
0.5150871438523489 0.5203055657078945 -0.04057082103436901
0.4300709883748287 0.3780034109298454 -0.04057082103436901
0.44562989824150917 0.29266268888405017 -0.04057082103436901
0.32223374606547583 0.5502164035154833 -0.04057082103436901
0.6124571143348344 0.6606096075500012 -0.04057082103436901
0.2979723950869232 0.3498168330162174 -0.04057082103436901
0.4163174800441775 0.14464004834015476 -0.04057082103436901
0.3524184369150464 0.540093983667408 -0.03925226935075199
0.40447080030214183 0.17165007244378588 -0.03925226935075199
0.5502519029838882 0.4972309112445973 -0.03925226935075199
0.5088189520025389 0.626712686575786 -0.03854227998265053
0.5159797019151051 0.5420920966033507 -0.03854227998265053
0.4912517864946571 0.38935309811421015 -0.03854227998265053
0.3481077871801447 0.661613735370602 -0.03854227998265053
0.6359881905347687 0.4075491113481246 -0.03854227998265053
0.3437159958031742 0.6493816328287396 -0.03854227998265053
0.6064627755270067 0.6132228885818582 -0.03854227998265053
0.39845617608379663 0.14613102601316788 -0.03854227998265053
0.5208989139655223 0.607431403879202 -0.037223728299033546
0.3123851792593827 0.2611695890561212 -0.037223728299033546
0.4993659507015309 0.0849400851880808 -0.037223728299033546
0.5145597231789022 0.5604605358266613 -0.036513738930932085
0.38634578600503744 0.38434260171646556 -0.036513738930932085
0.49674913274481414 0.3749605993522676 -0.036513738930932085
0.5984601810779772 0.22392557534657045 -0.036513738930932085
0.30906851463982304 0.4971599123077871 -0.036513738930932085
0.3728965588321442 0.1714877891596485 -0.036513738930932085
0.5005830753325621 0.12320851212874932 -0.036513738930932085
0.3390604940894803 0.3413273887147758 -0.03519518724731511
0.6329555216624495 0.2344537034049892 -0.03519518724731511
0.3657763797406123 0.5951384451057884 -0.03519518724731511
0.5552928274974086 0.52358165950642 -0.03448519787921364
0.5041938784046208 0.5680472793600883 -0.03448519787921364
0.4472933019039183 0.39385645924902496 -0.03448519787921364
0.6317891105577114 0.4932955416042634 -0.03448519787921364
0.3359466835750926 0.6550716904788099 -0.03448519787921364
0.6433923653735409 0.3561458810975791 -0.03448519787921364
0.32609811676899947 0.6481340800819329 -0.03448519787921364
0.4645967570750767 0.11207182175481505 -0.03448519787921364
0.549389773036908 0.5016328453268263 -0.033166646195596665
0.44593417939926694 0.07414824679293856 -0.033166646195596665
0.5757608067092477 0.41243789528276603 -0.033166646195596665
0.4769607147853006 0.10242610905389388 -0.032456656827495205
0.35777378529158316 0.2046037218289522 -0.032456656827495205
0.3410383216149059 0.6644536928430078 -0.032456656827495205
0.6219202583411012 0.27855418586934827 -0.032456656827495205
0.6199018599946412 0.284781806898124 -0.032456656827495205
0.5601207552004984 0.3875375538729221 -0.032456656827495205
0.4793543932263284 0.3881055453674032 -0.032456656827495205
0.5140627306212311 0.5591216987325272 -0.032456656827495205
0.3657763797406123 0.16306934379501695 -0.03194952156456558
0.5203613505868168 0.6084963879313542 -0.031138105143878218
0.3524184369150464 0.17940924196660896 -0.031138105143878218
0.57754592283476 0.14094810362602728 -0.031138105143878218
0.42802216191259296 0.626712686575786 -0.030428115775776757
0.5030173245946241 0.5788594031657476 -0.030428115775776757
0.37692321281980523 0.3973049790369464 -0.030428115775776757
0.3150932815634268 0.28355453956183424 -0.030428115775776757
0.35586695670296775 0.668054353209808 -0.030428115775776757
0.6232590954352352 0.2641211162863715 -0.030428115775776757
0.6161490590489621 0.2366039569198108 -0.030428115775776757
0.39786789917879817 0.14931583546436578 -0.030428115775776757
0.480683087615204 0.4110077738413045 -0.02910956409215974
0.3657763797406123 0.5843567494159047 -0.02910956409215974
0.3939832430647574 0.16766398927715928 -0.02910956409215974
0.4660573066323139 0.08442280721989256 -0.02910956409215974
0.5212640513548317 0.541939956024472 -0.02839957472405828
0.303124889358288 0.34822442829061845 -0.02839957472405828
0.5512864589202646 0.14740900687575054 -0.02839957472405828
0.5705677416168485 0.16660914793026554 -0.02839957472405828
0.44812500373512276 0.381817068107076 -0.02839957472405828
0.49735769506032973 0.40525685995968275 -0.02839957472405828
0.6397004206594133 0.343883350439941 -0.02839957472405828
0.5203613505868168 0.5546690511240052 -0.027892439461128696
0.6329555216624495 0.2344537034049892 -0.027081023040441295
0.3623481453632082 0.1543060464515932 -0.027081023040441295
0.41780845771719066 0.5417066738035243 -0.027081023040441295
0.5102490734440004 0.5897729540239931 -0.026371033672339835
0.3165031175943712 0.5258231973685689 -0.026371033672339835
0.34204244943550655 0.2439168474112557 -0.026371033672339835
0.5362245416112552 0.15662872595581082 -0.026371033672339835
0.467649711357913 0.39675727295298235 -0.026371033672339835
0.4376780173187729 0.3838861799798289 -0.026371033672339835
0.4524660815858004 0.3018519798483347 -0.026371033672339835
0.4860080078759648 0.4214750456681717 -0.025863898409410217
0.5396527759886592 0.12758001809520256 -0.02505248198872285
0.5260818363526629 0.4615488741448697 -0.02505248198872285
0.4338947882573179 0.4051757183176139 -0.02505248198872285
0.3013499159380344 0.5283487309779583 -0.02505248198872285
0.4038825233971434 0.14841313469635106 -0.02434249262062139
0.6148000792495693 0.24903891356684488 -0.02434249262062139
0.4181431669907242 0.5745284680203288 -0.02434249262062139
0.5062122767510806 0.5732200590419705 -0.02434249262062139
0.4449300515786663 0.3806810851181137 -0.02434249262062139
0.4917893498733625 0.40470915387571876 -0.02434249262062139
0.6412116837429436 0.39934366279392347 -0.02434249262062139
0.6463134644880156 0.5149907881523922 -0.023023940937004408
0.4860080078759648 0.2745275318816871 -0.023023940937004408
0.49887910084911846 0.4214750456681717 -0.023023940937004408
0.3244144276960732 0.44819093131930365 -0.023023940937004408
0.4512286715442521 0.11167625624972993 -0.022313951568902948
0.5588326316326573 0.17925710138773007 -0.022313951568902948
0.30777024836672323 0.29139485072672616 -0.022313951568902948
0.5062021340458221 0.5440496387182592 -0.022313951568902948
0.3046462951470769 0.34884313331139266 -0.022313951568902948
0.44402735081065153 0.4078533925058824 -0.022313951568902948
0.4483988567771048 0.3180498801463066 -0.022313951568902948
0.4885436841906129 0.4128537461983683 -0.02180681630597333
0.5394499218834875 0.10086413244407057 -0.020995399885285967
0.5260818363526629 0.43483298849373775 -0.020995399885285967
0.3657763797406123 0.5016328453268263 -0.020995399885285967
0.4087307365107505 0.14248979482533317 -0.020285410517184504
0.3581389226808923 0.2061352703229996 -0.020285410517184504
0.3971071962844039 0.5204881344025493 -0.020285410517184504
0.5064759870878041 0.5414632488773181 -0.020285410517184504
0.4626493576654269 0.39689927082660276 -0.020285410517184504
0.507997392876593 0.30949957961331326 -0.020285410517184504
0.5041533075835865 0.3743520370367522 -0.020285410517184504
0.6309675514317655 0.527588028083564 -0.020285410517184504
0.4860080078759648 0.2344537034049892 -0.018966858833567486
0.5782051986765685 0.4100036460207038 -0.018966858833567486
0.6262207653707441 0.29308868250491105 -0.018966858833567486
0.3198502103297067 0.2555911011638955 -0.018256869465466025
0.32654439580037753 0.23690823807756856 -0.018256869465466025
0.5173388244197564 0.626712686575786 -0.018256869465466025
0.3025366124532896 0.3449686199026104 -0.018256869465466025
0.5642995497670386 0.39680798647927545 -0.018256869465466025
0.4413395339171246 0.37516345345743957 -0.018256869465466025
0.6288680114432367 0.5244437894534004 -0.018256869465466025
0.6463134644880156 0.4081171028426057 -0.01693831778184904
0.36704421789793634 0.16216664302700226 -0.01693831778184904
0.41495835753952615 0.5664650173397481 -0.01693831778184904
0.593388828448681 0.20203761739852838 -0.01622832841374758
0.3994298757886215 0.1612842276695047 -0.01622832841374758
0.5099955058125356 0.5320913892183788 -0.01622832841374758
0.5007250732061823 0.32137668747112474 -0.01622832841374758
0.44077154242264344 0.31173097477020356 -0.01622832841374758
0.49412217208283876 0.31588948392622634 -0.01622832841374758
0.30626912798845163 0.44819093131930365 -0.0149097767301306
0.5844936759368957 0.1688912566134489 -0.0149097767301306
0.5476756558482059 0.5100918615124921 -0.0149097767301306
0.35389927188280085 0.19831524456862498 -0.01419978736202914
0.5572807977280926 0.17090965495990873 -0.01419978736202914
0.4342294975308515 0.5283487309779583 -0.01419978736202914
0.5103910713176207 0.5742343295678296 -0.01419978736202914
0.4568984437838052 0.30950972231857193 -0.01419978736202914
0.4645866143698181 0.29819046324998294 -0.01419978736202914
0.6346594961458931 0.288636034896389 -0.01419978736202914
0.3055489959150916 0.41052092398889206 -0.012881235678412156
0.5782559122028615 0.49800175684425024 -0.012881235678412156
0.6438183589944019 0.2878854747072532 -0.012881235678412156
0.3657763797406123 0.14476176080325787 -0.012881235678412156
0.3560495253976224 0.20419801361860845 -0.012171246310310696
0.39282697466527783 0.5159543451519585 -0.012171246310310696
0.4870831346333757 0.5274561729152022 -0.012171246310310696
0.30882508971361683 0.29286554298922196 -0.012171246310310696
0.4649213236433516 0.4010273518668498 -0.012171246310310696
0.49596814443990256 0.35253507802552014 -0.012171246310310696
0.3390604940894803 0.19161091639269548 -0.011664111047381076
0.6247399304029898 0.22109576057942312 -0.011664111047381076
0.4192182937481349 0.4882749025012604 -0.010852694626693714
0.6329555216624495 0.35468533154034176 -0.010852694626693714
0.379144465271437 0.12758001809520256 -0.010852694626693714
0.42041513296864874 0.13179938348277706 -0.010142705258592252
0.38962187980356267 0.5016125599163092 -0.010142705258592252
0.4376475892029971 0.6197852188841673 -0.010142705258592252
0.31165490448076405 0.2928351148734462 -0.010142705258592252
0.4551741838898445 0.40286318151865497 -0.010142705258592252
0.6328540946098634 0.29194255681069015 -0.010142705258592252
0.6443863504888828 0.2745275318816871 -0.008824153574975234
0.5605670342318766 0.532557953660274 -0.008824153574975234
0.31234460843834827 0.4081171028426057 -0.008824153574975234
0.6189484457003337 0.24468769301090879 -0.008114164206873773
0.439939840591439 0.12099740238237618 -0.008114164206873773
0.5638431280304018 0.5095644408390454 -0.008114164206873773
0.49651585052386643 0.6199779302840807 -0.008114164206873773
0.42976670721707094 0.6049058702698127 -0.008114164206873773
0.37858661648221437 0.401544629835038 -0.008114164206873773
0.45766928938345813 0.3963819928584145 -0.008114164206873773
0.4860080078759648 0.2344537034049892 -0.006795612523256791
0.36716593036103945 0.4101963574206171 -0.006795612523256791
0.6195975788368835 0.5149907881523922 -0.006795612523256791
0.6163316277436167 0.2383789303400644 -0.00608562315515533
0.3111579119230931 0.29330167931534135 -0.00608562315515533
0.46976953675695865 0.5250827798846915 -0.00608562315515533
0.4651444631590407 0.6262055513128563 -0.00608562315515533
0.4247257827035506 0.5730577757578328 -0.00608562315515533
0.5677582122602184 0.4020720505084847 -0.00608562315515533
0.5621188681364412 0.37057895068055585 -0.00608562315515533
0.6332395174096901 0.45751207745195005 -0.00608562315515533
0.6463134644880156 0.4615488741448697 -0.004767071471538347
0.4192182937481349 0.4749169596756943 -0.004767071471538347
0.3253171284640879 0.5269084668312383 -0.004767071471538347
0.4860080078759648 0.22641053813492548 -0.004767071471538347
0.5563172407285264 0.3827603396961251 -0.004057082103436887
0.3102247830393026 0.2885548932543203 -0.004057082103436887
0.561926156736528 0.5161369138466132 -0.004057082103436887
0.4884828279590615 0.6201909270945112 -0.004057082103436887
0.42987827697491543 0.5968525622944902 -0.004057082103436887
0.6410494004588062 0.3993842336149578 -0.004057082103436887
0.3511810268734981 0.19845724244224522 -0.004057082103436887
0.32774123502089136 0.2612710161087072 -0.004057082103436887
0.6203785671417951 0.5184190225297963 -0.002738530419819904
0.3153164210791159 0.4981944682441635 -0.002738530419819904
0.4346960619727467 0.5422036663611954 -0.002738530419819904
0.5278872378886923 0.3680027035448734 -0.0020285410517184434
