0.42793481251777904 0.6631645818820289 -0.17917002737152063
0.5033090834611581 0.6636150665222774 -0.17917002737152063
0.5137930896342117 0.618075164708076 -0.17917002737152063
0.5756630596574175 0.44420857014675236 -0.17917002737152063
0.4230306729114386 0.29455552499878 -0.17917002737152063
0.5211237033255266 0.18855853680578832 -0.17917002737152063
0.4126592878984471 0.6124133918431359 -0.17917002737152063
0.49814898667285845 0.1690034081040967 -0.1771223699158461
0.44542180718923946 0.6606459632115494 -0.1771223699158461
0.5103735016832353 0.6602978614440845 -0.1771223699158461
0.6148245084971925 0.2963165104106601 -0.1771223699158461
0.5260687960809804 0.5509120001619516 -0.1771223699158461
0.4877059336489183 0.4358848425894355 -0.1771223699158461
0.5166086186357642 0.39522860380701785 -0.1771223699158461
0.5204991678015458 0.18461679620361496 -0.1771223699158461
0.4357568639984557 0.33993161421652746 -0.1771223699158461
0.48782879309625876 0.438976805347504 -0.1771223699158461
0.4890778641442202 0.4286361351963476 -0.1771223699158461
0.5321503387243338 0.46918999110598164 -0.1771223699158461
0.5063293782082781 0.5625734093720182 -0.1771223699158461
0.5980132407861047 0.6673622796661616 -0.17635449836996814
0.5810176839040063 0.14499462443631292 -0.17635449836996814
0.3382986073956268 0.3446719412264139 -0.17635449836996814
0.4870302066885457 0.6302587265693393 -0.17507471246017156
0.5242873340945436 0.18093101278340085 -0.17507471246017156
0.4391457370875971 0.6608916821062304 -0.17507471246017156
0.49883495192050936 0.6613421667464786 -0.17507471246017156
0.6241311116332333 0.329314510308855 -0.17507471246017156
0.5575208146001411 0.6538067873095964 -0.17507471246017156
0.583044864785124 0.6539296467569369 -0.17507471246017156
0.5599370503978371 0.5417896861969217 -0.17507471246017156
0.6088248721520663 0.6413365534045388 -0.17302705500449705
0.6000301833799442 0.15588816210050147 -0.17302705500449705
0.3382986073956268 0.385123414263264 -0.17302705500449705
0.4852692212766656 0.6499981444420417 -0.17302705500449705
0.6186126747901904 0.338631351732174 -0.17302705500449705
0.4012947890194535 0.26108656388577994 -0.17302705500449705
0.468652481023867 0.6655091496687764 -0.17302705500449705
0.54941209107567 0.6657241537016221 -0.17302705500449705
0.5542855158201754 0.2107346670507435 -0.17302705500449705
0.46900058279133156 0.5538094354617312 -0.17302705500449705
0.4841020565269312 0.6367190858419924 -0.1709793975488225
0.4063832177968047 0.6534177323930181 -0.1709793975488225
0.45994993683725016 0.6625400463580484 -0.1709793975488225
0.5240006620507492 0.663492207074937 -0.1709793975488225
0.5572341425563466 0.6665329783966135 -0.1709793975488225
0.5105577908542459 0.17234108975684623 -0.1709793975488225
0.47467259394355 0.461920807138337 -0.1709793975488225
0.6149780828063681 0.6008748420804099 -0.16993509224642853
0.5405662108671561 0.10454315139946282 -0.16993509224642853
0.3646929119992714 0.41209106295449743 -0.16993509224642853
0.5149602543839462 0.6480938230082646 -0.16893174009314801
0.6205989025221947 0.3360615416253026 -0.16893174009314801
0.46066661694673633 0.18170912261655708 -0.16893174009314801
0.3890907505836334 0.2717753358044009 -0.16893174009314801
0.47609571587524374 0.6456263957741767 -0.16893174009314801
0.5471494295871496 0.6564892185765301 -0.16893174009314801
0.5014252386019377 0.4617774711164398 -0.16893174009314801
0.5453270144515994 0.6525577162616348 -0.16893174009314801
0.6349632195737515 0.1828558107917349 -0.16688408263747348
0.3382986073956268 0.31607640485791916 -0.16688408263747348
0.547241574172655 0.4642346600632492 -0.16688408263747348
0.4914633850800811 0.6289175109358726 -0.16688408263747348
0.5928121908486915 0.6570523243768406 -0.16688408263747348
0.5505280643890127 0.18903973630787196 -0.16688408263747348
0.49832303755659074 0.15011376807549923 -0.16688408263747348
0.5277683517691902 0.6207473576877311 -0.16688408263747348
0.6175581312005182 0.4104734135645147 -0.16688408263747348
0.46025708545560134 0.559297157442939 -0.16688408263747348
0.38105369507011083 0.3979827030849 -0.16688408263747348
0.5301026812686593 0.18833329448566422 -0.16688408263747348
0.5146326291910384 0.6500083827293202 -0.16483642518179897
0.5780383423059998 0.22424920625819528 -0.16483642518179897
0.5206322655361647 0.162911627173465 -0.16483642518179897
0.5925152805176187 0.2311498118838185 -0.16483642518179897
0.3781460214830531 0.36948954958918917 -0.16483642518179897
0.6031016695634559 0.2759013655775851 -0.16483642518179897
0.39943142073478966 0.5978955004824035 -0.16483642518179897
0.5272154842561583 0.6298082419290911 -0.16483642518179897
0.5539578906272674 0.5041332655870673 -0.16483642518179897
0.5947574654315823 0.6339752248513886 -0.16483642518179897
0.36729343696797806 0.4660365986242428 -0.16350544783561052
0.47314708913907244 0.06149115339390589 -0.16350544783561052
0.6221244073266723 0.5604233690435598 -0.16350544783561052
0.4494454540896399 0.46793068177074176 -0.16278876772612444
0.4881257034273315 0.6394322319707614 -0.16278876772612444
0.4906852752469247 0.6258665013269175 -0.16278876772612444
0.366658663156719 0.38863514679974587 -0.16278876772612444
0.46903129765316665 0.6578713873591103 -0.16278876772612444
0.44542180718923946 0.5307630507981145 -0.16278876772612444
0.49225173320051574 0.16279900601340294 -0.16278876772612444
0.5186460378041604 0.6321732862903952 -0.16278876772612444
0.5530262064849356 0.46990667121546764 -0.16278876772612444
0.6200562732964411 0.33168979295743745 -0.16278876772612444
0.38327540340951766 0.6278424907716434 -0.16104825888880112
0.37875008043247704 0.15588816210050147 -0.16104825888880112
0.661930868264985 0.385123414263264 -0.16104825888880112
0.4736487652157128 0.4795204229698596 -0.16104825888880112
0.5008416562270703 0.6619257491213459 -0.1607411102704499
0.5913174009060491 0.23946330115385703 -0.1607411102704499
0.5414057504239826 0.17471637240542867 -0.1607411102704499
0.6313695807390427 0.3244308472770712 -0.1607411102704499
0.4750002191364579 0.30285877598154015 -0.1607411102704499
0.44544228376379613 0.5221526511970029 -0.1607411102704499
0.4791057723350853 0.6568270820567162 -0.1607411102704499
0.38824097273952834 0.29273310986322976 -0.1607411102704499
0.6075246096677129 0.5325445127845513 -0.1607411102704499
0.40070096835730795 0.2722258204446494 -0.1607411102704499
0.5058788935680297 0.6612090690118597 -0.1586934528147754
0.6157357160649678 0.29011210831996637 -0.1586934528147754
0.6033269118835802 0.2500292136251375 -0.1586934528147754
0.605548620222987 0.6589361692360611 -0.1586934528147754
0.5827889076031647 0.3026437719486943 -0.1586934528147754
0.5477227736747386 0.44682957169001575 -0.1586934528147754
0.54073002346361 0.6216278503936713 -0.1586934528147754
0.4906136072359762 0.4416592366144376 -0.1586934528147754
0.4378454746032438 0.5862750444214507 -0.1586934528147754
0.463052137882597 0.47620321789166675 -0.15859106994199168
0.3517824317412436 0.3042204681895638 -0.15859106994199168
0.6484470439193682 0.19633963513735156 -0.15859106994199168
0.6007059103403168 0.6817880264413888 -0.15859106994199168
0.4519947876219546 0.4467271888172321 -0.15664579535910086
0.550589494112683 0.451590375274459 -0.15664579535910086
0.5524119092482332 0.43347884507901796 -0.15664579535910086
0.5088684734533145 0.6303099180057311 -0.15664579535910086
0.5084179888130662 0.6552708623904038 -0.15664579535910086
0.4799145970300768 0.6631850584565857 -0.15664579535910086
0.36720129238247273 0.3555040491669322 -0.15664579535910086
0.47759050581788615 0.15199761293471978 -0.15664579535910086
0.5731034878378243 0.22199678305695333 -0.15664579535910086
0.417327946897385 0.3044661870842446 -0.15664579535910086
0.6349632195737515 0.22590780879729172 -0.15613388099518224
0.5742296994384453 0.6817880264413888 -0.15613388099518224
0.3783712638031772 0.6038234688165813 -0.15613388099518224
0.40571772912371046 0.13980381278617796 -0.15613388099518224
0.4374359431121088 0.43365289596275025 -0.15459813790342636
0.44685516740821163 0.5556216123100031 -0.15459813790342636
0.3766307549658538 0.36781047047553606 -0.15459813790342636
0.4244845097049675 0.40198587341074377 -0.15459813790342636
0.4567043997700061 0.47175980121285305 -0.15459813790342636
0.4097618525986676 0.6628062418272859 -0.15459813790342636
0.5634692595088756 0.30402594073127465 -0.15459813790342636
0.6291273958250791 0.3428802409526987 -0.15459813790342636
0.6325981752124474 0.3396244655981763 -0.15459813790342636
0.6002247108382334 0.6690004056307015 -0.15459813790342636
0.42333782152978977 0.21765574925092326 -0.15459813790342636
0.36969943447839565 0.5604233690435598 -0.1540862235395077
0.6007059103403168 0.6794844118037551 -0.1540862235395077
0.661930868264985 0.31770429253518045 -0.1532671605572379
0.46835557069279404 0.42351699155716127 -0.1532671605572379
0.42599977622216656 0.3954845609889771 -0.1532671605572379
0.3382986073956268 0.26538664454269645 -0.1532671605572379
0.6214793952281348 0.22330728382858503 -0.1532671605572379
0.5561079309557256 0.5607714708110246 -0.15255048044775185
0.5580020141022246 0.4396525323078766 -0.15255048044775185
0.5776492873894216 0.3107524954731654 -0.15255048044775185
0.6190426828558822 0.3409963960934782 -0.15255048044775185
0.3821799066707318 0.3320993244485724 -0.15255048044775185
0.6254825655539785 0.3311164488698486 -0.15255048044775185
0.3861216472729053 0.5571778319763159 -0.15255048044775185
0.4148502813760188 0.669266601099939 -0.15255048044775185
0.600409000009244 0.6731161971166071 -0.15255048044775185
0.6182031432990557 0.6027177337905171 -0.15255048044775185
0.4177784315376334 0.2977908237787458 -0.15255048044775185
0.36563483442888167 0.4930042473154762 -0.1520385660838332
0.6059991048632354 0.3238779797640391 -0.1512195031015634
0.446179440447839 0.3282190135700691 -0.1512195031015634
0.5945117465369013 0.15847844878192974 -0.1512195031015634
0.3382986073956268 0.31770429253518045 -0.1512195031015634
0.4371595093555927 0.43202500828548895 -0.15050282299207732
0.48960001679541726 0.6258153098905257 -0.15050282299207732
0.4077858631539417 0.6575437621662026 -0.15050282299207732
0.4628064189879161 0.43344813021718287 -0.15050282299207732
0.5428698255047899 0.47194409038386376 -0.15050282299207732
0.4409169607867555 0.1875244697906727 -0.15050282299207732
0.38585545180366765 0.5266882124613221 -0.15050282299207732
0.50336027489755 0.6686113507141233 -0.15050282299207732
0.6289123917922335 0.3064933679653625 -0.15050282299207732
0.6183567176082312 0.26179300570798764 -0.15050282299207732
0.4263785928514664 0.3030635417271077 -0.15050282299207732
0.6102275175092032 0.2969512842219192 -0.15050282299207732
0.3517824317412436 0.19633963513735156 -0.14917184564588887
0.6484470439193682 0.32956022920353595 -0.14917184564588887
0.5856965811902225 0.33010285842928966 -0.14917184564588887
0.497207064243248 0.6243409965224399 -0.14845516553640278
0.5540295586382161 0.4419868618073455 -0.14845516553640278
0.6160326263960406 0.3086229317192639 -0.14845516553640278
0.6176605140733018 0.31855407037928535 -0.14845516553640278
0.3774191030862886 0.36508708605948886 -0.14845516553640278
0.5111004200799997 0.6529058180290997 -0.14845516553640278
0.615111180540987 0.3033194989090669 -0.14845516553640278
0.6299259822327923 0.32594611379427046 -0.14845516553640278
0.3741530894444878 0.5085971588404378 -0.14845516553640278
0.37635432120933787 0.5645801136785791 -0.14845516553640278
0.5020907272750318 0.6201740136001425 -0.14845516553640278
0.5774957130802462 0.29587626405769 -0.14845516553640278
0.36092522228083035 0.4930042473154762 -0.14794325117248416
0.43269561610222235 0.14240433775488467 -0.14712418819021433
0.661930868264985 0.3446719412264139 -0.14712418819021433
0.6050059909972333 0.3212160250716623 -0.14712418819021433
0.4525067019858732 0.5449430786786604 -0.14640750808072825
0.5589848896809484 0.5607714708110246 -0.14640750808072825
0.5630494897304624 0.6258153098905257 -0.14640750808072825
0.5158714619517214 0.6602671465822496 -0.14640750808072825
0.515093352118565 0.6538784553205451 -0.14640750808072825
0.4393709794077212 0.3237858351785337 -0.14640750808072825
0.6195648355070792 0.4907108709651207 -0.14640750808072825
0.5880616255515266 0.21858743339325526 -0.14640750808072825
0.6063472066307002 0.6648129461338469 -0.14640750808072825
0.6306324240549999 0.48574530163511004 -0.14640750808072825
0.63069385377867 0.47935661037340555 -0.14640750808072825
0.4905726540868626 0.14859850155830012 -0.14640750808072825
0.4237985444573166 0.29031687406553375 -0.14640750808072825
0.3517824317412436 0.33879516432862805 -0.14507653073453983
0.6079955708825181 0.14240433775488467 -0.14507653073453983
0.5797686128560449 0.3963445771203604 -0.14507653073453983
0.5400440582159591 0.42731539613743763 -0.14507653073453983
0.4372721305156548 0.44190495550911857 -0.14435985062505374
0.43365801510638935 0.5567068707615105 -0.14435985062505374
0.5113768538365158 0.6615059793429328 -0.14435985062505374
0.5047833968292439 0.6301870585583906 -0.14435985062505374
0.5605411093472611 0.31060915945126827 -0.14435985062505374
0.6258306673214431 0.309257705530523 -0.14435985062505374
0.43059676721015583 0.31099821436784636 -0.14435985062505374
0.6027433295087129 0.6623557571870377 -0.14435985062505374
0.6293219232833682 0.4703469175684377 -0.14435985062505374
0.6342874926133788 0.3186359766775123 -0.14435985062505374
0.6237318184293767 0.2667176218888848 -0.14435985062505374
0.580270288932685 0.21137967914928085 -0.14435985062505374
0.4276686170485414 0.29076735870578213 -0.14435985062505374
0.3517824317412436 0.3112132184006922 -0.1430288732788653
0.6214793952281348 0.2098234594829682 -0.1430288732788653
0.5540500352127729 0.33280576627078 -0.1430288732788653
0.5421838602571389 0.5498062651358874 -0.14231219316937924
0.4519947876219546 0.46514586763102433 -0.14231219316937924
0.42950127047137 0.4104631752772363 -0.14231219316937924
0.3864799873276483 0.5295549328992665 -0.14231219316937924
0.5726632414848541 0.41396466952643973 -0.14231219316937924
0.5115918578693616 0.6501824336130524 -0.14231219316937924
0.3740814214335391 0.4565764211790266 -0.14231219316937924
0.5339625155726058 0.15715770972301962 -0.14231219316937924
0.6171485997093832 0.526821310195941 -0.14231219316937924
0.5172331541597449 0.6678230025936885 -0.14231219316937924
0.3924284322363828 0.664403414642712 -0.14231219316937924
0.3867461827968861 0.660062380836682 -0.14231219316937924
0.5171205329996829 0.6186280322211081 -0.14231219316937924
0.6164114430253403 0.2759116038648635 -0.14231219316937924
0.6483446610465846 0.4255748873001143 -0.1418002788054606
0.5270823865215394 0.10194262643075613 -0.1409812158231908
0.6455803234814239 0.4525425359913477 -0.1409812158231908
0.40571772912371046 0.4406865993229922 -0.1409812158231908
0.45432911712142365 0.4417309046253863 -0.1402645357137047
0.4428622353696463 0.4360281786113327 -0.1402645357137047
0.3741121362953742 0.31983385628908195 -0.1402645357137047
0.552821440739368 0.4339088531447095 -0.1402645357137047
0.4539195856302887 0.5476459865201508 -0.1402645357137047
0.48931334475162275 0.6688263547469689 -0.1402645357137047
0.37183923651957557 0.30263353366141604 -0.1402645357137047
0.6309805258224647 0.45044368709928134 -0.1402645357137047
0.5177450685236635 0.667126799058759 -0.1402645357137047
0.405431057079916 0.6722971341343374 -0.1402645357137047
0.40635250293496955 0.6763412576092945 -0.1402645357137047
0.4896716848063659 0.4587469380820415 -0.1402645357137047
0.5755299619227986 0.2924669143939919 -0.1402645357137047
0.3518848146140274 0.4176606912339323 -0.13893355836751628
0.43269561610222235 0.08845880208513933 -0.13893355836751628
0.5810176839040063 0.4255748873001143 -0.13893355836751628
0.5365016108176421 0.4763567922008423 -0.13893355836751628
0.4345794609614429 0.3109367846441761 -0.1382168782580302
0.561227074594912 0.3105682063021547 -0.1382168782580302
0.6272230743913019 0.3030635417271077 -0.1382168782580302
0.37354903049506377 0.46034411089746763 -0.1382168782580302
0.6247351705826573 0.4852333872711914 -0.1382168782580302
0.3595942449346419 0.35209469950323397 -0.1382168782580302
0.3564613290274598 0.3398906610674139 -0.1382168782580302
0.37865793584697166 0.28515677727723393 -0.1382168782580302
0.4209011091575371 0.2840510422511696 -0.1382168782580302
0.5646364242586102 0.4106781793100821 -0.1382168782580302
0.5586060730516486 0.43338670049351263 -0.1382168782580302
0.43021795058085616 0.4485700805273391 -0.1382168782580302
0.3517824317412436 0.22330728382858503 -0.13688590091184175
0.6484470439193682 0.27724258121105194 -0.13688590091184175
0.5945117465369013 0.41209106295449743 -0.13688590091184175
0.38276348904559904 0.5522634540826968 -0.13616922080235566
0.3753919222051708 0.2827405414795379 -0.13616922080235566
0.6282059499700255 0.46524825050380814 -0.13616922080235566
0.38639808102942136 0.5559594757901892 -0.13616922080235566
0.6128997104888586 0.5582938052896583 -0.13616922080235566
0.4254776235709695 0.17964098858632585 -0.13616922080235566
0.5803214803690769 0.2897947214143367 -0.13616922080235566
0.6137085351838499 0.26117870847128527 -0.13616922080235566
0.5564765092977471 0.44188447893456184 -0.13616922080235566
0.5589848896809484 0.5758422296847889 -0.13616922080235566
0.5456444013572289 0.43400099773021483 -0.13616922080235566
0.4908490878433787 0.6433739725729347 -0.13616922080235566
0.40500104901422435 0.6760955387146135 -0.13616922080235566
0.661930868264985 0.3446719412264139 -0.1348382434561672
0.40571772912371046 0.41209106295449743 -0.1348382434561672
0.47314708913907244 0.06149115339390589 -0.1348382434561672
0.34129842556819 0.39514669750879095 -0.1348382434561672
0.36477481829749847 0.33113692544440526 -0.13412156334668113
0.561913039842563 0.301701849519084 -0.13412156334668113
0.42351187241352206 0.31964956711807124 -0.13412156334668113
0.6379016080226445 0.31544163104666006 -0.13412156334668113
0.35484367963747704 0.3865567744822362 -0.13412156334668113
0.5625273370792654 0.3231510613672746 -0.13412156334668113
0.6123980344122183 0.255813845937418 -0.13412156334668113
0.5565891304578092 0.44192543208367524 -0.13412156334668113
0.4410602968086527 0.43989825120255754 -0.13412156334668113
0.5699500953560854 0.44818102561076095 -0.13412156334668113
0.514407386870914 0.6584037782975856 -0.13412156334668113
0.5872732774310919 0.31770429253518045 -0.13279058600049268
0.40571772912371046 0.36075629054073727 -0.13279058600049268
0.5675338595583894 0.09935233974932786 -0.13279058600049268
0.3382986073956268 0.4020780179962491 -0.13279058600049268
0.3721259085633699 0.2975348665967864 -0.13207390589100662
0.6278168950534474 0.47022405812109724 -0.13207390589100662
0.5770042752908843 0.3156156819303925 -0.13207390589100662
0.5940100704602612 0.2066598287139511 -0.13207390589100662
0.37131708386837853 0.5145865568982856 -0.13207390589100662
0.6230253766071691 0.30717933321301333 -0.13207390589100662
0.503001934842807 0.13257558196764702 -0.13207390589100662
0.45748250960316234 0.47022405812109724 -0.13207390589100662
0.44097839051042576 0.5607714708110246 -0.13207390589100662
0.4471111245901709 0.46733686110859607 -0.13207390589100662
0.5040360018579226 0.641868944343014 -0.13207390589100662
0.3382986073956268 0.385123414263264 -0.13074292854481817
0.47314708913907244 0.0723846910580944 -0.13074292854481817
0.5401054879396294 0.42768397447945905 -0.13074292854481817
0.40571772912371046 0.36075629054073727 -0.13074292854481817
0.3634336026640317 0.3954436078398637 -0.1300262484353321
0.6289942980904603 0.28834088462080787 -0.1300262484353321
0.6372975490732204 0.38951563950568585 -0.1300262484353321
0.37268901436368046 0.27024983099992334 -0.1300262484353321
0.4388795416183594 0.32249581098145885 -0.1300262484353321
0.6469932071258394 0.38990469442226416 -0.1300262484353321
0.3856302094835434 0.25715506157088486 -0.1300262484353321
0.5409552657837343 0.4660468369115212 -0.1300262484353321
0.4536841050228862 0.4419971000946239 -0.1300262484353321
0.5664383628196036 0.4464302784861593 -0.1300262484353321
0.46527384622200385 0.45869574664564966 -0.1300262484353321
0.656760533189407 0.385123414263264 -0.12951433407141347
0.446179440447839 0.31770429253518045 -0.12869527108914366
0.654866450042908 0.3549102285047865 -0.12869527108914366
0.37875008043247704 0.16937198644611812 -0.12869527108914366
0.36414004448623927 0.41564374864009285 -0.12797859097965758
0.5787038309790941 0.1896540335445742 -0.12797859097965758
0.6346458326681218 0.41306370024594297 -0.12797859097965758
0.3840125600935605 0.24116285684206684 -0.12797859097965758
0.42062467540102105 0.29506743936269864 -0.12797859097965758
0.6336629570893983 0.4785887388275276 -0.12797859097965758
0.4319584594181795 0.28647751633614404 -0.12797859097965758
0.45510722695457995 0.4670501890648017 -0.12797859097965758
0.44622039359695254 0.4435430814736581 -0.12797859097965758
0.5718544167898628 0.40672620042063035 -0.12797859097965758
0.4325010886439332 0.45015701505548683 -0.12797859097965758
0.5129535500773852 0.6466604627892922 -0.12797859097965758
0.4449815608362694 0.31770429253518045 -0.12664761363346913
0.661930868264985 0.385123414263264 -0.12664761363346913
0.47314708913907244 0.09105932705384603 -0.12664761363346913
0.36304454774745337 0.40300970213858095 -0.12593093352398305
0.5413852738494259 0.15045163155568556 -0.12593093352398305
0.637748033713469 0.40712549362448675 -0.12593093352398305
0.35277554560724567 0.3821133578034225 -0.12593093352398305
0.5756118682210255 0.31376255193300695 -0.12593093352398305
0.6237522950039335 0.2457598478300561 -0.12593093352398305
0.6158995286614217 0.2558547990865316 -0.12593093352398305
0.5472518124599334 0.5440933008345555 -0.12593093352398305
0.5522788115136144 0.44252949103309935 -0.12593093352398305
0.555923641784715 0.4474848220758316 -0.12593093352398305
0.4237678295954814 0.402733268382065 -0.12593093352398305
0.6583577060048328 0.3622510804833797 -0.12541901916006443
0.4596632647934558 0.07497497773952268 -0.12459995617779461
0.6603951251732291 0.3614013026392747 -0.12459995617779461
0.39223390477809367 0.31607640485791916 -0.12459995617779461
0.36105832001544924 0.3858400943727502 -0.12388327606830853
0.5974091818366808 0.2122192187061075 -0.12388327606830853
0.6386285264194089 0.3884201427669 -0.12388327606830853
0.41481956651418367 0.18870187282768566 -0.12388327606830853
0.38330611827135275 0.29199595317918686 -0.12388327606830853
0.6248887448918329 0.4428059247896153 -0.12388327606830853
0.43153868963976627 0.2828634009268784 -0.12388327606830853
0.5407812149000019 0.5460078605556113 -0.12388327606830853
0.4377226151559033 0.5607714708110246 -0.12388327606830853
0.44378368122469986 0.5554475614262708 -0.12388327606830853
0.4408555310630853 0.5842171486784978 -0.12388327606830853
0.6603234571622805 0.3581557655720307 -0.12337136170438989
0.6079955708825181 0.3446719412264139 -0.12255229872212009
0.6484470439193682 0.19633963513735156 -0.12255229872212009
0.3382986073956268 0.26538664454269645 -0.12255229872212009
0.3563691844419544 0.37992236432585075 -0.12183561861263402
0.6300181268182974 0.29104379246229817 -0.12183561861263402
0.570349388559942 0.3095239009997608 -0.12183561861263402
0.6231072829053961 0.2501930262215915 -0.12183561861263402
0.34997025489297157 0.3532106728165767 -0.12183561861263402
0.5814476919696979 0.31209371110663225 -0.12183561861263402
0.5821746103664623 0.2797509615942533 -0.12183561861263402
0.5418255202023959 0.47030596441932415 -0.12183561861263402
0.449916415304445 0.5508300938637248 -0.12183561861263402
0.4463022998951795 0.546192149726622 -0.12183561861263402
0.501957629540413 0.6689594524815878 -0.12183561861263402
0.3392610063997939 0.3581557655720307 -0.12050464126644557
0.43269561610222235 0.08845880208513933 -0.12050464126644557
0.5875906643367215 0.31770429253518045 -0.12050464126644557
0.446179440447839 0.3446719412264139 -0.12050464126644557
0.3540143783679289 0.35860625021227904 -0.11978796115695949
0.5815295982679248 0.1869920788521974 -0.11978796115695949
0.577137373025503 0.3188509807103581 -0.11978796115695949
0.6333558084710471 0.2758501741411933 -0.11978796115695949
0.3570551496896055 0.29674651847635175 -0.11978796115695949
0.560981355700231 0.29725843284027037 -0.11978796115695949
0.3855585414725949 0.2778875933095894 -0.11978796115695949
0.4567043997700061 0.47175980121285305 -0.11978796115695949
0.4397805108988561 0.5607714708110246 -0.11978796115695949
0.442166031834717 0.5562051946848702 -0.11978796115695949
0.4680586603617213 0.5570140193798617 -0.11978796115695949
0.4428519970823679 0.3279937712499449 -0.11845698381077105
0.5818469851735545 0.3986072386088808 -0.11845698381077105
0.5945117465369013 0.128920513409268 -0.11845698381077105
0.3382986073956268 0.3277173374934288 -0.11845698381077105
0.6415873914428587 0.3863315321621121 -0.11774030370128497
0.5742399377257236 0.2829964986614973 -0.11774030370128497
0.37052873574794387 0.2948319587552961 -0.11774030370128497
0.6321067374230855 0.30520334376828745 -0.11774030370128497
0.5043738653381089 0.11046088144636208 -0.11774030370128497
0.5681174419332568 0.1744399386489126 -0.11774030370128497
0.6237727715784903 0.27895237518654015 -0.11774030370128497
0.5469344255543038 0.46398894116856826 -0.11774030370128497
0.4390535925020917 0.40608118832209283 -0.11774030370128497
0.5596708549285992 0.5527446535847803 -0.11774030370128497
0.3429160749581729 0.31770429253518045 -0.11722838933736633
0.463052137882597 0.47620321789166675 -0.11640932635509653
0.6484470439193682 0.23517345878421894 -0.11640932635509653
0.36526625608686025 0.23679110817420168 -0.11640932635509653
0.3592256665926205 0.3270416105330563 -0.11569264624561043
0.6184693387682932 0.244244581312857 -0.11569264624561043
0.5638173612763402 0.3051419140446172 -0.11569264624561043
0.6418126337629828 0.30384165156026394 -0.11569264624561043
0.36879846519789894 0.2544623920166729 -0.11569264624561043
0.5688341220427429 0.28705086042373285 -0.11569264624561043
0.44421368929039157 0.2966850887526815 -0.11569264624561043
0.5528828704630383 0.4428161630768937 -0.11569264624561043
0.5485418366570084 0.5503181794998061 -0.11569264624561043
0.4463022998951795 0.43432862292312285 -0.11569264624561043
0.3382986073956268 0.32513728909927897 -0.11518073188169181
0.6079955708825181 0.3042204681895638 -0.11436166889942201
0.446179440447839 0.385123414263264 -0.11436166889942201
0.4596632647934558 0.11542645077637279 -0.11436166889942201
0.36272716084182394 0.3024287679158485 -0.11364498878993592
0.5720489442481518 0.28610893799412257 -0.11364498878993592
0.5638787910000105 0.30497810144816334 -0.11364498878993592
0.6494094429235352 0.330717155665992 -0.11364498878993592
0.37427594889182825 0.2397602114849298 -0.11364498878993592
0.4455753814984151 0.16378188159212662 -0.11364498878993592
0.5791850304811775 0.27235891817926816 -0.11364498878993592
0.5502721072070533 0.45270634858780173 -0.11364498878993592
0.4437120132137512 0.4427649716405019 -0.11364498878993592
0.5590667959791753 0.4512013203578809 -0.11364498878993592
0.5135985621759226 0.07757550270822937 -0.11231401144374747
0.446179440447839 0.33118811688079725 -0.11231401144374747
0.5551967233879505 0.32515776567383564 -0.11231401144374747
0.5409655040710125 0.4700090540882514 -0.1115973313342614
0.5472313358853766 0.5514443911004272 -0.1115973313342614
0.4461999170223957 0.4344310057959065 -0.1115973313342614
0.3568708605185948 0.3497910848656002 -0.1115973313342614
0.46640005782262484 0.1353911109691994 -0.1115973313342614
0.6428978922144902 0.3385494454339471 -0.1115973313342614
0.5060836593135971 0.11154613989786967 -0.1115973313342614
0.34982691887107437 0.3841098238227052 -0.1115973313342614
0.5793181282157964 0.31046582342937107 -0.1115973313342614
0.38439137672286033 0.2721029609973089 -0.1115973313342614
0.41921179175660556 0.14499462443631292 -0.11026635398807297
0.4344258866522673 0.4660365986242428 -0.11026635398807297
0.6120396943574753 0.19633963513735156 -0.11026635398807297
0.5635921189562161 0.43336622391895574 -0.10954967387858687
0.42753551931392253 0.40690025130436264 -0.10954967387858687
0.42712598782278755 0.4159611355457223 -0.10954967387858687
0.35964543637103374 0.3126465786196644 -0.10954967387858687
0.42888697323466773 0.29846655073911826 -0.10954967387858687
0.37389713226252835 0.2816757596025872 -0.10954967387858687
0.579195268768456 0.27874760944097277 -0.10954967387858687
0.5939691173111477 0.1828865256535699 -0.10954967387858687
0.5136395153250362 0.12814240357611162 -0.10954967387858687
0.5675338595583894 0.08845880208513933 -0.10821869653239845
0.446179440447839 0.3955152758508122 -0.10821869653239845
0.6079955708825181 0.2937057471546751 -0.10821869653239845
0.4440294001193808 0.44356355804821496 -0.10750201642291236
0.4486571059692052 0.5456085673517546 -0.10750201642291236
0.5698579507705801 0.4500648704699815 -0.10750201642291236
0.3527653073199674 0.35100944105172655 -0.10750201642291236
0.6237625332912119 0.2740994270165915 -0.10750201642291236
0.42270304771853057 0.31755071822600484 -0.10750201642291236
0.6496551618182161 0.3637458704260221 -0.10750201642291236
0.5435660290397193 0.1299136272752701 -0.10750201642291236
0.6208036682677622 0.2509608977674694 -0.10750201642291236
0.5405662108671561 0.31770429253518045 -0.10617103907672391
0.4154645786127212 0.32842377931563654 -0.10617103907672391
0.6079955708825181 0.3446719412264139 -0.10617103907672391
0.45655082546083053 0.5438987733762664 -0.10545435896723783
0.44845234022363767 0.5508403321510029 -0.10545435896723783
0.4232661535188411 0.4032656593205403 -0.10545435896723783
0.3523864906906675 0.34430336288439245 -0.10545435896723783
0.6242949242296874 0.2727786879576814 -0.10545435896723783
0.3615190429429759 0.32343773341106913 -0.10545435896723783
0.5796150385468692 0.31023034282196843 -0.10545435896723783
0.6565762440183962 0.31774524568429396 -0.10545435896723783
0.6110568187787515 0.22832404459498754 -0.10545435896723783
0.37875008043247704 0.16937198644611812 -0.10412338162104941
0.4630418995953188 0.4795204229698596 -0.10412338162104941
0.6079955708825181 0.15328763713179477 -0.10412338162104941
0.563561404094381 0.4352603070654547 -0.10340670151156331
0.44194078951459276 0.43699057761549964 -0.10340670151156331
0.44115244139415805 0.40234421346548677 -0.10340670151156331
0.403229825315066 0.1973737021524672 -0.10340670151156331
0.6368368261456938 0.2874706302021461 -0.10340670151156331
0.5784069206480213 0.16626978540077125 -0.10340670151156331
0.39069816168633786 0.20191950170406464 -0.10340670151156331
0.5792055070557343 0.17836120267652927 -0.10340670151156331
0.38443232987197373 0.25849627720435164 -0.10340670151156331
0.37875008043247704 0.16937198644611812 -0.10207572416537487
0.43415969118302966 0.4795204229698596 -0.10207572416537487
0.6349632195737515 0.1828558107917349 -0.10207572416537487
0.5409552657837343 0.46198223686200723 -0.1013590440558888
0.4288767349473893 0.4119886800817138 -0.1013590440558888
0.4269212220772201 0.41617613957856814 -0.1013590440558888
0.3909950720174106 0.21583333411537298 -0.1013590440558888
0.6365194392400643 0.2841739016985101 -0.1013590440558888
0.5707896349129121 0.15673793994460636 -0.1013590440558888
0.4042638923301816 0.1808593447724522 -0.1013590440558888
0.5978494281896509 0.26061560267097483 -0.1013590440558888
0.4368933138863551 0.22929668188643293 -0.1013590440558888
0.6147221256244089 0.24769488412566862 -0.1013590440558888
0.5945117465369013 0.128920513409268 -0.10002806670970035
0.5866077887579977 0.290736643843947 -0.10002806670970035
0.4279962422414493 0.4566378509026968 -0.10002806670970035
0.5636637869671646 0.4353626899382385 -0.09931138660021427
0.4418384066418091 0.43709296048828344 -0.09931138660021427
0.4410602968086527 0.40245683462554893 -0.09931138660021427
0.532652014800974 0.12705714512460417 -0.09931138660021427
0.4222320865037255 0.3127080083433346 -0.09931138660021427
0.582962958486897 0.2705774561928314 -0.09931138660021427
0.6073198439221456 0.19561271674058714 -0.09931138660021427
0.574690422365972 0.2663490435468634 -0.09931138660021427
0.6102070409346466 0.22252917399542876 -0.09931138660021427
0.41205522894902313 0.31770429253518045 -0.09798040925402585
0.5079060744491474 0.4284723225998937 -0.09798040925402585
0.5270823865215394 0.10194262643075613 -0.09798040925402585
0.44857519967097814 0.46234057691675023 -0.09726372914453975
0.5487363641152974 0.5500826988924036 -0.09726372914453975
0.5764309312032952 0.4102788861062256 -0.09726372914453975
0.3518131466030787 0.3220453263412105 -0.09726372914453975
0.6294959741671006 0.26972767834872646 -0.09726372914453975
0.3559596529508196 0.2936443174310049 -0.09726372914453975
0.4186486859562951 0.3209088764533111 -0.09726372914453975
0.631041955546135 0.2927228715759513 -0.09726372914453975
0.4161403055730938 0.23756921800735806 -0.09726372914453975
0.6082822429263125 0.25222020710270926 -0.09726372914453975
0.40571772912371046 0.37163958991764734 -0.09593275179835131
0.5945117465369013 0.4525425359913477 -0.09593275179835131
0.43269561610222235 0.08845880208513933 -0.09593275179835131
0.5428698255047899 0.47194409038386376 -0.09521607168886523
0.4475616092304194 0.5547820727531766 -0.09521607168886523
0.423593778711749 0.4145789667631421 -0.09521607168886523
0.493193655630126 0.618402789900984 -0.09521607168886523
0.42015371418621583 0.1703139088757284 -0.09521607168886523
0.6372975490732204 0.2816348064534738 -0.09521607168886523
0.5088684734533145 0.10410290504649274 -0.09521607168886523
0.3644983845409824 0.314919478395463 -0.09521607168886523
0.5637252166908349 0.3200898134710413 -0.09521607168886523
0.5386618894333788 0.23097576100008604 -0.09521607168886523
0.43183559997083903 0.22669615691772638 -0.09521607168886523
0.44442869332323737 0.3234684482729043 -0.09388509434267679
0.5540500352127729 0.3581557655720307 -0.09388509434267679
0.5810176839040063 0.10194262643075613 -0.09388509434267679
0.44857519967097814 0.46239176835314216 -0.09316841423319071
0.5441291348400298 0.5534613336942663 -0.09316841423319071
0.5539886054891026 0.43514768590539266 -0.09316841423319071
0.46601100290604675 0.6145634321715943 -0.09316841423319071
0.5430438763885223 0.6193959037669862 -0.09316841423319071
0.5443134240110404 0.5663308608031807 -0.09316841423319071
0.6079341411588479 0.20841057583855288 -0.09316841423319071
0.5666431285651712 0.3161275962943111 -0.09316841423319071
0.5957198644357493 0.18229270499142436 -0.09316841423319071
0.34367370821677246 0.3084079276864181 -0.09316841423319071
0.5693357981193831 0.2875525365003732 -0.09316841423319071
0.5814476919696979 0.23127267133115897 -0.09316841423319071
0.47157039289820313 0.2722872501683196 -0.09316841423319071
0.41921179175660556 0.4390587116457309 -0.09183743688700226
0.463052137882597 0.31262610204510766 -0.09183743688700226
0.5954024775301198 0.27271725823401116 -0.09183743688700226
0.4715908694727598 0.10194262643075613 -0.09183743688700226
0.6301512245529164 0.25474906406046727 -0.09112075677751619
0.34758473395711087 0.31950623109617404 -0.09112075677751619
0.3436020402058238 0.32269033843974787 -0.09112075677751619
0.40944446569303816 0.18707398515042434 -0.09112075677751619
0.42703384323728216 0.2720620078481954 -0.09112075677751619
0.4309755838394557 0.2874706302021461 -0.09112075677751619
0.5632440171887514 0.43762535142675874 -0.09112075677751619
0.44568800265847713 0.43893585219839043 -0.09112075677751619
0.4408555310630853 0.4026718386583948 -0.09112075677751619
0.4656731394258604 0.5686856668772067 -0.09112075677751619
0.487890222819929 0.6195085249270482 -0.09112075677751619
0.46835557069279404 0.31770429253518045 -0.09060884241359755
0.4128640536440145 0.2792083323684994 -0.08978977943132775
0.5811303050640684 0.3977984139138894 -0.08978977943132775
0.661930868264985 0.27724258121105194 -0.08978977943132775
0.36526625608686025 0.1828558107917349 -0.08978977943132775
0.37529977761966543 0.2482170367768655 -0.08907309932184167
0.38883479340167404 0.20440740551270914 -0.08907309932184167
0.3914148417958239 0.19268456657897254 -0.08907309932184167
0.38762667550282615 0.230504799785281 -0.08907309932184167
0.4243002205339567 0.3094010415524203 -0.08907309932184167
0.5468320426815202 0.4719543286711422 -0.08907309932184167
0.5632952086251434 0.4376765428631507 -0.08907309932184167
0.555125055377002 0.4533718372608959 -0.08907309932184167
0.5437912713598435 0.45515329924733267 -0.08907309932184167
0.4519128813237277 0.6057789816867505 -0.08907309932184167
0.5469446638415822 0.5608533771092514 -0.08907309932184167
0.41921179175660556 0.4208652751520629 -0.08774212197565323
0.534955629438608 0.3161787877307029 -0.08774212197565323
0.6007059103403168 0.2637587568654351 -0.08774212197565323
0.45074571657399315 0.11542645077637279 -0.08774212197565323
0.6255030421285352 0.24347670976697905 -0.08702544186616715
0.3729040183965263 0.25849627720435164 -0.08702544186616715
0.37448071463739563 0.2656835548737692 -0.08702544186616715
0.37352855392050693 0.26871408790816753 -0.08702544186616715
0.4716830140582652 0.29761677289501337 -0.08702544186616715
0.42070658169924796 0.30692337603105413 -0.08702544186616715
0.5641449864692483 0.433949806293823 -0.08702544186616715
0.43985217890980477 0.43447195894502005 -0.08702544186616715
0.42578477218932076 0.41510111941433914 -0.08702544186616715
0.5560567395193339 0.5621024481572131 -0.08702544186616715
0.44065076531751773 0.5830090307796499 -0.08702544186616715
0.592054557590092 0.15588816210050147 -0.0856944645199787
0.5795228939613639 0.25222020710270926 -0.0856944645199787
0.4033526847624065 0.2597555865395915 -0.0856944645199787
0.578427397222578 0.4390587116457309 -0.0856944645199787
0.622912755447107 0.23560346684991046 -0.08497778441049261
0.3687370354742287 0.26931814685759153 -0.08497778441049261
0.37001682138402525 0.27922880894305624 -0.08497778441049261
0.4052570061961837 0.1973839404397456 -0.08497778441049261
0.42863101605270837 0.3085717402828721 -0.08497778441049261
0.5616468443733253 0.2945145718496665 -0.08497778441049261
0.5729191986668136 0.40785241202125133 -0.08497778441049261
0.4383266741053273 0.5892953391685705 -0.08497778441049261
0.5574696231637493 0.5818828191790288 -0.08497778441049261
0.40571772912371046 0.11542645077637279 -0.08364680706430419
0.4245766542904728 0.45510210781094085 -0.08364680706430419
0.5902628573163768 0.25692981925076075 -0.08364680706430419
0.3902272004715327 0.24850370882066 -0.08364680706430419
0.6007059103403168 0.25012135821064285 -0.08364680706430419
0.3922236664908154 0.21897648830983338 -0.0829301269548181
0.37386641740069326 0.2414290523113045 -0.0829301269548181
0.604309787462304 0.22203773620606687 -0.0829301269548181
0.6103196620947087 0.23156958166223174 -0.0829301269548181
0.5339010858489355 0.29742224543672435 -0.0829301269548181
0.43744618139938724 0.3187895509866879 -0.0829301269548181
0.5656295381246123 0.4143127712939044 -0.0829301269548181
0.4422172232711088 0.5912406137514615 -0.0829301269548181
0.5555141102935801 0.5881384127061143 -0.0829301269548181
0.48580161221514107 0.08845880208513933 -0.08159914960862967
0.44406011498121595 0.32250604926873716 -0.08159914960862967
0.5212875159219804 0.47275291507885525 -0.08159914960862967
0.5561488841048392 0.3227415298761398 -0.08159914960862967
0.4365861652680039 0.2461898558957478 -0.08159914960862967
0.547763726823852 0.23849066386241163 -0.08159914960862967
0.5974398966985159 0.185855628964298 -0.08088246949914359
0.6426624116070877 0.29349074312182927 -0.08088246949914359
0.6309907641097429 0.23966806689942444 -0.08088246949914359
0.6223803645086315 0.21164587461851866 -0.08088246949914359
0.43428255063036997 0.15248905072408167 -0.08088246949914359
0.5360716027519505 0.30530572664107125 -0.08088246949914359
0.5640426035964645 0.4398368214788873 -0.08088246949914359
0.4611990078852116 0.6068130487018661 -0.08088246949914359
0.5338601326998221 0.5765691480815534 -0.08088246949914359
0.5287102741988007 0.5702214099689623 -0.08088246949914359
0.6295369273162139 0.2098234594829682 -0.07955149215295515
0.4184746350725627 0.39771650761566235 -0.07955149215295515
0.5212875159219804 0.23953496916480554 -0.07955149215295515
0.4736487652157128 0.23619728751205613 -0.07955149215295515
0.5540500352127729 0.37163958991764734 -0.07955149215295515
0.6116404011536187 0.2077860403145721 -0.07883481204346907
0.38652094047676183 0.2143692590345657 -0.07883481204346907
0.598320389404456 0.2084617672749447 -0.07883481204346907
0.6217967821337644 0.24957872898488914 -0.07883481204346907
0.5616673209478821 0.297166288254765 -0.07883481204346907
0.5808743478821091 0.2640454289092296 -0.07883481204346907
0.5591794171392376 0.44368641749555543 -0.07883481204346907
0.47203111582572993 0.5837871406128062 -0.07883481204346907
0.476515485653657 0.5761186634413051 -0.07883481204346907
0.516219563719186 0.5889062842519925 -0.07883481204346907
0.41144093171232077 0.31607640485791916 -0.0775038346972806
0.5212875159219804 0.22947073277016536 -0.0775038346972806
0.4895283487844686 0.23622800237389124 -0.0775038346972806
0.5701139079525395 0.128920513409268 -0.0775038346972806
0.4512473926506335 0.13032315876640507 -0.07678715458779452
0.6407068987369186 0.28184981048631963 -0.07678715458779452
0.6065314958017108 0.19044238166500901 -0.07678715458779452
0.5592306085756293 0.12822430987433855 -0.07678715458779452
0.5529340618994303 0.16550191385489327 -0.07678715458779452
0.4385826312872865 0.30081111852586556 -0.07678715458779452
0.4355213833910532 0.4388129927510501 -0.07678715458779452
0.42921459842757564 0.45082250372858107 -0.07678715458779452
0.43437469521587535 0.5889062842519925 -0.07678715458779452
0.5338601326998221 0.5765691480815534 -0.07678715458779452
0.5505280643890127 0.5841659572421061 -0.07678715458779452
0.6214793952281348 0.16677146147741143 -0.0754561772416061
0.39223390477809367 0.3446719412264139 -0.0754561772416061
0.41195284607623933 0.2637587568654351 -0.0754561772416061
0.5901092830072012 0.2249044566440112 -0.0754561772416061
0.4319994125672929 0.14786134487425728 -0.07473949713212001
0.6428159859162632 0.3085615019955937 -0.07473949713212001
0.6384749521102334 0.2572574444436686 -0.07473949713212001
0.6038285879602204 0.1784123941129211 -0.07473949713212001
0.434610175823278 0.15282691420426797 -0.07473949713212001
0.4198158507060295 0.3072305246494053 -0.07473949713212001
0.5611349300094066 0.44079922048305425 -0.07473949713212001
0.44044599957195035 0.40310184672408633 -0.07473949713212001
0.4593356396005478 0.5786475203990631 -0.07473949713212001
0.5199770151503488 0.5912406137514615 -0.07473949713212001
0.5391533272227407 0.5787089501227333 -0.07473949713212001
0.43269561610222235 0.08845880208513933 -0.07340851978593158
0.6079955708825181 0.25027493251981847 -0.07340851978593158
0.5017426255075672 0.31398779425313117 -0.07340851978593158
0.568701024308124 0.147113949902936 -0.07269183967644549
0.41577172723107236 0.18704327028858922 -0.07269183967644549
0.6031835758616829 0.20829795467849083 -0.07269183967644549
0.6346048795190085 0.2895592408069342 -0.07269183967644549
0.4671269762193894 0.3041897533277287 -0.07269183967644549
0.5405047811434858 0.3123701448631483 -0.07269183967644549
0.5662540736485929 0.41238797328557036 -0.07269183967644549
0.44297485652970836 0.5958273664521723 -0.07269183967644549
0.4705875173194793 0.5937182792728276 -0.07269183967644549
0.5493097082028864 0.5737126659308874 -0.07269183967644549
0.533829417837987 0.5973528712566498 -0.07269183967644549
0.5578279632184923 0.11542645077637279 -0.07136086233025707
0.41441003502304885 0.3256799183250327 -0.07136086233025707
0.5040769550070361 0.31770429253518045 -0.07136086233025707
0.5330513080048306 0.11461762608138142 -0.07064418222077098
0.5794819408122504 0.1804293367067605 -0.07064418222077098
0.6211108168861134 0.2439067178326707 -0.07064418222077098
0.6565967205929528 0.3091246077959043 -0.07064418222077098
0.4384085804035542 0.29625508068698986 -0.07064418222077098
0.475440465489428 0.30693361431833255 -0.07064418222077098
0.5545209964275779 0.4438092769428959 -0.07064418222077098
0.4544417382814857 0.5760265188557997 -0.07064418222077098
0.4628985635734214 0.598427891420879 -0.07064418222077098
0.5202534489068649 0.5918549109881637 -0.07064418222077098
0.5361432707628991 0.5937694707092194 -0.07064418222077098
0.6349632195737515 0.16937198644611812 -0.06931320487458255
0.40571772912371046 0.36075629054073727 -0.06931320487458255
0.4827301260316293 0.31345540331465577 -0.06931320487458255
0.5840789318002396 0.17218751544767064 -0.06859652476509646
0.35861136935591814 0.3036164092401397 -0.06859652476509646
0.38485209965038714 0.23002360028319752 -0.06859652476509646
0.43428255063036997 0.14775896200147348 -0.06859652476509646
0.5789597881610533 0.31062963602582494 -0.06859652476509646
0.5554936337190234 0.27370013381273495 -0.06859652476509646
0.42938864931130794 0.41437420101757466 -0.06859652476509646
0.4649974124654878 0.5684297096952473 -0.06859652476509646
0.5299183920976486 0.6034548904745599 -0.06859652476509646
0.5322220067352824 0.5809101818875835 -0.06859652476509646
0.5270823865215394 0.06149115339390589 -0.067265547418908
0.587826144944124 0.26085108327837736 -0.067265547418908
0.5540500352127729 0.385123414263264 -0.067265547418908
0.5553912508462396 0.13184866357088243 -0.06654886730942192
0.43061724378471267 0.16646431285906024 -0.06654886730942192
0.5953308095191712 0.19253099226979695 -0.06654886730942192
0.6320043545503019 0.2755839786719555 -0.06654886730942192
0.5722025185573274 0.3074250521076943 -0.06654886730942192
0.41957013181134856 0.3065855125508678 -0.06654886730942192
0.5586879793498757 0.4381986955143477 -0.06654886730942192
0.5405662108671561 0.4255748873001143 -0.06521788996323348
0.4115228380105477 0.2637587568654351 -0.06521788996323348
0.5464839409140554 0.1040209987482658 -0.06521788996323348
0.4292248367148539 0.125982124960375 -0.06521788996323348
0.4784709985238262 0.1048912531669274 -0.0645012098537474
0.5900273767089741 0.17761380770520813 -0.0645012098537474
0.6229332320216636 0.2461898558957478 -0.0645012098537474
0.6476791723734904 0.270321499010872 -0.0645012098537474
0.42626597169140434 0.2699733972434073 -0.0645012098537474
0.4544826914305993 0.30434332763690425 -0.0645012098537474
0.4279655273796142 0.4129510790858808 -0.0645012098537474
0.4570729781120275 0.10194262643075613 -0.06398929548982876
0.446179440447839 0.385123414263264 -0.06317023250755897
0.6175683694877964 0.1828558107917349 -0.06317023250755897
0.4650281273273229 0.08845880208513933 -0.06317023250755897
0.4966132435811025 0.09288174218939632 -0.06245355239807288
0.5873961368784325 0.17308848472816737 -0.06245355239807288
0.613073761372591 0.22246774427175853 -0.06245355239807288
0.6390175813359872 0.30384165156026394 -0.06245355239807288
0.5723253780046679 0.30710766520206484 -0.06245355239807288
0.41758390407934426 0.31816501546270726 -0.06245355239807288
0.44093743736131225 0.4380655977797288 -0.06245355239807288
0.5207653632707834 0.31607640485791916 -0.06194163803415425
0.41442027331032716 0.257707929083917 -0.06194163803415425
0.5446512874912267 0.10194262643075613 -0.06194163803415425
0.3566251416239138 0.28783920854416756 -0.06040589494239837
0.4442239275776698 0.1277328720849768 -0.06040589494239837
0.4097413760241109 0.16251233396960846 -0.06040589494239837
0.344073001420629 0.30176327924275426 -0.06040589494239837
0.5491561338937108 0.1264223713133451 -0.06040589494239837
0.4218635081617041 0.2655811720009856 -0.06040589494239837
0.430545575773764 0.2945657632860583 -0.06040589494239837
0.5723458545792247 0.4129101259367674 -0.06040589494239837
0.5945117465369013 0.41209106295449743 -0.059893980578479736
0.6079955708825181 0.290736643843947 -0.059893980578479736
0.5572955722800169 0.10194262643075613 -0.059893980578479736
0.3888655082635092 0.20079329010344368 -0.058358237486723856
