0.030592051092630322 0.2680268727261984 -0.49999502121777833
0.48184383908616274 0.15771884977198536 -0.49847227103895153
0.04061936102020472 0.17777346962713425 -0.49847227103895153
0.314775303216181 0.14991475510549798 -0.4979393084763621
0.3815631260595242 0.2880814925813473 -0.4969495208601247
0.34462120672118624 0.1084654952378327 -0.4964165582975354
0.22139264849962778 0.4184441353907091 -0.4954267706812979
0.22508531768328277 0.3739189201618138 -0.4948938081187086
0.3414538863492264 0.5086975384897734 -0.49390402050247106
0.22393564129826857 0.3732641375849181 -0.4933710579398818
0.3578919745296617 0.13766422991683644 -0.49238127032364437
0.2398483806670085 0.41316019227018025 -0.4918483077610549
0.05064667094777922 0.17777346962713425 -0.49085852014481757
0.1208378404408003 0.23673435655130776 -0.49085852014481757
0.030592051092630322 0.2579995627986239 -0.48933576996599076
0.20676663303199638 0.37833489568041156 -0.48933576996599076
0.4116526695931417 0.3181710361149648 -0.4878130197871639
0.25730671146725775 0.3672645018803407 -0.4878130197871639
0.1208378404408003 0.23673435655130776 -0.48629026960833716
0.3213992664940775 -0.012753032747674389 -0.48629026960833716
0.23114586339501336 0.07750037035138976 -0.48476751942951035
0.3053342521074548 0.4986702285621989 -0.48476751942951035
0.32225962034511463 0.11532548479344738 -0.48423455686692096
0.3715358161319497 0.37833489568041156 -0.4832447692506836
0.3356826631714729 0.14137974035317383 -0.4827118066880942
0.3514811962768009 0.2900153853084574 -0.48172201907185674
0.3395123798712223 0.14459274323049834 -0.4811890565092674
0.3615085062043753 0.4585609888519011 -0.48019926889302994
0.23623946274318908 0.35861528086460454 -0.4796663063304406
0.23114586339501336 -0.012753032747674389 -0.4786765187142032
0.2180045293517381 0.3917046422505106 -0.4781435561516138
0.3514811962768009 0.015402618058833004 -0.4771537685353764
0.2380819904595694 0.4067570277682135 -0.476620805972787
0.24763724783170762 0.3181710361149648 -0.4756310183565496
0.45176190930343946 0.39838951553556035 -0.4756310183565496
0.32644718333688844 0.11195259314734606 -0.47509805579396025
0.3514811962768009 0.06939933940003126 -0.4741082681777228
0.3354390231428606 0.11380273461462057 -0.4735753056151334
0.4016177459146732 0.13766422991683644 -0.472585517998896
0.24775145409511964 0.3612496386739747 -0.47205255543630664
0.05064667094777922 0.07750037035138976 -0.47106276782006923
0.22097389220045036 0.38112914225855865 -0.47052980525747984
0.18100931375714116 0.4184441353907091 -0.46954001764124237
0.3615085062043753 0.35828027582526256 -0.46954001764124237
0.5119257688688863 0.15771884977198536 -0.4680172674624156
0.3213992664940775 -0.004659615547209954 -0.4680172674624156
0.23467103005899745 0.3306575875813445 -0.46748430489982623
0.45176190930343946 0.0474108268177723 -0.4664945172835888
0.22290017117666627 0.33900225856131533 -0.4659615547209994
0.04061936102020472 0.09755499020653866 -0.464971767104762
0.010529817486587255 0.36830758575283706 -0.464971767104762
0.23976462940717305 0.3084406624722615 -0.46405811699746596
0.3514811962768009 0.1444633094652981 -0.4634490169259352
0.3204627751340991 0.14435671695278027 -0.4629160543633459
0.09075591065807702 0.07750037035138976 -0.46192626674710846
0.258859916649661 0.32742174345133757 -0.461393304184519
0.3815631260595242 0.33822565597011367 -0.46040351656828166
0.3615085062043753 0.37833489568041156 -0.46040351656828166
0.3464561206866725 0.12002316909512797 -0.45987055400569227
0.24117317332258786 0.2680268727261984 -0.45888076638945485
0.24944170679361735 0.32519091443935627 -0.45834780382686546
0.45176190930343946 0.4103507181902448 -0.45735801621062805
0.2367039015477312 0.396836310353157 -0.4568250536480387
0.44173459937586496 0.37833489568041156 -0.45644436610333194
0.22911299190627962 0.29569524347548126 -0.45644436610333194
0.32833539355863356 0.15038680766093437 -0.45530230346921186
0.18100931375714116 0.37833489568041156 -0.4549216159245052
0.21316218378306895 0.32772629348710286 -0.45377955329038505
0.17098200382956666 0.27685121001249974 -0.4533988657456784
0.23009516577162292 0.3952298089144948 -0.4522568031115583
0.4317072894482907 0.42847144531828363 -0.4518761155668516
0.3815631260595242 0.2680268727261984 -0.4518761155668516
0.3076640598810599 0.14354204560710793 -0.4507340529327315
0.07070129080292811 -0.04283496253039768 -0.4495234665405642
0.20838836197244698 0.2900762953156104 -0.4492113027539047
0.22526043395384782 0.3017938579416826 -0.4476885525750779
0.4116526695931417 0.3269877596503719 -0.4471708175142768
0.22701159665949866 0.39697335786925136 -0.4461658023962511
0.13086515036837482 0.33822565597011367 -0.44481816848798944
0.05064667094777922 0.33822565597011367 -0.44481816848798944
0.26580365746511125 0.3385682747603497 -0.4431203020385975
0.21109124353986444 0.07750037035138976 -0.442465519461702
0.4216799795207162 0.025429927986407506 -0.442465519461702
0.3190922999731549 0.08757336278432908 -0.44159755185977073
0.17497160929809288 0.16774615969955975 -0.44007480168094393
0.29823823627412205 0.11480774973264629 -0.44007480168094393
0.3045652632671473 0.08689573895475104 -0.4385520515021171
0.4216799795207162 0.40841682546313485 -0.43775260765823304
0.31049637521367773 0.14865848620796593 -0.4370293013232903
0.19932799840842755 0.2751990260684726 -0.4355065511444635
0.2182481693803505 0.39493287262962345 -0.4355065511444635
0.20244963627502247 0.3501868586247982 -0.43398380096563677
0.2972408349069905 0.2981088025089217 -0.43304730960565824
0.2530582384683309 0.395465835192213 -0.43246105078680996
0.21435754267344795 0.283406649532349 -0.43093830060798316
0.2290673094009148 0.4038638024284426 -0.4306946605793709
0.19150867624015194 0.33613187447422677 -0.42941555042915636
0.27125510310531115 0.4886429186346246 -0.4283420115530835
0.1985209408136493 0.2884545663751598 -0.42789280025032955
0.2073224368472682 0.2778409976287371 -0.4263700500715028
0.05064667094777922 -0.0027257228200999947 -0.42598936252679603
0.09075591065807702 0.07750037035138976 -0.42598936252679603
0.3915904359870987 0.42847144531828363 -0.42538026245526533
0.22899117189197343 0.28474666968971657 -0.424847299892676
0.3514811962768009 0.4705145777556916 -0.4238575122764386
0.2600324342873577 0.3115851415915389 -0.42332454971384914
0.24117317332258786 0.260786195625877 -0.4229438621691425
0.1509197702235237 0.17777346962713425 -0.4223347620976118
0.2150503940048142 0.2766151837347815 -0.4218017995350224
0.4116526695931417 0.4385063689967523 -0.420812011918785
0.23722925035942644 0.38810333807758535 -0.4202790493561956
0.19252130510907173 0.2579995627986239 -0.4198983618114889
0.331426576421652 0.4886429186346246 -0.4192892617399581
0.1956733979792432 0.2848380347004462 -0.41875629917736884
0.20433023274587356 0.2535074497710849 -0.41776651156113137
0.18100931375714116 0.0173288970350489 -0.41776651156113137
0.26300179713606997 0.335515160651802 -0.417233548998542
0.45176190930343946 0.4184441353907091 -0.4162437613823046
0.2544820098855341 0.3771319230391383 -0.4157107988197152
0.301253281628199 0.078079015419344 -0.4157107988197152
0.36421900152268705 0.07750037035138976 -0.4147210112034778
0.1931151776788142 0.343989265396973 -0.41418804864088843
0.2082665419581408 0.2379449429434751 -0.41380736109618166
0.19103662368471555 0.15771884977198536 -0.41319826102465096
0.2075127806196215 0.35476272291217276 -0.4126652984620616
0.3263786595788412 0.16774615969955975 -0.41167551084582416
0.4317072894482907 0.34825296589768806 -0.41167551084582416
0.18702417696350707 0.2824168619161116 -0.4111425482832348
0.310625808978878 0.1627058566076431 -0.4101527606669974
0.46178921923101396 0.36830758575283706 -0.4101527606669974
0.23652117152627197 0.2678593702065274 -0.409619798104408
0.17750698834583958 0.2510177532287031 -0.40923911055970136
0.3213992664940775 -0.012753032747674389 -0.40863001048817066
0.1943638328254522 0.25329426474604916 -0.4080970479255812
0.3013446466389286 0.15383583681597698 -0.40771636038087455
0.06067398087535361 0.14769153984441086 -0.4071072603093438
0.17420262045778534 0.26320736841021164 -0.40657429774675446
0.3411950188188259 0.15635598836193534 -0.40657429774675446
0.4116526695931417 0.3269877596503719 -0.405584510130517
0.2321737197657215 0.2544058723765927 -0.4050515475679276
0.2987407438331348 0.09409834730060189 -0.4050515475679276
0.07070129080292811 0.12763691998926194 -0.4040617599516902
0.3915904359870987 0.42847144531828363 -0.4040617599516902
0.2421020509316722 0.266641170063466 -0.40352879738910086
0.3342512780033757 0.1878083933056028 -0.40314810984439414
0.07070129080292811 0.13766422991683644 -0.40253900977286344
0.23457966504826783 0.3771852192953972 -0.40200604721027405
0.3545266966344545 0.1515517115477368 -0.40200604721027405
0.23582832019490582 0.2178903230883262 -0.40101625959403664
0.1208378404408003 0.23673435655130776 -0.40101625959403664
0.2981544850142865 0.1337583757081457 -0.40048329703144725
0.1208378404408003 0.026153234321350225 -0.39949350941520984
0.3915904359870987 0.1978357032331773 -0.39949350941520984
0.21524835152806165 0.35257757640555626 -0.39896054685262045
0.21220285117040802 0.2078630131607517 -0.39857985930791373
0.18100931375714116 0.37954548207257877 -0.39797075923638303
0.2604435768356409 0.2996087114350661 -0.39743779667379364
0.34550440182490577 0.15442209563482528 -0.39743779667379364
0.29131733671135424 0.18659780691343547 -0.397057109129087
0.18899613844508764 0.3261045645466524 -0.3959150464949669
0.37011204471474674 0.12959365396905442 -0.3959150464949669
0.4216799795207162 0.2780541826537728 -0.3955343589502602
0.2637936272290599 0.3117526441112098 -0.3943922963161401
0.3259066070234049 0.1936785952449801 -0.3943922963161401
0.030592051092630322 0.2780541826537728 -0.3940116087714334
0.20107916111407828 0.3431822078021948 -0.39286954613731323
0.3060880134459741 0.1642819030427288 -0.39286954613731323
0.37161195364089117 0.1978357032331773 -0.39248885859260657
0.2677070951886448 0.31733352351661004 -0.3913467959584865
0.3442329054255854 0.17946372232563193 -0.3913467959584865
0.3915904359870987 0.42847144531828363 -0.39096610841377977
0.25974311175338055 0.26782891520295093 -0.3898240457796597
0.3112044540468321 0.18169455133761325 -0.3898240457796597
0.23582832019490582 0.1978357032331773 -0.389443358234953
0.22810036303735984 0.22069979716826166 -0.38830129560083293
0.338987031059527 0.18860022339859273 -0.38830129560083293
0.18100931375714116 0.38836220560798584 -0.38792060805612616
0.18965853477287734 0.22307528744723143 -0.38677854542200607
0.21109124353986444 -0.012753032747674389 -0.3863978578772994
0.04061936102020472 0.38836220560798584 -0.3863978578772994
0.3256020569876395 0.20066040481490097 -0.38525579524317927
0.35393282406471205 0.21179932237301893 -0.3848751076984726
0.1668858058485226 0.24025952321529173 -0.3837330450643525
0.3613638449373868 0.10085935809459279 -0.3837330450643525
0.18100931375714116 0.1878083933056028 -0.38274325744811505
0.19421155780756943 0.2144336801823893 -0.3822102948855257
0.16095469390199227 0.15771884977198536 -0.38122050726928824
0.1509197702235237 0.2579995627986239 -0.38122050726928824
0.3789135407483657 0.1471890322853981 -0.3806875447066989
0.38856777688212757 0.1978357032331773 -0.3796977570904615
0.1566681521485948 0.2623470145591745 -0.3791647945278721
0.02055712741416176 0.2279176330159006 -0.37817500691163475
0.3715358161319497 -0.032807652602823284 -0.37817500691163475
0.3026922805471904 0.18800635082885025 -0.3776420443490453
0.18100931375714116 0.36830758575283706 -0.3766522567328079
0.2628190671146108 0.33240875028699535 -0.37611929417021855
0.31523212826982905 0.0724676810103672 -0.37611929417021855
0.3013446466389286 0.48743233224245713 -0.3751295065539811
0.32134597023781863 0.06706953162642618 -0.3745965439913917
0.4116526695931417 0.3181710361149648 -0.3736067563751543
0.266131048753559 0.31483621322333405 -0.37307379381256495
0.3824843899177145 0.20560172914519395 -0.37307379381256495
0.3915904359870987 0.22985152574301068 -0.37208400619632753
0.1659264732358618 0.28928446522262047 -0.37155104363373814
0.293692826990324 0.20357647140735427 -0.3711703560890315
0.04061936102020472 0.06747306042381537 -0.37056125601750073
0.16888060858278572 0.2305443770743768 -0.37002829345491134
0.24695201025123553 0.34825296589768806 -0.3690385058386739
0.11081053051322591 0.037383516890197796 -0.3690385058386739
0.2858049810640012 0.16419053803199918 -0.36850554327608454
0.29131733671135424 0.34825296589768806 -0.3675157556598471
0.1766999307510613 0.3084558899740498 -0.36698279309725773
0.35607228806596364 0.09249184586193952 -0.36698279309725773
0.16095469390199227 0.2078630131607517 -0.3659930054810203
0.20953803835746118 0.19543737170152503 -0.365460042918431
0.05064667094777922 0.33822565597011367 -0.36447025530219357
0.05064667094777922 -0.012753032747674389 -0.36447025530219357
0.33780689967093624 0.22447621761175207 -0.3639372927396042
0.04061936102020472 0.057445750496240865 -0.36294750512336676
0.02055712741416176 0.2178903230883262 -0.36294750512336676
0.36281045760727226 0.23203667224962707 -0.3624145425607773
0.29162950049801367 0.08752768027896426 -0.36142475494453996
0.20924110207258995 0.3384464547460435 -0.36089179238195057
0.28654351490073227 0.1825016089323914 -0.36089179238195057
0.27547312110066136 0.2491219292560637 -0.35990200476571316
0.02055712741416176 0.2279176330159006 -0.35990200476571316
0.2857973673131071 0.11645231992577919 -0.35936904220312377
0.45176190930343946 0.34825296589768806 -0.35837925458688635
0.05064667094777922 0.17777346962713425 -0.35837925458688635
0.32612740579933475 0.23643742026643652 -0.357846292024297
0.25120048325016225 0.1819458051171197 -0.35746560447959025
0.36392206523781584 0.2579995627986239 -0.35685650440805955
0.21867453943042198 0.34275583775212337 -0.35632354184547016
0.3159858896083483 0.22561828024587208 -0.35632354184547016
0.11081053051322591 0.3281983460425393 -0.3553337542292328
0.24901533674354587 0.33103827512605116 -0.35480079166664336
0.32838107606399836 0.0700236669733502 -0.35480079166664336
0.23114586339501336 0.34825296589768806 -0.353811004050406
0.2736762758896457 0.18538722052126821 -0.353811004050406
0.23114586339501336 0.18634655313392914 -0.3532780414878166
0.30293592057580265 0.10222983325553696 -0.3532780414878166
0.2843659821450099 0.2806352442068843 -0.3522882538715792
0.29131733671135424 0.48743233224245713 -0.3522882538715792
0.3057073259012674 0.23719879535584987 -0.3517552913089898
0.2909442629175416 0.23703890658707305 -0.3513746037642831
0.07070129080292811 -0.03474154532993335 -0.35076550369275233
0.23821903797566382 0.1763725394626136 -0.350232541130163
0.3820580198676429 0.23360510493381867 -0.350232541130163
0.28129002678377973 0.4986702285621989 -0.3492427535139256
0.010529817486587255 0.35828027582526256 -0.3492427535139256
0.24810168663624974 0.1999523259817465 -0.3487097909513362
0.32019629385280446 0.2633900984316708 -0.3487097909513362
0.20433023274587356 0.16849230728718498 -0.34772000333509884
0.4016177459146732 0.4184441353907091 -0.34772000333509884
0.2978499349785212 0.25612658007866695 -0.3471870407725094
0.34522269304182274 0.25617987633492595 -0.3471870407725094
0.5119257688688863 0.1878083933056028 -0.34619725315627203
0.17800949590485232 0.19479781662641785 -0.34566429059368264
0.2942866995600665 0.23588923020205885 -0.34566429059368264
0.46178921923101396 0.35828027582526256 -0.3446745029774452
0.2740112809289877 0.16774615969955975 -0.3446745029774452
0.16549248943489614 0.27537414233903773 -0.3441415404148558
0.17287021405131192 0.2014522349078909 -0.3441415404148558
0.19103662368471555 -0.02471423540235885 -0.34315175279861837
0.1571249772022429 0.22015922085477804 -0.34261879023602904
0.16306370289966737 0.2764172262115341 -0.34261879023602904
0.1885849958968045 0.1715378076448385 -0.3422381026913223
0.24763724783170762 0.15895989116772916 -0.3416290026197916
0.2758081261400033 0.183955835353171 -0.34109604005720223
0.3709191023095249 0.23969610564912583 -0.34109604005720223
0.20697981805703217 0.4385063689967523 -0.3401062524409648
0.1930009714154022 0.32474931688749653 -0.33957328987837543
0.31918366498388456 0.27954647782902314 -0.33957328987837543
0.3355380019044843 0.4786156087070501 -0.338583502262138
0.2771786013009474 -0.0027257228200999947 -0.338583502262138
0.35409271283348887 0.08424615364359243 -0.3380505396995487
0.3013446466389286 0.2981088025089217 -0.3370607520833112
0.030592051092630322 0.2780541826537728 -0.3370607520833112
0.27465844975498904 0.3100167089073473 -0.3365277895207218
0.23114586339501336 0.34825296589768806 -0.33553800190448446
0.14294055928647129 0.25435257612033374 -0.33553800190448446
0.2674406139073501 0.31794262358814074 -0.3350050393418951
0.27125510310531115 0.1451180920421936 -0.33401525172565766
0.3113719565665031 0.48743233224245713 -0.33401525172565766
0.19953356968256908 0.17624310569741325 -0.33348228916306827
0.3615085062043753 0.015402618058833004 -0.3324925015468308
0.2816707143284865 0.15480278317953208 -0.33195953898424146
0.22112616721833311 0.16673353083063996 -0.33195953898424146
0.25944617546850934 0.13766422991683644 -0.33096975136800405
0.25901980541843783 0.1540185668374362 -0.33043678880541466
0.24249035222727305 0.13766422991683644 -0.33005610126070795
0.1408924602959492 0.1978357032331773 -0.32944700118917725
0.38974790827071837 0.15065328894222904 -0.32891403862658786
0.4016177459146732 0.4184441353907091 -0.3279242510103505
0.3463190731705781 0.2893529889806677 -0.3273912884477611
0.26679344508134867 0.30051474779146803 -0.3273912884477611
0.06067398087535361 0.057445750496240865 -0.32640150083152364
0.18155750382151883 0.1686065135505969 -0.3258685382689343
0.4317072894482907 0.33012462501875517 -0.32487875065269683
0.3352791343740838 0.09304764967721135 -0.32434578809010745
0.30802951992397826 0.2914619979783428 -0.32434578809010745
0.09075591065807702 0.07750037035138976 -0.3233560004738701
0.3989148643472555 0.19038184110782017 -0.3228230379112807
0.3615085062043753 0.33822565597011367 -0.3218332502950433
0.2222377748488767 0.3233788417265524 -0.3213002877324539
0.3069179122934348 0.2933121394456173 -0.3213002877324539
0.13086515036837482 0.17777346962713425 -0.3203105001162165
0.2664965087964774 0.31493519198495784 -0.31977753755362714
0.18100931375714116 -0.0027257228200999947 -0.3187877499373897
0.22356256750445594 0.3218484777968315 -0.3182547873748003
0.3598258672567718 0.28428984463606854 -0.3182547873748003
0.20697981805703217 0.4385063689967523 -0.31726499975856287
0.19131833246779856 0.3257695595073105 -0.3167320371959735
0.18100931375714116 0.38836220560798584 -0.3157422495797361
0.1664898908020277 0.284822807198658 -0.31520928701714673
0.3013446466389286 0.07942664932760565 -0.31421949940090926
0.3063544947272688 0.11409205714859763 -0.31368653683831993
0.45176190930343946 0.4103507181902448 -0.3126967492220825
0.27959216033438783 0.29976098645294885 -0.3121637866594931
0.20106393361229005 0.12763691998926194 -0.3111739990432557
0.3821417711274783 0.12948706145653657 -0.3106410364806663
0.1408924602959492 0.007301587107474508 -0.3096512488644289
0.168553217294338 0.17939519856758473 -0.3091182863018395
0.27125510310531115 0.4886429186346246 -0.3081284986856021
0.2674558414091383 0.3103897827011598 -0.30759553612301277
0.35795288453681473 0.10906698155846924 -0.30759553612301277
0.20106393361229005 0.4404326479729681 -0.3066057485067753
0.34452222795956244 0.10414849848085868 -0.3060727859441859
0.27125510310531115 0.4886429186346246 -0.30508299832794855
0.3495777585532674 0.10673717378486426 -0.30455003576535916
0.29131733671135424 0.48743233224245713 -0.30356024814912175
0.3730357250580941 0.1235635632609003 -0.30302728558653236
0.4317072894482907 0.39838951553556035 -0.3020374979702949
0.3437760803719373 0.10648592000535782 -0.30150453540770555
0.46178921923101396 0.37833489568041156 -0.30051474779146814
0.2647834148452973 0.14043563524230127 -0.29998178522887875
0.23114586339501336 0.07750037035138976 -0.29899199761264134
0.38189813109886617 0.1385169700169794 -0.29845903505005195
0.4016177459146732 0.4184441353907091 -0.2974692474338146
0.2008431348363602 0.31838422114000053 -0.2969362848712252
0.4216799795207162 0.4184441353907091 -0.29594649725498773
0.34181934639214484 0.11348295707706693 -0.2954135346923984
0.5119257688688863 0.1878083933056028 -0.2944237470761609
0.19103662368471555 0.4385063689967523 -0.2929009968973342
0.4016177459146732 0.2880814925813473 -0.2929009968973342
0.27125510310531115 0.4886429186346246 -0.29137824671850737
0.18595063808743412 0.30687222978807 -0.290845284155918
0.3414538863492264 0.4685882987794756 -0.28985549653968057
0.25392620607026223 0.13547146965932588 -0.28932253397709123
0.3983971292864545 0.2320975822567802 -0.2877997837982644
0.18100931375714116 0.39838951553556035 -0.28763989502948756
0.16840855602734942 0.2824320894178998 -0.28627703361943757
0.0807286007305025 0.3000426952360318 -0.2854242935192946
0.33428934675784644 0.3089507837821685 -0.2847542834406108
0.04061936102020472 0.08752768027896426 -0.283231533261784
0.23567604517702306 0.33077940759565067 -0.283231533261784
0.3253888719626037 0.12006885160049278 -0.2817087830829572
0.3113719565665031 0.07942664932760565 -0.28099309049890864
0.33313205662193807 0.11861462517971327 -0.2801860329041304
0.5119257688688863 0.15771884977198536 -0.2786632827253036
0.1797302036069266 0.16829434976393742 -0.2786632827253036
0.18351423780131118 0.16553817194026094 -0.27714053254647686
0.29131733671135424 0.4786156087070501 -0.27656950122941676
0.3337487704443628 0.12534518097012773 -0.27561778236765
0.44173459937586496 0.2279176330159006 -0.2743538997192238
0.1828137727190509 0.27940943031292875 -0.27409503218882325
0.38001753462801496 0.15034112515556958 -0.27257228200999645
0.23114586339501336 0.4526451044071591 -0.2721382982090308
0.38345133628126954 0.1564168983690884 -0.27104953183116964
0.19103662368471555 0.4385063689967523 -0.26992269669883784
0.31624475713874883 0.3004614515352092 -0.26952678165234284
0.2281079767882539 0.32012777009475724 -0.26800403147351604
0.27125510310531115 0.4886429186346246 -0.26770709518864483
0.18803680583242685 0.29652514232294186 -0.2664812812946893
0.331426576421652 0.4886429186346246 -0.2654914936784519
0.3743452902118851 0.15299071046672819 -0.2649585311158625
0.4317072894482907 0.2981088025089217 -0.263968743499625
0.3412483150750848 0.1304920765745622 -0.2634357809370356
0.07480510253486634 0.38836220560798584 -0.26244599332079827
0.3481235321324878 0.306818933531811 -0.2619130307582089
0.13086515036837482 0.1978357032331773 -0.26092324314197146
0.23914030183385412 0.1269212274052134 -0.26039028057938207
0.05064667094777922 0.33822565597011367 -0.2594004929631447
0.3933720536963261 0.25954515423013313 -0.2588675304005553
0.3815631260595242 0.4585609888519011 -0.25787774278431785
0.21700712798460656 0.1438085268884026 -0.25734478022172846
0.3648052603415354 0.1526557054273862 -0.25734478022172846
0.47181652915858846 0.09755499020653866 -0.25635499260549105
0.3025933017855666 0.29109653793542434 -0.25582203004290166
0.04061936102020472 0.0474108268177723 -0.2548322424266643
0.34405017540412614 0.3047784482921831 -0.2542992798640749
0.04061936102020472 0.38836220560798584 -0.2533094922478375
0.34949400729343194 0.1387377687929094 -0.2527765296852481
0.3355380019044843 0.4786156087070501 -0.2517867420690107
0.1748954717891516 0.18011850490252745 -0.2512537795064213
0.3774440868257977 0.27038713550337995 -0.2512537795064213
0.3414538863492264 -0.02278034267524889 -0.2502639918901839
0.32528227945008586 0.14651140845582017 -0.24973102932759453
0.04061936102020472 0.1878083933056028 -0.2487412417113571
0.17175860642076834 0.1762126506938368 -0.2482082791487677
0.23114586339501336 0.34825296589768806 -0.2472184915325303
0.2512309382537388 0.1252766572120805 -0.24668552896994095
0.07070129080292811 0.007301587107474508 -0.2456957413537035
0.17448432924086835 0.18476289294794918 -0.24516277879111412
0.3615085062043753 0.007301587107474508 -0.24417299117487673
0.38759321676767833 0.20021880726304114 -0.24364002861228737
0.19517850417112453 0.16380985048729252 -0.24364002861228737
0.3615085062043753 0.10758230013411316 -0.24265024099604993
0.3791724082787662 0.2599258417748398 -0.24211727843346054
0.18100931375714116 0.39838951553556035 -0.2411274908172231
0.36112020490877456 0.16732740340038244 -0.24059452825463373
0.05064667094777922 -0.012753032747674389 -0.23960474063839635
0.3919406685282288 0.2384626780042762 -0.23907177807580696
0.1408924602959492 0.2379449429434751 -0.23808199045956951
0.18872965716379297 0.287213524979416 -0.23754902789698015
0.21097703727645245 0.3162371433878547 -0.23655924028074277
0.2519161758342109 0.1246675571405498 -0.23602627771815338
0.45176190930343946 0.4103507181902448 -0.23503649010191593
0.24687587274229417 0.12860386635281704 -0.23450352753932657
0.3113719565665031 0.4786156087070501 -0.23351373992308913
0.19951834218078085 0.2852720185014119 -0.23298077736049974
0.22345597499193812 0.291591431743543 -0.23298077736049974
0.3615085062043753 0.38836220560798584 -0.23199098974426235
0.3396189723837401 0.27419401095044693 -0.231458027181673
0.3414538863492264 0.5086975384897734 -0.23046823956543555
0.1827147939574272 0.2574818277378228 -0.22993527700284616
0.23114586339501336 0.30814372618739033 -0.22894548938660877
0.18202955637695512 0.2637022622183303 -0.2284125268240194
0.05064667094777922 -0.0027257228200999947 -0.22742273920778197
0.17615174068668366 0.19031331734977294 -0.22688977664519258
0.22031910962355486 0.14830825366683573 -0.22688977664519258
0.21109124353986444 0.06939933940003126 -0.22589998902895514
0.3654981116729015 -0.012753032747674389 -0.2243772388501284
0.3598639360112424 0.17937235731490234 -0.223844276287539
0.19103662368471555 0.0173288970350489 -0.22285448867130156
0.3631454626466141 0.1834457140432641 -0.2223215261087122
0.4317072894482907 0.34825296589768806 -0.2213317384924748
0.3615770299624225 0.18303457149498084 -0.22079877592988542
0.2251690689431182 0.1434506805963783 -0.21927602575105862
0.18100931375714116 0.36830758575283706 -0.21899431696797567
0.2354780876537756 0.13268483683207286 -0.21775327557223179
0.1208378404408003 0.2279176330159006 -0.21666450919437064
0.18738202325553133 0.16889583608457406 -0.21623052539340504
0.37244185248835165 0.2315341646906142 -0.2147077752145782
0.26122779317773676 -0.0027257228200999947 -0.21432708766987155
0.28973367652537435 0.2664432125402185 -0.21318502503575146
0.47181652915858846 0.07750037035138976 -0.21198966614537237
0.3209043726859588 0.13663637354612831 -0.21013952467809782
0.4016177459146732 0.3281983460425393 -0.2096598583717674
0.311706961605845 0.2724885307501609 -0.20861677449927105
0.3915904359870987 0.40841682546313485 -0.20732243684726825
0.16391644299981034 0.22363870501339733 -0.20709402432044424
0.20411704772083775 0.15449823314376665 -0.20557127414161747
0.030592051092630322 0.23987883567058507 -0.2049850153227691
0.16151811146815817 0.21351241632419915 -0.20404852396279066
0.07070129080292811 0.13766422991683644 -0.20252577378396383
0.265560017436499 0.28209708437855796 -0.20252577378396383
0.16818775725141957 0.22985913949390474 -0.20100302360513708
0.10477282605417762 0.08752768027896426 -0.200317786024665
0.37991855586639117 0.23019414453324671 -0.19948027342631025
0.4216799795207162 0.2780541826537728 -0.1979575232474835
0.26871211030667047 0.27593755990520363 -0.19643477306865667
0.25120048325016225 0.34015193494632956 -0.19565055672656087
0.2561570350822435 0.11301090452163064 -0.19491202288982987
0.13086515036837482 0.2279176330159006 -0.1933892727110031
0.3424589014672521 0.14107519031740842 -0.1933892727110031
0.3325762528066662 0.12859625260192287 -0.1918665225321763
0.3213992664940775 -0.012753032747674389 -0.19097571367756264
0.3723885562320929 0.17662379324212005 -0.1903437723533495
0.3414538863492264 0.4685882987794756 -0.1886459059039576
0.26132677193936044 0.11483059098532869 -0.18729827199569588
0.3715358161319497 0.37833489568041156 -0.18630848437945852
0.2458327888697978 0.29747686118470856 -0.18577552181686913
0.19511759416397137 0.2781531614153966 -0.1842527716380423
0.04061936102020472 0.1978357032331773 -0.18397106285495934
0.1739056841729141 0.1657361294635084 -0.18273002145921555
0.11721369501519253 0.14769153984441086 -0.18164125508135437
0.24598506388768057 0.10975221913894131 -0.18120727128038872
0.3826442786864912 0.16639852579129807 -0.1796845211015619
0.1408924602959492 -0.0027257228200999947 -0.17930383355685522
0.3928543186355249 0.17619742319204845 -0.17816177092273514
0.3113719565665031 0.4786156087070501 -0.17778108337802842
0.3764314579568778 0.15178012407456085 -0.17663902074390833
0.3514811962768009 0.4886429186346246 -0.17625833319920164
0.31468393820545143 0.2881880850938651 -0.17511627056508156
0.23114586339501336 0.34825296589768806 -0.17473558302037484
0.19934322591021578 0.14949599880632067 -0.17359352038625475
0.10214608199570141 0.1370170610908351 -0.17359352038625475
0.48184383908616274 0.13766422991683644 -0.17321283284154806
0.15966035624998948 0.20592150668274758 -0.17207077020742792
0.0862257288760673 0.16569806070903778 -0.17169008266272126
0.28118343427126186 0.11507423101394096 -0.17054802002860117
0.4317072894482907 0.2579995627986239 -0.17016733248389443
0.14527798081097043 0.09755499020653866 -0.17016733248389443
0.3641504777646398 0.14155485662373887 -0.16902526984977434
0.3113719565665031 0.48743233224245713 -0.16864458230506768
0.0807286007305025 0.11636856866594374 -0.16864458230506768
0.0767846777673411 0.14865848620796593 -0.1675025196709476
0.4116526695931417 0.3221530278325968 -0.16712183212624085
0.25685750016450387 0.30278364555792 -0.16597976949212076
0.12036578788536402 0.10581590992667397 -0.16597976949212076
0.3815631260595242 -0.012753032747674389 -0.1655990819474141
0.17843586595492392 0.2680497139788808 -0.16445701931329396
0.07447771124641853 0.16258403659333692 -0.16445701931329396
0.4216799795207162 0.2279176330159006 -0.16407633176858727
0.27715576004826503 0.2857060023023775 -0.16293426913446718
0.1046586197907656 0.11055927673371947 -0.16293426913446718
0.07070129080292811 0.037383516890197796 -0.16255358158976047
0.331426576421652 0.4886429186346246 -0.16255358158976047
0.37112467358366663 0.142415210474776 -0.16141151895564038
0.3013446466389286 -0.012753032747674389 -0.1610308314109337
0.331426576421652 0.4786156087070501 -0.1610308314109337
0.16398496675785756 0.26189018950552645 -0.15988876877681363
0.09323037969867058 0.19082343865967988 -0.15988876877681363
0.12325139947424082 0.1978357032331773 -0.15950808123210689
0.2812976405346739 0.1088157277789628 -0.1583660185979868
0.11945213777806801 0.1411970103317146 -0.1583660185979868
0.22111855346743894 0.4526451044071591 -0.1579853310532801
0.3815631260595242 -0.02278034267524889 -0.1579853310532801
0.09715146140914958 0.10556465614716766 -0.15684326841916
0.09803465651286912 0.1937775740066039 -0.15684326841916
0.17093632132420186 0.2780541826537728 -0.1564625808744533
0.15642451211998257 0.24774384034422547 -0.15532051824033322
0.1521608116192675 0.0798606331285713 -0.15532051824033322
0.16102321766003946 0.14769153984441086 -0.15493983069562647
0.16125924393775767 0.22043331588696688 -0.1537977680615064
0.06733601290772084 0.1600562712964845 -0.1537977680615064
0.07070129080292811 -0.0027257228200999947 -0.15341708051679973
0.3615085062043753 0.09948126918275456 -0.15341708051679973
0.16182266150392358 0.17051756502502455 -0.15227501788267964
0.07061753954309268 0.16356621045868025 -0.15227501788267964
0.4016177459146732 0.3181710361149648 -0.1518943303379729
0.25117764199747983 0.31227799292290503 -0.15075226770385283
0.16354336920599785 0.13423042826358209 -0.15075226770385283
0.0940907335497077 0.21214955491414916 -0.15075226770385283
0.13086515036837482 0.057438136745346695 -0.15037158015914615
0.3287617636087052 0.2965555973265184 -0.149229517525026
0.1667715995851106 0.1233275369831822 -0.149229517525026
0.48184383908616274 0.14769153984441086 -0.1488488299803193
0.3900296170538011 0.1618378890057118 -0.14770676734619925
0.06073489088250676 0.1694744811525282 -0.14770676734619925
0.16208914278521824 0.07175960217721271 -0.14770676734619925
0.194523721594229 0.09584189625535856 -0.1473260798014925
0.29095187666843575 0.29340350445634694 -0.14618401716737242
0.13819719247942577 0.16227948655757163 -0.14618401716737242
0.4216799795207162 0.2981088025089217 -0.14580332962266573
0.04685502300250046 0.2479722528710495 -0.14580332962266573
0.253568359778238 0.3106714914842428 -0.14466126698854567
0.07702831779595347 0.2346101200518444 -0.14466126698854567
0.1208378404408003 0.026153234321350225 -0.14428057944383893
0.24069350701625739 0.11288908450732446 -0.14313851680971884
0.28627703361943746 0.10229074326268998 -0.14313851680971884
0.13648409852824567 0.06971150318669074 -0.14313851680971884
0.18100931375714116 0.008512173499641855 -0.14275782926501215
0.30584437341736187 0.09531654744366329 -0.14161576663089204
0.062417529830110285 0.1358673847058208 -0.14161576663089204
0.29131733671135424 0.5086975384897734 -0.14123507908618535
0.030592051092630322 0.2479722528710495 -0.14123507908618535
0.19632056680524457 0.30384957068309876 -0.14009301645206526
0.09195888329935019 0.23036926080381176 -0.14009301645206526
0.47181652915858846 0.10637171374194582 -0.13971232890735855
0.27125510310531115 0.4786156087070501 -0.13971232890735855
0.37817500691163464 0.13440554453414713 -0.13857026627323846
0.057521888005182244 0.23528774388142232 -0.13857026627323846
0.20697981805703217 0.4385063689967523 -0.13818957872853177
0.16086332889126265 0.25882946164608456 -0.13704751609441168
0.1801108911516334 0.28158696306865105 -0.13704751609441168
0.050304052157543175 0.19290960640467258 -0.13704751609441168
0.1934501827181561 0.03496995785675738 -0.13666682854970497
0.17438535047924458 0.1482168886561061 -0.13552476591558488
0.1572087284620783 0.17091348007151957 -0.13552476591558488
0.22283926116951322 0.3049231095591717 -0.13552476591558488
0.25242629714411785 0.3281983460425393 -0.1351440783708782
0.3641885465191105 0.2770643950375354 -0.13400201573675805
0.18361321656293497 0.1328371118499555 -0.13400201573675805
0.19103662368471555 0.02494264792918288 -0.1336213281920514
0.030592051092630322 0.2379449429434751 -0.1336213281920514
0.15688133717363062 0.04218779370439634 -0.1324792655579313
0.10993494916040054 0.23019414453324671 -0.1324792655579313
0.44173459937586496 0.2479722528710495 -0.13209857801322455
0.09283446465217556 0.08046211944920785 -0.13095651537910447
0.29090619416307095 0.08979657804541609 -0.13095651537910447
0.042583708750891354 0.20173394369097392 -0.13095651537910447
0.4216799795207162 0.2981088025089217 -0.1305758278343978
0.1360805697308566 0.051796347332793424 -0.12943376520027772
0.281868671851734 0.09198933830292676 -0.12943376520027772
0.21003293216557986 0.12523858845760977 -0.12943376520027772
0.5119257688688863 0.16774615969955975 -0.12905307765557097
0.16138106395206375 0.2976519774552737 -0.12791101502145089
0.23417613625087874 0.31322209803377765 -0.12791101502145089
0.0382058019867643 0.2880814925813473 -0.12753032747674423
0.13086515036837482 0.03994173719062691 -0.12753032747674423
0.19559726047030185 0.12084545419169447 -0.12638826484262408
0.10981312914609435 0.06414585128307873 -0.12638826484262408
0.21109124353986444 0.3771319230391383 -0.1260075772979174
0.15047055892076983 0.25104059448138555 -0.1248655146637973
0.035175529130899004 0.2600172067855694 -0.1248655146637973
0.11310988328325432 0.2354552464010932 -0.1248655146637973
0.19252130510907173 0.023556945266450587 -0.12448482711909058
0.20624889797119528 0.05235215114806526 -0.12334276448497049
0.20263236629648168 0.3165949896798791 -0.12334276448497049
0.3615085062043753 0.35828027582526256 -0.12296207694026381
0.17828359093704116 0.034178127763767455 -0.12182001430614373
0.35179336006346035 0.10547329113643804 -0.12182001430614373
0.12845159133493428 0.2880814925813473 -0.121439326761437
0.19103662368471555 -0.02471423540235885 -0.121439326761437
0.3611049774069862 0.10356985341290455 -0.12029726412731691
0.13275336059012008 0.052458743660583104 -0.12029726412731691
0.10436929725678853 0.2780541826537728 -0.11991657658261023
0.2978575487294153 0.30704734605863504 -0.1187745139484901
0.24364764236318143 0.3190390037168961 -0.1187745139484901
0.21109124353986444 0.0173288970350489 -0.11839382640378342
0.1545134606455549 0.18486187170957297 -0.11725176376966334
0.037459654399139175 0.27991955162283566 -0.11725176376966334
0.04732707555793675 0.2776963363617485 -0.11725176376966334
0.3514811962768009 -0.032807652602823284 -0.1168710762249566
0.3500041286033389 0.10612807371333355 -0.11572901359083652
0.0365155492882666 0.25993345552573394 -0.11572901359083652
0.44173459937586496 0.35017924487390406 -0.11534832604612984
0.13411622200016995 0.042690301263409204 -0.11420626341200976
0.20155882742040876 0.11516559602467057 -0.11420626341200976
0.216009726617475 0.3285409648327752 -0.11420626341200976
0.11842428140735989 0.3281983460425393 -0.11382557586730302
0.25924821794526187 0.3258609245180401 -0.11268351323318294
0.18876772591826374 0.3329340990986906 -0.11268351323318294
0.23114586339501336 0.4504599579005426 -0.11230282568847626
0.04147971487124185 0.1565387183833946 -0.11116076305435613
0.3159858896083483 0.3080371336748724 -0.11116076305435613
0.205495136632676 0.028757137127144037 -0.11116076305435613
0.23114586339501336 -0.012753032747674389 -0.11078007550964944
0.3166330584343497 0.09070261440181804 -0.10963801287552936
0.1547723281759555 0.17904496602645464 -0.10963801287552936
0.14921429002323766 0.33822565597011367 -0.10925732533082262
0.160543551353709 0.03072909860872474 -0.10811526269670255
0.33275136907723124 0.3084635037249439 -0.10811526269670255
0.15701838468972504 0.32390419053824765 -0.10811526269670255
0.1408924602959492 -0.010819140020564322 -0.10773457515199586
0.29976860020384294 0.30952942885012263 -0.10659251251787578
0.029541353469239796 0.27076020929719247 -0.10659251251787578
0.3615085062043753 0.42847144531828363 -0.10621182497316904
0.3123617441827405 0.30596619343166803 -0.10506976233904897
0.14295578678825951 0.24093714704486965 -0.10506976233904897
0.22111855346743894 0.4585609888519011 -0.10468907479434228
0.12277934691880454 0.2721306844581366 -0.10354701216022215
0.212652062473162 0.02837644958243736 -0.10354701216022215
0.11152622309727446 0.31055728522083076 -0.10316632461551546
0.3621632887812708 0.29318270568041704 -0.10202426198139539
0.012912921516451209 0.22315903870706688 -0.10202426198139539
0.11842428140735989 0.03723885562320932 -0.10164357443668864
0.2429700185336035 0.10536669862392009 -0.10050151180256857
0.15621894084584093 0.3441339266639616 -0.10050151180256857
0.07070129080292811 -0.04283496253039768 -0.10012082425786188
0.3639449064904982 0.29191882303199085 -0.0989787616237418
0.013499180335299512 0.2619587132635736 -0.0989787616237418
0.1046586197907656 0.30814372618739033 -0.09859807407903508
0.4178426490700727 0.18986410604701895 -0.09745601144491499
0.0881520078522832 0.3085472549847794 -0.09745601144491499
0.04061936102020472 0.3802687884075215 -0.0970753239002083
0.11208202691254629 0.058108146824030545 -0.09593326126608817
0.20906598580202487 0.11343727457170212 -0.09593326126608817
0.1208378404408003 0.03586076671137109 -0.0955525737213815
0.018257774644133248 0.26896336408617694 -0.09441051108726135
0.1506837439458055 0.01917903850232353 -0.09441051108726135
0.45176190930343946 0.05623516410407352 -0.09402982354255468
0.28129002678377973 0.44853367892432683 -0.09402982354255468
0.07172153342274207 0.31936639500534375 -0.09288776090843465
0.1587847748971641 0.343075615289677 -0.09288776090843465
0.2909442629175416 0.04506579154237898 -0.09250707336372786
0.20452057651822683 0.11272158198765357 -0.09136501072960783
0.21323070754111614 0.006997037071709101 -0.09136501072960783
0.29131733671135424 0.48743233224245713 -0.09098432318490114
0.25409370858993324 0.34599168188213025 -0.08984226055078101
0.04903255575822279 0.12456096462803184 -0.08984226055078101
0.2977966387222622 0.02444775412106419 -0.08984226055078101
0.33031496879110844 0.06747306042381537 -0.08946157300607434
0.21510369026107307 0.052588177425783346 -0.0883195103719542
0.18578313556776313 0.34918945725766665 -0.0883195103719542
0.3715358161319497 0.4385063689967523 -0.08793882282724752
0.04320042257331623 0.10765082389216026 -0.08793882282724752
0.13713126735424702 0.02153168752861091 -0.08679676019312738
0.1039581547085053 0.30413127946618174 -0.08679676019312738
0.5119257688688863 0.15771884977198536 -0.0864160726484207
0.40913251804718337 0.15669099340127723 -0.08527401001430067
0.3081437261873903 0.31102933777626707 -0.08527401001430067
0.27390468841646975 0.043878046402894146 -0.08527401001430067
0.23189201098263848 0.039880827183473765 -0.08489332246959388
0.3780608006482225 0.29102801417737717 -0.08375125983547385
0.41364747232740473 0.2528069846888246 -0.08375125983547385
0.300286335264644 0.005352466878576208 -0.08375125983547385
0.29762913620259124 0.07991392938483029 -0.08337057229076718
0.1984980995609669 0.0023983315316521855 -0.08222850965664703
0.23534104013768117 0.016529453191164913 -0.08222850965664703
0.32313520169794013 0.03394210148604925 -0.08222850965664703
0.3342512780033757 0.061100350925425206 -0.08184782211194036
0.24810168663624974 0.3575417419885315 -0.08070575947782022
0.3685359982796611 0.29232235182937993 -0.08070575947782022
0.3341979817471168 0.026153234321350225 -0.08070575947782022
0.28129002678377973 0.44853367892432683 -0.08032507193311354
0.0949358598989565 0.3158183870886774 -0.0791830092989934
0.385925805321863 0.11099326053468513 -0.0791830092989934
0.15298309671583402 0.35236439138052056 -0.0791830092989934
0.22111855346743894 0.4585609888519011 -0.07880232175428672
0.26427329353539025 0.060201928319917324 -0.07766025912016669
0.1288246651287469 0.017839018344955933 -0.07766025912016669
0.028650544614626194 0.3061489234531273 -0.07766025912016669
0.3460602056401775 0.057118359207793165 -0.07727957157545991
0.008633993513947932 0.2701587229765559 -0.07613750894133987
0.43121239564017194 0.21888772445545776 -0.07613750894133987
0.3237671430221532 0.00569508566881225 -0.07613750894133987
0.3514811962768009 0.4886429186346246 -0.07514772132510238
0.3461211156473305 0.015798533105328024 -0.07461475876251306
0.2829345969769127 0.3333452416469737 -0.07461475876251306
0.31044307895741874 0.0878931403218826 -0.07461475876251306
0.20924871582348412 0.05618948159870882 -0.07309200858368624
0.33648972076625105 0.30801429242219003 -0.07309200858368624
0.34041080247673006 0.01968154606133639 -0.07309200858368624
0.14664845597191448 0.3545343103853487 -0.07309200858368624
0.2253594127154716 0.10296075334137374 -0.07156925840485942
0.06313322241415895 0.3321118140021241 -0.07156925840485942
0.08497707372942932 0.09020010684280529 -0.07156925840485942
0.35013356236853915 0.3037658194232633 -0.07156925840485942
0.2802850116657541 0.35828027582526256 -0.07057947078862203
0.035815084206006174 0.3253964857134979 -0.07004650822603271
0.1831868465128635 0.36278761635458995 -0.07004650822603271
0.08720028899051646 0.08835757912642482 -0.07004650822603271
0.20562457039787635 0.09112137070099546 -0.0685237580472059
0.12175910429899059 0.029724083490699018 -0.0685237580472059
0.2603674393266996 0.09853716407188198 -0.0685237580472059
0.27655427372762836 0.34529883055076405 -0.0685237580472059
0.20311203260281213 0.09302480842452895 -0.06700100786837908
0.06485393011623322 0.10838174397799714 -0.06700100786837908
0.2761507449302393 0.08892099669259072 -0.06700100786837908
0.0927050308869753 0.0844897936722048 -0.06700100786837908
0.27125510310531115 0.36469105407812347 -0.0666203203236724
0.11649038868024982 0.35001935610512713 -0.06547825768955226
0.3177675073175757 0.07487362629291355 -0.06547825768955226
0.26102222190359514 0.09518711367846305 -0.06547825768955226
0.47181652915858846 0.09755499020653866 -0.06509757014484559
0.03396494273873166 0.32746742595670236 -0.06395550751072544
0.19184368127949383 0.08302795350053102 -0.06395550751072544
0.33305591911299665 0.06881308058118285 -0.06395550751072544
0.20681231553736118 0.06345299995171258 -0.062432757331898736
0.011154145059906301 0.2985275588080991 -0.062432757331898736
0.09791283649856293 0.079160168046311 -0.062432757331898736
0.3514811962768009 0.34825296589768806 -0.06205206978719195
0.22608271905041433 0.09139546573318429 -0.06091000715307192
0.12479699090575005 0.02374728903880387 -0.06091000715307192
0.4397550241433902 0.19984573346922865 -0.06091000715307192
0.3568717319098477 -0.0027257228200999947 -0.060529319608365245
0.24679973523335288 -3.045500357652985E-4 -0.0593872569742451
0.23856927051679405 -0.01765628832349671 -0.0593872569742451
0.18311070900392212 0.08244169468168272 -0.0593872569742451
0.11606401863017833 0.0474108268177723 -0.05900656942953843
0.17708823204666216 0.36840656451446085 -0.05786450679541828
0.20892132453503628 0.37593656414875914 -0.05786450679541828
0.3579148157823441 0.02129566125089271 -0.05786450679541828
0.4216799795207162 0.34825296589768806 -0.0568747191791809
0.13627091350320988 0.024333547857652172 -0.05634175661659147
0.12239104562320369 0.024173659088875355 -0.05634175661659147
0.10280847832349109 0.07851299922030955 -0.05634175661659147
0.05064667094777922 0.10436168350589448 -0.055351969000354086
0.3013446466389286 0.4786156087070501 -0.055351969000354086
0.10592250243919192 0.07210222096744875 -0.05481900643776476
0.004636774294527551 0.1730377165709829 -0.05481900643776476
0.4329940133493992 0.25726102896189296 -0.05481900643776476
0.434120848481731 0.0474108268177723 -0.05382921882152727
0.2548855386829232 0.07884039050875735 -0.05329625625893794
0.4564976623595909 0.20552559163625256 -0.05329625625893794
0.11587367485782495 0.0925908246235633 -0.05329625625893794
0.3533998615021226 0.3189400249552723 -0.05329625625893794
0.4129850759996152 0.07750037035138976 -0.05230646864270045
0.24431765244186515 0.09334458596208259 -0.05177350608011113
0.03165797621780908 0.33301023660763185 -0.05177350608011113
0.0926365071289281 0.1281851100536396 -0.05177350608011113
0.3717946836623504 0.06874455682313564 -0.05177350608011113
0.2579843352968357 0.37833489568041156 -0.050783718463873743
0.07070129080292811 -0.03474154532993335 -0.050783718463873743
0.14886405748210757 0.01577569185264562 -0.05025075590128431
0.13286756685353196 0.050958834734438685 -0.05025075590128431
0.11148054059190965 0.12271082316075733 -0.05025075590128431
0.05866395063930228 0.36830758575283706 -0.04987006835657763
0.3440349479023379 0.375921336646971 -0.049260968285046926
0.2305748320779534 0.07402849994366464 -0.048728005722457494
0.13780127743293086 0.05162884481312254 -0.048728005722457494
0.20736811935263302 0.36887100331900285 -0.048728005722457494
0.10893754779326899 0.12040385663983476 -0.048728005722457494
0.3440349479023379 0.36830758575283706 -0.04773821810622011
0.05064667094777922 -0.0027257228200999947 -0.04773821810622011
0.11453365470045745 0.35647581686335283 -0.04720525554363078
0.23751095914250933 0.3798195771047676 -0.04720525554363078
0.41456873618559503 0.04847675194295106 -0.04720525554363078
0.3744442689735089 -0.0030455003576535257 -0.046824567998924
0.42409353855415666 0.11760961006168756 -0.04621546792739329
0.3338020667006218 0.3914000922147453 -0.04568250536480397
0.45725142369811006 0.22856480184190195 -0.04568250536480397
0.460936479130871 0.1911888987025983 -0.04568250536480397
0.4171497977387065 0.06838671053111137 -0.04568250536480397
0.31849842740341244 0.4269563088903511 -0.04530181782009729
0.4016177459146732 0.3197546963009446 -0.04469271774856648
0.33393150046582204 0.4137464510890285 -0.04415975518597715
