0.5787815074215905 0.18224710753188997 -0.12278632161967398
0.4187265178545679 0.09766544795059981 -0.12147794278274304
0.3740101549893046 0.2493367485086725 -0.12077343110131868
0.5709010410422295 0.19232162457625837 -0.12077343110131868
0.631962074916538 0.2954218769264174 -0.12077343110131868
0.4160191801073801 0.14279445337212585 -0.12077343110131868
0.430612636365456 0.5086171761780202 -0.12077343110131868
0.639751961222573 0.3070261907647357 -0.12077343110131868
0.35409260331017883 0.28530710207168203 -0.12077343110131868
0.41509325046893664 0.4963083506582776 -0.12077343110131868
0.5689686661446083 0.1399864710990202 -0.11946505226438774
0.3766973638313089 0.24332827031138193 -0.11876054058296337
0.5263457094184346 0.11982737255769177 -0.11876054058296337
0.3650829855403988 0.3287654083629732 -0.11876054058296337
0.37358744798045 0.20798191280906267 -0.11876054058296337
0.6032481916721993 0.3165471629165565 -0.11876054058296337
0.4407576045779668 0.11393966779150255 -0.11876054058296337
0.42774426737679966 0.5125121193310378 -0.11876054058296337
0.41027237767747554 0.18581998820197068 -0.11876054058296337
0.6215353020314575 0.3132560869190454 -0.11745216174603243
0.325932264958388 0.32556491243878827 -0.11745216174603243
0.3614799115125428 0.25885772066049323 -0.11674765006460806
0.597048488875665 0.26288350169720376 -0.11674765006460806
0.628670998919027 0.2964887089011457 -0.11674765006460806
0.6255006963526174 0.30028300752824555 -0.11674765006460806
0.3586115425238865 0.2629136950549791 -0.11674765006460806
0.6156777906230435 0.36842941602716467 -0.11674765006460806
0.3666832335024914 0.3329421561885604 -0.11674765006460806
0.5685057013253867 0.17259529749637623 -0.11674765006460806
0.49825582223478626 0.08106916562676025 -0.11543927122767712
0.38549369539652173 0.19421374166351238 -0.11473475954625276
0.3935653863751265 0.17560456882131747 -0.11473475954625276
0.4107454069492891 0.49818033884034785 -0.11473475954625276
0.34131074851862264 0.283817563088099 -0.11473475954625276
0.5890271201600191 0.4626226278336014 -0.11473475954625276
0.5662311350396452 0.14557224228745627 -0.11473475954625276
0.36571704605368077 0.4472139509155914 -0.11473475954625276
0.412999844329847 0.16655662594131035 -0.11473475954625276
0.6175598432577056 0.3191840494956019 -0.11342638070932179
0.33918714902175784 0.2062608914158688 -0.11342638070932179
0.4059949853259705 0.17464844582509872 -0.11272186902789742
0.57537972244557 0.16902241682629565 -0.11272186902789742
0.3573232925921391 0.26194750760616853 -0.11272186902789742
0.6266782373058553 0.2646649098059483 -0.11272186902789742
0.3651735656137248 0.2703815188780774 -0.11272186902789742
0.6094076366583665 0.3182480554045667 -0.11272186902789742
0.4100006374574977 0.49451687809694145 -0.11272186902789742
0.5568611296767012 0.16941493047737494 -0.11272186902789742
0.3899421834420869 0.15324135516239 -0.11141349019096648
0.557857510483287 0.11346663851968894 -0.11141349019096648
0.36827341701199207 0.23508548363871692 -0.11070897850954212
0.5249769438659531 0.5086171761780202 -0.11070897850954212
0.6272418466509945 0.28394840097179214 -0.11070897850954212
0.6066902344585869 0.2311804760331077 -0.11070897850954212
0.33899592442251403 0.2850554907568876 -0.11070897850954212
0.6053415978112888 0.43583105503429215 -0.11070897850954212
0.6008427875027647 0.4002028928594032 -0.11070897850954212
0.4347692552858598 0.14773609959468814 -0.11070897850954212
0.325932264958388 0.32556491243878827 -0.10940059967261118
0.49825582223478626 0.07906633956099673 -0.10940059967261118
0.4054816982437899 0.19430432173683837 -0.10869608799118681
0.600198662536891 0.42879600267264034 -0.10869608799118681
0.6277450692805835 0.2870885101804264 -0.10869608799118681
0.5861889445291382 0.19101324573932746 -0.10869608799118681
0.34475279130501024 0.25244666435953156 -0.10869608799118681
0.5819518099880001 0.4854991285747095 -0.10869608799118681
0.6000577602006062 0.329671209096233 -0.10869608799118681
0.4912912210412769 0.12413495826697211 -0.10869608799118681
0.5397414958180893 0.1328205808536753 -0.10869608799118681
0.36278829034947385 0.19300600735249915 -0.10738770915425587
0.6175598432577056 0.16649623922575968 -0.10738770915425587
0.3821623615886437 0.2047512235271024 -0.1066831974728315
0.5677911251913705 0.1576898432079552 -0.1066831974728315
0.5548482391583459 0.14264348658324918 -0.1066831974728315
0.36361357546199946 0.26778489010939904 -0.1066831974728315
0.4835315280930172 0.08615171418560737 -0.1066831974728315
0.4252684120392227 0.5102375530452963 -0.1066831974728315
0.639832476843307 0.29657928897447167 -0.1066831974728315
0.33254461031118515 0.29671012685816484 -0.1066831974728315
0.45840058997135114 0.12344051103813951 -0.1066831974728315
0.557857510483287 0.12011924168285326 -0.10617997484324267
0.5679420919802473 0.11347670297228077 -0.10537481863590056
0.37966637734588304 0.20062479796447405 -0.1046703069544762
0.5333807617800865 0.14528037316229467 -0.1046703069544762
0.6019096194774931 0.428494069094887 -0.1046703069544762
0.4269894334324164 0.12781854791556232 -0.1046703069544762
0.47098115571107185 0.09224070800363222 -0.1046703069544762
0.6023222620337559 0.44179927542121566 -0.1046703069544762
0.5537008915628834 0.12563456170314682 -0.1046703069544762
0.38613782036239536 0.49102451304759487 -0.1046703069544762
0.47822756157715096 0.10635107053730297 -0.1046703069544762
0.620881112612992 0.37858444869226704 -0.10336192811754523
0.325932264958388 0.24602554360597806 -0.10336192811754523
0.4520599848385318 0.1377722915288294 -0.10265741643612086
0.576366038799564 0.21689901780537665 -0.10265741643612086
0.44223707910895793 0.15760932758722102 -0.10265741643612086
0.4211218575714107 0.1300528563909368 -0.10265741643612086
0.6082099667999451 0.39915618978985845 -0.10265741643612086
0.5559754578486248 0.12750654988521734 -0.10265741643612086
0.5729743182761355 0.49794885643073705 -0.10265741643612086
0.4221182383779966 0.5035648209769485 -0.10265741643612086
0.49401868769364843 0.1205419486917079 -0.10265741643612086
0.39221674972782844 0.12673158703565057 -0.10134903759918992
0.6573244954478147 0.3653295646288974 -0.10134903759918992
0.4001374739175566 0.19637759897074422 -0.10064452591776556
0.46452984159974303 0.10012117438299328 -0.10064452591776556
0.36408660473381294 0.4171313021187714 -0.10064452591776556
0.3697931493533503 0.2003027354815371 -0.10064452591776556
0.5251279106548297 0.14488785951121536 -0.10064452591776556
0.3481747051862143 0.23982584080944372 -0.10064452591776556
0.5294254319115184 0.14288503344545184 -0.10064452591776556
0.3426493207133289 0.25720715043544184 -0.10064452591776556
0.4601819980800955 0.10819286536159801 -0.10064452591776556
0.6307140827951577 0.3653295646288974 -0.09933614708083462
0.40593459861041986 0.12673158703565057 -0.09933614708083462
0.38905651161401067 0.23114021822274056 -0.09863163539941025
0.355843818061148 0.3673323906946609 -0.09863163539941025
0.5673986115402913 0.1877322341944082 -0.09863163539941025
0.37576136974027385 0.18165330482897518 -0.09863163539941025
0.5755608825922219 0.4954830655457517 -0.09863163539941025
0.3919349450552588 0.23232782362857013 -0.09863163539941025
0.4995642010717172 0.0977358991187423 -0.09863163539941025
0.6019398128352684 0.2263394743364631 -0.09863163539941025
0.6440696113844452 0.35547646554154816 -0.09732325656247931
0.5115107062981561 0.060447102266210015 -0.09732325656247931
0.6268996552628742 0.2788356590551697 -0.09661874488105494
0.45087237943270225 0.10874641025414579 -0.09661874488105494
0.3833298380892898 0.18421974023987817 -0.09661874488105494
0.5336927598104315 0.5132266954650538 -0.09661874488105494
0.421152050929186 0.16573134082878474 -0.09661874488105494
0.36120817129256483 0.30285950739174033 -0.09661874488105494
0.6062172051867735 0.2605284197907281 -0.09661874488105494
0.565023400728632 0.20210427249546511 -0.09661874488105494
0.6307140827951577 0.36209887534693713 -0.095310366044124
0.5474508665033901 0.11433218144258185 -0.095310366044124
0.325932264958388 0.25608999619775463 -0.095310366044124
0.6211830461907453 0.34028920658055734 -0.09460585436269964
0.44330391108368633 0.15867615956194928 -0.09460585436269964
0.3565885875529395 0.34105410497753225 -0.09460585436269964
0.6162413999681828 0.309582561723047 -0.09460585436269964
0.39423970469877556 0.15416728480083344 -0.09460585436269964
0.373949768273754 0.25970313467820233 -0.09460585436269964
0.4832698523256309 0.10343237928568771 -0.09460585436269964
0.5681131876743074 0.16117214380470993 -0.09460585436269964
0.6239507706534836 0.3205930728584507 -0.09410263173311081
0.637276105884996 0.2592804276693477 -0.09329747552576867
0.5094877513272089 0.12208180993824976 -0.09329747552576867
0.325932264958388 0.25587864269332733 -0.09329747552576867
0.6217265266307013 0.3355991716727895 -0.0925929638443443
0.4245840292629819 0.1685695164596657 -0.0925929638443443
0.3704875965821829 0.4602977392849011 -0.0925929638443443
0.5713036191459004 0.1857193436760529 -0.0925929638443443
0.3525728709688206 0.2845321392221151 -0.0925929638443443
0.5518993545489553 0.1753328286013395 -0.0925929638443443
0.5013254802752781 0.09348870012501248 -0.0925929638443443
0.608934607386553 0.2211965390620653 -0.0925929638443443
0.6306637605321986 0.2871086390856099 -0.0925929638443443
0.325932264958388 0.24283511213438483 -0.09128458500741336
0.5115107062981561 0.1248998566639472 -0.09128458500741336
0.6411307912276464 0.2592804276693477 -0.09128458500741336
0.605563015768308 0.28360620958367166 -0.090580073325989
0.3868222031386362 0.2360516710875275 -0.090580073325989
0.49297198462410363 0.5170612519025207 -0.090580073325989
0.4619935995466154 0.13472276239352113 -0.090580073325989
0.3491610215402084 0.3678154844190662 -0.090580073325989
0.6017385237834328 0.3993071565787351 -0.090580073325989
0.49310282250779663 0.08767144652696574 -0.090580073325989
0.5946934069691894 0.19243233355476785 -0.090580073325989
0.6369238500442838 0.2675332787946046 -0.090580073325989
0.325932264958388 0.23277065954260825 -0.08927169448905806
0.4922976663004546 0.07113555091867685 -0.08927169448905806
0.39453157382393705 0.16595275878580373 -0.08856718280763369
0.3977924564636727 0.4967612510249075 -0.08856718280763369
0.588443381909696 0.23185479435675665 -0.08856718280763369
0.3522206151281085 0.2378230147436802 -0.08856718280763369
0.6280268739531532 0.3637393811193967 -0.08856718280763369
0.37304396754049407 0.2185193946726527 -0.08856718280763369
0.6037413498491965 0.3636890588564378 -0.08856718280763369
0.526607385185821 0.10001046540448379 -0.08856718280763369
0.627412942345055 0.2594414589108162 -0.08856718280763369
0.6239205772957084 0.37858444869226704 -0.08806396017804485
0.40025824734865795 0.1350850826868251 -0.08725880397070275
0.6308147273210754 0.21951577547923862 -0.08725880397070275
0.6273022333665452 0.2559792872192451 -0.08655429228927838
0.39928199544725557 0.15921964000190525 -0.08655429228927838
0.4030762940743554 0.5012600613334316 -0.08655429228927838
0.6088339628606354 0.27748702240787165 -0.08655429228927838
0.3959909194497446 0.15671359130655294 -0.08655429228927838
0.6132119997380582 0.39779748868996856 -0.08655429228927838
0.36400608911307875 0.2559893516718368 -0.08655429228927838
0.6208307903500332 0.3444860833113282 -0.08655429228927838
0.45586434791822333 0.09309618647393317 -0.08655429228927838
0.6308147273210754 0.3820667492890218 -0.08524591345234744
0.4452362859813073 0.07370198632957982 -0.08524591345234744
0.3288811495677786 0.3123100283754185 -0.08524591345234744
0.5790834409993438 0.18117021110456988 -0.08454140177092308
0.623940706200892 0.3561004616022383 -0.08454140177092308
0.3993423821628062 0.21365826407082472 -0.08454140177092308
0.48282701641159276 0.5171317030706633 -0.08454140177092308
0.46396623225460354 0.13307219216846974 -0.08454140177092308
0.3905963728605524 0.50187399294153 -0.08454140177092308
0.4047570576571821 0.49898549504769013 -0.08454140177092308
0.5226621197698443 0.10214412935394031 -0.08454140177092308
0.334084471557727 0.3520746805655277 -0.08403817914133425
0.5401742672795357 0.1399864710990202 -0.08323302293399211
0.334356211777705 0.32556491243878827 -0.08323302293399211
0.619703571659754 0.2798320398617555 -0.08252851125256774
0.623266387877243 0.3510078485907993 -0.08252851125256774
0.3569307789410598 0.26520839024590426 -0.08252851125256774
0.5953475963876548 0.4768336348931898 -0.08252851125256774
0.39521595660017783 0.21306446136790977 -0.08252851125256774
0.5265973207332291 0.5247605581352299 -0.08252851125256774
0.43510138222138844 0.15783074554424004 -0.08252851125256774
0.5138456592994483 0.09514933480265567 -0.08252851125256774
0.33918714902175784 0.21632534400764536 -0.08202528862297895
0.5380305388774872 0.1399864710990202 -0.08202528862297895
0.5771711950069064 0.21677824437427531 -0.08051562073421244
0.3429009320281234 0.27050229230917866 -0.08051562073421244
0.6124269724358996 0.4319361118812746 -0.08051562073421244
0.35761516171730057 0.2613335759980702 -0.08051562073421244
0.5982864165444536 0.4804568378262294 -0.08051562073421244
0.37780445361640436 0.23767204795480354 -0.08051562073421244
0.613624642294321 0.2559692227666533 -0.08051562073421244
0.49222721513231205 0.0856585560086104 -0.08051562073421244
0.33928779354767546 0.3520746805655277 -0.0800123981046236
0.45251288520516175 0.12038091745023956 -0.0792072418972815
0.6347297993792763 0.3897861844269145 -0.0792072418972815
0.5356150702554608 0.5153905527722858 -0.07850273021585713
0.4726719837464902 0.13111968836566507 -0.07850273021585713
0.37109146373768953 0.4714793461143647 -0.07850273021585713
0.5259129379569882 0.13713823101554745 -0.07850273021585713
0.34944282621277806 0.3974854906596234 -0.07850273021585713
0.6196331204916115 0.2353773527638784 -0.07850273021585713
0.36043320844299803 0.3914770124623329 -0.07850273021585713
0.5173178954436111 0.10219445161689929 -0.07850273021585713
0.328277282412272 0.3435802825780682 -0.0779995075862683
0.4525330141103454 0.11998840379916026 -0.07719435137892619
0.6308147273210754 0.39024914924613613 -0.07719435137892619
0.5685560235883456 0.20402658294049447 -0.07648983969750182
0.3590141206275576 0.26743263426868674 -0.07648983969750182
0.4920057971752931 0.520030265417095 -0.07648983969750182
0.42415125780153545 0.15905860876043676 -0.07648983969750182
0.4462427312404851 0.523633339444951 -0.07648983969750182
0.5993532485191818 0.199095001170524 -0.07648983969750182
0.6239105128431166 0.22411523031368044 -0.07648983969750182
0.35076126950230074 0.3252831077662185 -0.07648983969750182
0.629033319212331 0.21951577547923862 -0.07598661706791299
0.5434552788244548 0.1399864710990202 -0.07518146086057088
0.325932264958388 0.33881979650215793 -0.07518146086057088
0.6088339628606354 0.24082222161602962 -0.07447694917914652
0.45770614274251853 0.145219986446744 -0.07447694917914652
0.36006082369710235 0.42850413354747885 -0.07447694917914652
0.617670552236215 0.3194658541681716 -0.07447694917914652
0.36253667903467934 0.2110515708495546 -0.07447694917914652
0.6368634633287331 0.37201236114983705 -0.07447694917914652
0.37402021944189645 0.18078776190608242 -0.07447694917914652
0.3592858608475356 0.32689342018090267 -0.07447694917914652
0.4852424850336192 0.0915060029644326 -0.07447694917914652
0.6371251390961193 0.3547920827653074 -0.07316857034221555
0.4019289464788928 0.12673158703565057 -0.07316857034221555
0.6168452671236895 0.2400070009560957 -0.07246405866079118
0.3505901738082406 0.2562610918918148 -0.07246405866079118
0.629294994979717 0.3740554450259677 -0.07246405866079118
0.46802220664908945 0.1338169616602612 -0.07246405866079118
0.3544247302457075 0.3756456285354684 -0.07246405866079118
0.621424593052948 0.3800941165810336 -0.07246405866079118
0.4152140239000378 0.134098766332831 -0.07246405866079118
0.5599509166223765 0.5062520298189529 -0.07246405866079118
0.48088457706137994 0.08847660273430784 -0.07246405866079118
0.325932264958388 0.366064269668097 -0.07196083603120239
0.45257327192071245 0.12089420453242003 -0.07115567982386024
0.6428115548104731 0.3653295646288974 -0.07115567982386024
0.5879200303749237 0.16414115731928403 -0.07045116814243588
0.5505305889964738 0.16872048324854233 -0.07045116814243588
0.364851503130788 0.27541374517396566 -0.07045116814243588
0.43483970645400216 0.5210769684866395 -0.07045116814243588
0.631317949950664 0.3571169713140077 -0.07045116814243588
0.44343474896737933 0.1508158220877719 -0.07045116814243588
0.4760737687225108 0.14000660000420373 -0.07045116814243588
0.38310842013227064 0.17319916465188284 -0.07045116814243588
0.31854495675602407 0.37858444869226704 -0.06994794551284704
0.4187265178545679 0.10021175445631927 -0.06914278930550494
0.5707601387059447 0.12673158703565057 -0.06914278930550494
0.6265977216851208 0.24666966857185169 -0.06843827762408057
0.5265469984702702 0.09765538349800798 -0.06843827762408057
0.5795765991763409 0.4972946670122716 -0.06843827762408057
0.5945122468225373 0.23939306934799726 -0.06843827762408057
0.3920758473915436 0.2201095781821534 -0.06843827762408057
0.5078069877443822 0.5298330422414852 -0.06843827762408057
0.4853230006543534 0.13893976802947547 -0.06843827762408057
0.35923553858457663 0.22986203274358497 -0.06843827762408057
0.3288811495677786 0.37858444869226704 -0.06793505499449173
0.6175598432577056 0.19300600735249915 -0.06793505499449173
0.4277543318293915 0.10021175445631927 -0.06712989878714963
0.5630608324732356 0.10021175445631927 -0.06712989878714963
0.4117921100188339 0.14756500390062796 -0.06642538710572526
0.4937570119262621 0.07898582394026257 -0.06642538710572526
0.6107361444004811 0.4356700237928238 -0.06642538710572526
0.5569617742026189 0.1774966859085715 -0.06642538710572526
0.35170732804592786 0.3119074502717473 -0.06642538710572526
0.5680528009587568 0.5163668046736882 -0.06642538710572526
0.5934152214900336 0.47374384794751456 -0.06642538710572526
0.6107965311160317 0.21386961757525189 -0.06642538710572526
0.4187265178545679 0.11346663851968894 -0.06592216447613644
0.6379806175664202 0.3520746805655277 -0.06511700826879432
0.4187265178545679 0.09680996948029873 -0.06511700826879432
0.5571228054440874 0.13725900444664876 -0.06441249658736997
0.49210644170121076 0.08297134716660595 -0.06441249658736997
0.6117627185648423 0.28899069172027225 -0.06441249658736997
0.38490995714619863 0.24110402628859928 -0.06441249658736997
0.46679434343289267 0.5247907514930051 -0.06441249658736997
0.619522411513102 0.28753134609446457 -0.06441249658736997
0.34650400605597925 0.3122194483020925 -0.06441249658736997
0.620961628233726 0.37459892546592366 -0.06441249658736997
0.38781858394522206 0.16578166309174358 -0.06441249658736997
0.5318409005335447 0.12110555803684735 -0.06390927395778113
0.5318409005335447 0.12574527068165633 -0.06310411775043899
0.36570698160108894 0.17410496538514275 -0.06310411775043899
0.3743624108300168 0.21402058436412855 -0.062399606069014624
0.5006209685938537 0.0781404099225533 -0.062399606069014624
0.3878286483978139 0.49608693270125837 -0.062399606069014624
0.5246347524778325 0.5274175736194587 -0.062399606069014624
0.5861889445291382 0.2216796327864706 -0.062399606069014624
0.325751104811736 0.3712776561106373 -0.062399606069014624
0.6275840380391151 0.38855832121071776 -0.062399606069014624
0.5680427365061649 0.1500811170485721 -0.062399606069014624
0.38092443391985514 0.15324135516239 -0.06189638343942583
0.38092443391985514 0.15546559918517253 -0.061091227232083684
0.5910500751309661 0.15324135516239 -0.061091227232083684
0.3754191783521534 0.48023541986921037 -0.06038671555065932
0.6307140827951577 0.38155346220684117 -0.06038671555065932
0.425208025323672 0.1741552876481016 -0.06038671555065932
0.430028898115133 0.5268740931795028 -0.06038671555065932
0.6176101655206644 0.2774467645975045 -0.06038671555065932
0.613171741927691 0.3722639724646314 -0.06038671555065932
0.37529840492105204 0.18618230849527467 -0.06038671555065932
0.5006209685938537 0.08254864015775146 -0.06038671555065932
0.4862187369350215 0.08921130777350747 -0.06038671555065932
0.3789618656644588 0.15616004641400516 -0.05988349292107049
0.5115107062981561 0.060447102266210015 -0.05907833671372838
0.40988992847898803 0.20359381147904815 -0.05837382503230402
0.47313494856571203 0.5241768198849067 -0.05837382503230402
0.3579976109157882 0.4555775110193578 -0.05837382503230402
0.6071431348252169 0.3500617900471724 -0.05837382503230402
0.34639329707746974 0.32212286965240056 -0.05837382503230402
0.5662110061344615 0.20876694011122127 -0.05837382503230402
0.4350913177687966 0.11265141785975515 -0.05837382503230402
0.5550797215679567 0.14061046715971035 -0.05837382503230402
0.451828502428921 0.1122387753034922 -0.05837382503230402
0.31267738089501834 0.37858444869226704 -0.05706544619537307
0.575067724415225 0.12673158703565057 -0.05706544619537307
0.3909989509642235 0.5002636805268458 -0.05636093451394871
0.6208106614448495 0.3802048255595431 -0.05636093451394871
0.406156016567439 0.20222504592656645 -0.05636093451394871
0.5986084790273903 0.49027974355580345 -0.05636093451394871
0.5468369348952917 0.160085182924798 -0.05636093451394871
0.40689072160663864 0.21185672705689668 -0.05636093451394871
0.4175590413539218 0.13417928195356515 -0.05636093451394871
0.4751780324418427 0.08963401478236209 -0.05636093451394871
0.37772393799567017 0.20690501638174258 -0.05636093451394871
0.3156967166725513 0.3828920344015475 -0.05505255567701777
0.5247756548141176 0.12673158703565057 -0.05505255567701777
0.3817799123901562 0.49168876691865215 -0.054348043995593405
0.6119841365218613 0.37052282216625415 -0.054348043995593405
0.43730549733898744 0.1612526594254441 -0.054348043995593405
0.49060683826503615 0.5352678466410445 -0.054348043995593405
0.6158690152222871 0.271025643843951 -0.054348043995593405
0.5574549323796161 0.513136115391728 -0.054348043995593405
0.38808025971260823 0.16557030958731625 -0.054348043995593405
0.49052632264430185 0.08540694469381592 -0.054348043995593405
0.39111972439532483 0.18273020125629527 -0.054348043995593405
0.33090410453872565 0.3429361576121946 -0.05303966515866243
0.5777951910675965 0.1329010964744096 -0.05303966515866243
0.35093236519636106 0.3695666991700354 -0.052335153477238064
0.6306235027218315 0.38620323930424194 -0.052335153477238064
0.4690991030764097 0.13583991663120823 -0.052335153477238064
0.43594679623909754 0.5302356203451563 -0.052335153477238064
0.6180328725295191 0.27601761232947225 -0.052335153477238064
0.3515261678992759 0.3601061137337653 -0.052335153477238064
0.5424689624704607 0.1796605432158035 -0.052335153477238064
0.41421764309345205 0.14397199432536376 -0.052335153477238064
0.5092160111072309 0.08283044483032112 -0.052335153477238064
0.45849117004467715 0.060447102266210015 -0.051026774640307124
0.39221674972782844 0.13552791860086322 -0.051026774640307124
0.6162212710629992 0.3228575746916003 -0.05032226295888276
0.6121250388581463 0.4052351191552915 -0.05032226295888276
0.4718970208969234 0.13495424480313195 -0.05032226295888276
0.5078573100073411 0.5366466766461179 -0.05032226295888276
0.5916136844761056 0.22115628125169814 -0.05032226295888276
0.4803712899791993 0.14060040270711865 -0.05032226295888276
0.39461208944467124 0.5006360652727413 -0.05032226295888276
0.3958500171134598 0.1547007007881976 -0.05032226295888276
0.504797716419441 0.08430991936131234 -0.05032226295888276
0.5777951910675965 0.12673158703565057 -0.04981904032929393
0.5483667316892418 0.10671339083060695 -0.04901388412195182
0.6480148768004216 0.3839890597340511 -0.04901388412195182
0.41918948267378964 0.1947370931982847 -0.04830937244052746
0.449574065048363 0.530205426987381 -0.04830937244052746
0.5930227078389543 0.22840268711777725 -0.04830937244052746
0.3521702928651495 0.4559901535756206 -0.04830937244052746
0.6026644534218762 0.23631334685491365 -0.04830937244052746
0.36432815159601556 0.3319357109293828 -0.04830937244052746
0.4548176448486786 0.16147407738246322 -0.04830937244052746
0.5003089705635088 0.08603094075450604 -0.04830937244052746
0.6018894905723094 0.18332400395921006 -0.04830937244052746
0.41214436585954606 0.11541914232249362 -0.04780614981093862
0.5380305388774872 0.07370198632957982 -0.04700099360359651
0.41305016659280597 0.20293962206058255 -0.04629648192217215
0.40769587781398076 0.5136393380213167 -0.04629648192217215
0.6168855249340565 0.2830023424281651 -0.04629648192217215
0.3296762413225289 0.370663724502539 -0.04629648192217215
0.34794322277660333 0.33069778326059424 -0.04629648192217215
0.6107562733056646 0.36670839463397076 -0.04629648192217215
0.606015916134938 0.41098192158519586 -0.04629648192217215
0.5491920168017675 0.127697774484461 -0.04629648192217215
0.39335403287069914 0.14572320907633293 -0.04629648192217215
0.3314979072416404 0.3403596577486998 -0.04498810308524121
0.5422475445134416 0.08695687039294948 -0.04498810308524121
0.3667939424810009 0.3320967421708511 -0.044283591403816845
0.3331283485615083 0.37350190013341994 -0.044283591403816845
0.6351625708407227 0.3960160805812242 -0.044283591403816845
0.617177394059218 0.40834503500615044 -0.044283591403816845
0.4211822442869613 0.1829616836659061 -0.044283591403816845
0.4735475911219748 0.1481889999613181 -0.044283591403816845
0.6019297483826767 0.3564728463481341 -0.044283591403816845
0.5598804654542342 0.14009718007752972 -0.044283591403816845
0.40345874327284287 0.1327300007803493 -0.044283591403816845
0.5370442225234932 0.09498830356118719 -0.04297521256688587
0.3496944375275725 0.34502956375128413 -0.04297521256688587
0.6142184449972359 0.364131894770476 -0.042270700885461504
0.3622548743621097 0.33072797661836956 -0.042270700885461504
0.6013661390375371 0.482459663891993 -0.042270700885461504
0.4970883457341402 0.13541720962235373 -0.042270700885461504
0.45326771914954506 0.5364353231416907 -0.042270700885461504
0.497732470700014 0.5287762747193488 -0.042270700885461504
0.49466281265952206 0.147202683607324 -0.042270700885461504
0.49142205892496993 0.08468230410720798 -0.042270700885461504
0.5636043129131916 0.12673158703565057 -0.042270700885461504
0.5083202748265628 0.07351076173033601 -0.040962322048530564
0.4941998478403004 0.532731604587917 -0.040257810367106205
0.5936668328048281 0.2342803274313748 -0.040257810367106205
0.48424610422703335 0.1375911313821774 -0.040257810367106205
0.37421144404114015 0.4914874778668165 -0.040257810367106205
0.367146198321713 0.48724027887308685 -0.040257810367106205
0.6238601905801577 0.3025877671717624 -0.040257810367106205
0.48466881123588795 0.14622643170592173 -0.040257810367106205
0.4456891863479373 0.1057069455714292 -0.040257810367106205
0.5834413489715831 0.15402638246454847 -0.040257810367106205
0.3139958241845411 0.37858444869226704 -0.03894943153017526
0.43198140191793766 0.08695687039294948 -0.03894943153017526
0.5468369348952917 0.188466939233608 -0.0382449198487509
0.3387644420129032 0.3760180132813641 -0.0382449198487509
0.6352330220088652 0.3791983803003655 -0.0382449198487509
0.3495937930016547 0.3146147880189353 -0.0382449198487509
0.6193915736294091 0.4437920370343875 -0.0382449198487509
0.3632210618109201 0.394264865830255 -0.0382449198487509
0.5368127401138822 0.18405870899840981 -0.0382449198487509
0.5425192847334195 0.11001453128070969 -0.0382449198487509
0.5311967755676709 0.09495811020341186 -0.0382449198487509
0.47493648557964 0.06204735022830255 -0.03693654101181995
0.42821729664861313 0.19057040982528917 -0.03623202933039559
0.3775327133964264 0.49003819669360077 -0.03623202933039559
0.497188990260058 0.1430360002343285 -0.03623202933039559
0.35428382790942264 0.41458499561305195 -0.03623202933039559
0.6236991593386895 0.3027487984132307 -0.03623202933039559
0.32860940934780064 0.39100398319051943 -0.03623202933039559
0.6127389704662448 0.3129440888887004 -0.03623202933039559
0.4188070334753022 0.1289860244162084 -0.03623202933039559
0.4846285534255208 0.06977684981878696 -0.03623202933039559
0.5170260263184496 0.07463798042061508 -0.03492365049346465
0.3357853640457373 0.33881979650215793 -0.03492365049346465
0.6168251382185058 0.33358628115443417 -0.034219138812040285
0.35407247440499534 0.31099158508589575 -0.034219138812040285
0.5773422907009665 0.5141526251034975 -0.034219138812040285
0.516734157193288 0.14754487499544447 -0.034219138812040285
0.3791530902637024 0.5048731998138795 -0.034219138812040285
0.4414520518067995 0.18560863469754338 -0.034219138812040285
0.42623459948803327 0.12180000526567995 -0.034219138812040285
0.48560480532692324 0.06957556076695147 -0.034219138812040285
0.4952566153624368 0.1295798271191232 -0.03291075997510931
0.36778025883499493 0.2687410131056178 -0.032206248293684944
0.42141372669657234 0.5220028981250832 -0.032206248293684944
0.6009736253864578 0.23595102656160968 -0.032206248293684944
0.32725070824791075 0.3817044289957178 -0.032206248293684944
0.6396211233388799 0.3874311025204387 -0.032206248293684944
0.49990639245983765 0.5309401320265807 -0.032206248293684944
0.46467074393602786 0.16793545594638373 -0.032206248293684944
0.43309855615562476 0.1159928161202249 -0.032206248293684944
0.3474299356944227 0.34072197804200377 -0.03170302566409615
0.36310028837981884 0.3418995189952415 -0.03019335777532964
0.5020501208618859 0.5342714658344587 -0.03019335777532964
0.5540732763087791 0.19314690968878398 -0.03019335777532964
0.31787063843237495 0.38911186610326537 -0.03019335777532964
0.6377893929671764 0.3950901509427806 -0.03019335777532964
0.3668442647439597 0.3391821167954619 -0.03019335777532964
0.4461018289042001 0.10571701002402102 -0.03019335777532964
0.49092890074797296 0.08800357346249424 -0.03019335777532964
0.3276130285412147 0.3907725007809086 -0.02818046725697434
0.61033356629681 0.4557989289763769 -0.02818046725697434
0.497410408217077 0.14523005089933583 -0.02818046725697434
0.3530257713354506 0.4249513817825818 -0.02818046725697434
0.6096793768783445 0.24283511213438483 -0.02818046725697434
0.3382612193833144 0.38972579771136384 -0.02818046725697434
0.362687645823556 0.34060120461090243 -0.02818046725697434
0.49012374454063085 0.06994794551284711 -0.02818046725697434
0.5036906266343457 0.12673158703565057 -0.026872088420043395
0.599524344213242 0.2399164208827697 -0.026167576738619032
0.3507813984074844 0.36442376389563746 -0.026167576738619032
0.5984776411436972 0.49259456765191206 -0.026167576738619032
0.4613494745807416 0.1586962884671328 -0.026167576738619032
0.4946930060172974 0.544215144995134 -0.026167576738619032
0.4983765956658876 0.1526374880068834 -0.026167576738619032
0.4802907743584651 0.08418914593021101 -0.026167576738619032
0.31267738089501834 0.38613278813609947 -0.02485919790168809
0.6213138840744381 0.37241493925350805 -0.02415468622026373
0.41464035010230665 0.20199356351695563 -0.02415468622026373
0.3800085687340035 0.501551930458593 -0.02415468622026373
0.585071790291451 0.21170576026802004 -0.02415468622026373
0.35044927147195576 0.39361067641178954 -0.02415468622026373
0.4963234473371652 0.07973059343205402 -0.02415468622026373
0.4824345027605135 0.08734938404402878 -0.02415468622026373
0.356518136384797 0.3491660537665043 -0.022141795701908388
0.5936567683522362 0.4940237199199443 -0.022141795701908388
0.5225614752439267 0.15781061663905652 -0.022141795701908388
0.3453264651027415 0.3863038838301598 -0.022141795701908388
0.6270606865043429 0.359804180156012 -0.022141795701908388
0.3380297369737034 0.364131894770476 -0.022141795701908388
0.4836221081663432 0.07873421262546809 -0.022141795701908388
0.5016274138530314 0.13098885048197192 -0.020833416864977444
0.480029098591079 0.1570859760524486 -0.02012890518355308
0.3583800601142757 0.4145044799923176 -0.02012890518355308
0.6281879051946218 0.38367706170370597 -0.02012890518355308
0.39498447419056704 0.20912926040452523 -0.02012890518355308
0.5691296973860768 0.5268539642743194 -0.02012890518355308
0.4942501701032592 0.15071517756185407 -0.02012890518355308
0.4835113991878336 0.08626242316411702 -0.02012890518355308
0.36099681778813764 0.3033426011161455 -0.01811601466519778
0.5481251848270391 0.5275484115031519 -0.01811601466519778
0.527503121466489 0.17559450436872565 -0.01811601466519778
0.33273583491042896 0.3757060152510191 -0.01811601466519778
0.6278054559961341 0.37730626321311145 -0.01811601466519778
0.335030530101354 0.36313551396389004 -0.01811601466519778
0.4908886429376058 0.0692534982840145 -0.01811601466519778
0.33918714902175784 0.3484212842747127 -0.016807635828266835
0.3552097575478661 0.35923050635828085 -0.016103124146842472
0.6238199327697908 0.39657968992636367 -0.016103124146842472
0.4604939961104407 0.17145801435350547 -0.016103124146842472
0.5600616256008861 0.5319868350961254 -0.016103124146842472
0.4668647946010352 0.1532514196149817 -0.016103124146842472
0.4275228494197807 0.20493238367375438 -0.016103124146842472
0.6421573653920076 0.38199629812087943 -0.01479474530991153
0.6143090250705617 0.4181276829253572 -0.01409023362848717
0.49832627340292873 0.15060446858334456 -0.01409023362848717
0.3532773826502449 0.4282323933275009 -0.01409023362848717
0.6079281621273754 0.24669986192962703 -0.01409023362848717
0.3203968160329109 0.39661994773673065 -0.01409023362848717
0.5968975220867884 0.22341071863225614 -0.01409023362848717
0.41344268024388525 0.21082008843994363 -0.01409023362848717
0.479797616181468 0.12673158703565057 -0.01278185479155619
0.41096682490630815 0.5209662595081301 -0.012077343110131828
0.6113299471033959 0.27104577274913466 -0.012077343110131828
0.36310028837981884 0.2742261397681359 -0.012077343110131828
0.6226121984587775 0.4389107775273759 -0.012077343110131828
0.44514570590798136 0.18106956657865209 -0.012077343110131828
0.6227631652476541 0.4129646187457759 -0.012077343110131828
0.6567407571974917 0.39183933275563687 -0.01157412048054303
0.46834426913202637 0.12673158703565057 -0.010768964273200886
0.49862820698068205 0.15240600559727244 -0.010064452591776523
0.33881476427586205 0.3815836555646165 -0.010064452591776523
0.6290433836649225 0.35782148299543215 -0.010064452591776523
0.632324395209842 0.39460705721837547 -0.010064452591776523
0.42536905656514035 0.19544160487970913 -0.010064452591776523
0.5525032217044619 0.5239050796649288 -0.010064452591776523
0.5179116981465259 0.1434486427905913 -0.009561229962187688
0.47350733331160766 0.1382553852532347 -0.008756073754845582
0.6118331697329848 0.46062986622042956 -0.008051562073421219
0.49098928746352366 0.13951344182720676 -0.008051562073421219
0.3852823418920944 0.5089694320187323 -0.008051562073421219
0.6215051086736819 0.45393700524689823 -0.008051562073421219
0.4576658849321514 0.17408483647995926 -0.008051562073421219
0.6283288075309065 0.3800941165810336 -0.008051562073421219
0.4954075821513135 0.1496684744923093 -0.008051562073421219
0.5165228036888607 0.1580823568590345 -0.006038671555065914
0.3406666235527489 0.3798928275291981 -0.006038671555065914
0.6170062983651579 0.28011384453432525 -0.006038671555065914
0.35910470070088363 0.2928353126103308 -0.006038671555065914
0.6366420453717141 0.3929363580881404 -0.006038671555065914
0.37937450822072155 0.22702385711270387 -0.006038671555065914
0.5134028233854099 0.1772249456885935 -0.006038671555065914
0.6118935564485355 0.4457546052897839 -0.006038671555065914
0.49108993198944134 0.1345114088890938 -0.004025781036710609
0.3443401487487474 0.38480428039398507 -0.004025781036710609
0.6487294529344376 0.39630794970638566 -0.004025781036710609
0.35817877106244017 0.28069758278464824 -0.004025781036710609
0.6150940523727203 0.4772764708072281 -0.004025781036710609
0.47364823564789266 0.18043550606537026 -0.004025781036710609
0.5194817527508431 0.1594712513166997 -0.004025781036710609
0.37420137958854843 0.4906722572068826 -0.002012890518355269
0.6208307903500332 0.35674458656811203 -0.002012890518355269
0.45929632625201927 0.18180427161785184 -0.002012890518355269
0.5590652447943002 0.5340701767826231 -0.002012890518355269
0.4853129362017616 0.127697774484461 -0.002012890518355269
0.3804916624584088 0.2504035804834009 -0.002012890518355269
0.5012952869175028 0.14189871709145774 -0.002012890518355269
0.3287905694944526 0.36897289646712045 -0.0015096678887664696
0.6157583062437776 0.4208249562199533 3.575611839244374E-17
0.4652846755441263 0.17120640303871115 3.575611839244374E-17
0.34776206262995135 0.39001766683652533 3.575611839244374E-17
0.6202873099100772 0.28185499483270265 3.575611839244374E-17
0.40988992847898803 0.21437284020484082 3.575611839244374E-17
0.5861688156239545 0.23396832940102968 3.575611839244374E-17
0.6444621250355244 0.3922721042170833 3.575611839244374E-17
0.5392684665462758 0.20104750497332868 0.0020128905183553407
0.3824542307138052 0.23235801698634545 0.0020128905183553407
0.3557230446300467 0.45770111051622264 0.0020128905183553407
0.6159495308430214 0.2661846421473065 0.0020128905183553407
0.4740004914886048 0.15576753276292585 0.0020128905183553407
0.6103235018442184 0.45807349526211844 0.0020128905183553407
0.36741793854169097 0.28334453381628555 0.004025781036710645
0.39652433543710874 0.514303591892374 0.004025781036710645
0.6250578604385791 0.342463128340381 0.004025781036710645
0.4495438716905877 0.18631314637896768 0.004025781036710645
0.34527614283978253 0.3847338292258426 0.004025781036710645
0.6015171058264138 0.47488113109038527 0.004025781036710645
0.5677307384758199 0.2222935643945689 0.004025781036710645
0.4012344992500602 0.21896223058669081 0.00603867155506595
0.3573333570447309 0.420160702348896 0.00603867155506595
0.6195827982286526 0.4497602574213109 0.00603867155506595
0.4674787262091336 0.1523556833343136 0.00603867155506595
0.3693805067970875 0.289987072526858 0.00603867155506595
0.6105851776116045 0.30644245251441277 0.00603867155506595
0.31545516981034866 0.37858444869226704 0.007347050391996928
0.6127993571817955 0.30641225915663745 0.00805156207342129
0.4771506651498309 0.14756500390062796 0.00805156207342129
0.319853335592955 0.39084295194905094 0.00805156207342129
0.6023524553915313 0.5047826197405534 0.00805156207342129
0.40838026059022164 0.5147665567115959 0.00805156207342129
0.5800898862585214 0.2347835500609636 0.00805156207342129
0.5702871094341311 0.2231993651278288 0.010064452591776595
0.3774521977756922 0.24887378368945084 0.010064452591776595
0.3743624108300168 0.5000925848327854 0.010064452591776595
0.6071028770148498 0.25326188501946534 0.010064452591776595
0.5823543880916713 0.5095028480060965 0.010064452591776595
0.4907578050539127 0.14782667966801413 0.010064452591776595
0.4774928565379512 0.17241413734972424 0.0120773431101319
0.33982120953503964 0.36549059587036586 0.0120773431101319
0.6062775919023241 0.4908836107113099 0.0120773431101319
0.4859872545254107 0.13081775478791177 0.0120773431101319
0.4689582007401247 0.19857164963575155 0.0120773431101319
0.4905867093598525 0.14721274805991583 0.0120773431101319
0.600782400787214 0.4930172746607667 0.014090233628487204
0.6025336155381832 0.2571769570776665 0.014090233628487204
0.4995943944294925 0.1332231589573464 0.014090233628487204
0.37284267848865854 0.2547514240030484 0.014090233628487204
0.47606370426991895 0.1855885057923599 0.014090233628487204
0.3338429246955244 0.3691238632559971 0.014090233628487204
0.40028844070643327 0.516920349566236 0.01610312414684251
0.6000175023902391 0.5018639284889382 0.01610312414684251
0.6162615288733665 0.30001126730826755 0.01610312414684251
0.50943742906425 0.13969460197385875 0.01610312414684251
0.3950851187164847 0.23760159678666104 0.01610312414684251
0.5501380753453944 0.22483987090028837 0.01610312414684251
0.6052308888327793 0.4845329411258989 0.018116014665197848
0.6180630658872945 0.3274972873364093 0.018116014665197848
0.5252285551807475 0.19515980020713933 0.018116014665197848
0.4181528440568366 0.20891790690009793 0.018116014665197848
0.58637010467579 0.5059903540515666 0.018116014665197848
0.451919082502247 0.20836436200755012 0.018116014665197848
0.5456895872998293 0.19408290377981924 0.01942439350212879
0.46951174563267245 0.19310665187841697 0.020128905183553154
0.3732855144026967 0.27392420619038277 0.020128905183553154
0.3513148143948486 0.4543093899927939 0.020128905183553154
0.5247655903615257 0.21707011349943695 0.020128905183553154
0.49519622864688617 0.14915518741012868 0.020128905183553154
0.5424488335652772 0.21759346503420926 0.02214179570190846
0.4884429809578042 0.16088027467954844 0.02214179570190846
0.3896100565065583 0.2393326826324466 0.02214179570190846
0.35029830468307915 0.44861290982584845 0.02214179570190846
0.3627480325391067 0.3322376445071361 0.02214179570190846
0.49236811746859704 0.15853525722566444 0.02214179570190846
0.532595734477928 0.22332013855893015 0.02214179570190846
0.4175389124487383 0.22289743155007552 0.024154686220263764
0.35268357994733013 0.3552449831319373 0.024154686220263764
0.3777641958060374 0.5095129124586883 0.024154686220263764
0.35958779442528893 0.36610452747846417 0.024154686220263764
0.5555527508397702 0.5208454860770287 0.024154686220263764
0.6084817070199231 0.4765719591258037 0.02616757673861907
0.6016479437101068 0.2653895503925561 0.02616757673861907
0.5221488326876638 0.19982970620972362 0.02616757673861907
0.4544050022924158 0.2015909854132845 0.02616757673861907
0.3860975625520284 0.2685296596011905 0.02616757673861907
0.536148486242825 0.2217198905968376 0.02616757673861907
0.4232857148786427 0.5272867357357659 0.028180467256974408
0.5755508181396303 0.522274638345061 0.028180467256974408
0.6241218663475441 0.34487859696240747 0.028180467256974408
0.5286303401567679 0.20428825870788062 0.028180467256974408
0.4553812541938182 0.21657695532243984 0.028180467256974408
0.48238418049755466 0.5393540143933059 0.028180467256974408
0.3987586439124832 0.5153502949619189 0.030193357775329714
0.5632520570724793 0.5287460813615733 0.030193357775329714
0.6246552823349082 0.3488238623783838 0.030193357775329714
0.5600716900534778 0.2171003068572123 0.030193357775329714
0.4902445179717322 0.17941899635360084 0.030193357775329714
0.45017793220386965 0.19300600735249915 0.031501736612260654
0.38811045307038355 0.25888791401826855 0.03220624829368502
0.3554211110522934 0.3637494455719885 0.03220624829368502
0.3853427286076451 0.5151691348152668 0.03220624829368502
0.4734670755012407 0.20698553200247674 0.03220624829368502
0.48693331306903764 0.20252697950431975 0.03220624829368502
0.5766075856617667 0.5162158378848115 0.03421913881204036
0.618797770926494 0.34010804643390535 0.03421913881204036
0.5616316802052033 0.21694934006833563 0.03421913881204036
0.4631610760472614 0.22067318752729287 0.03421913881204036
0.5048480386823999 0.1962366966344594 0.03421913881204036
0.5033182418884499 0.18256917001482678 0.036232029330395626
0.430028898115133 0.220894605484312 0.036232029330395626
0.3572025191610378 0.3561004616022383 0.036232029330395626
0.40175785078483267 0.5256965522262651 0.036232029330395626
0.5099607805990224 0.20865623113271176 0.036232029330395626
0.42306429692162356 0.5234823726560742 0.036232029330395626
0.6043049591943359 0.4829427576163983 0.03824491984875097
0.5929220633130367 0.25065519179819523 0.03824491984875097
0.5061866108771061 0.17125672530167 0.03824491984875097
0.43309855615562476 0.21144408450063373 0.03824491984875097
0.6158589507696952 0.3851867295924725 0.03824491984875097
0.4452362859813073 0.1946062553145917 0.03955329868568187
0.39351506411216763 0.25390600998533913 0.04025781036710624
0.3691087665771095 0.48900155807664775 0.04025781036710624
0.5264262250391689 0.5439534692277477 0.04025781036710624
0.587950223732699 0.25532509780077955 0.04025781036710624
0.48800014504376604 0.20349316695313033 0.04025781036710624
0.5782782847920017 0.5137903048101935 0.04227070088546158
0.6219378801351284 0.3604885629322529 0.04227070088546158
0.5540229540458201 0.21757333612902574 0.04227070088546158
0.48496068036104945 0.1785937112410751 0.04227070088546158
0.4468566628485834 0.22332013855893015 0.04227070088546158
0.5285598889886254 0.5317754815916982 0.04227070088546158
0.4826458562649408 0.5407731022087463 0.04428359140381692
0.6217869133462519 0.3607099808892719 0.04428359140381692
0.5225010885283761 0.21757333612902574 0.04428359140381692
0.4457898308738551 0.21197750048799802 0.04428359140381692
0.5854341105847549 0.5025281823599955 0.04428359140381692
0.4027743604966021 0.5159541621174255 0.046296481922172186
0.5968874576341965 0.4995289754876461 0.046296481922172186
0.5975416470526621 0.2487429458057577 0.046296481922172186
0.5094474935168419 0.18462231834354928 0.046296481922172186
0.49505532631060134 0.18853739040175033 0.046296481922172186
0.4349806087902871 0.5294606574955895 0.04830937244052753
0.6166339136192623 0.45909000497388786 0.04830937244052753
0.5554621707664442 0.2180161720430639 0.04830937244052753
0.48605770569355305 0.18371651761028937 0.04830937244052753
0.46941110110675466 0.1972532063462288 0.04961775127745843
0.408229293801345 0.24094299504713096 0.0503222629588828
0.367236778395039 0.48009451753292554 0.0503222629588828
0.5594678228979714 0.532771862398284 0.0503222629588828
0.6072538438037264 0.3263901975513139 0.0503222629588828
0.5944417956543948 0.2762490947390831 0.05233515347723814
0.5143690108342205 0.22569534937058947 0.05233515347723814
0.4477121413188845 0.22009951372956157 0.05233515347723814
0.3547769860864196 0.3651584689348372 0.05233515347723814
0.4381710402618802 0.22496064433138968 0.05233515347723814
0.588171641689718 0.5012097390704727 0.054348043995593474
0.5981857720185357 0.27593709670873795 0.054348043995593474
0.5186162098279502 0.22352142761076563 0.054348043995593474
0.443766875902908 0.21483580502406247 0.054348043995593474
0.3983158079984451 0.25662341218511875 0.054348043995593474
0.3772307798186732 0.48671692733831456 0.056360934513948746
0.52881150030342 0.5377839597889886 0.056360934513948746
0.6146008941957232 0.31637606722249617 0.056360934513948746
0.5335115996637796 0.21963654891033993 0.056360934513948746
0.4452362859813073 0.20627095586846061 0.05766931335087973
0.37728110208163207 0.31229996392282666 0.05837382503230409
0.40302597181139643 0.5185004686231448 0.05837382503230409
0.6148223121527424 0.46889278179827826 0.05837382503230409
0.5926704519982422 0.2855385844812929 0.05837382503230409
0.5774932574898431 0.2342501340735995 0.06038671555065936
0.5035295953928772 0.21033699471553832 0.06038671555065936
0.432685913599362 0.22036118949694786 0.06038671555065936
0.35895373391200697 0.34540194849717976 0.06038671555065936
0.40066082545232895 0.28097938745721807 0.06038671555065936
0.3815484299805452 0.49003819669360077 0.06239960606901469
0.45079186381196806 0.5373411238749507 0.06239960606901469
0.5884635108148797 0.5099154905623596 0.06239960606901469
0.4237990019608233 0.23309272202554523 0.06239960606901469
0.6019196839300848 0.3071167708380617 0.06441249658737004
0.5762553298210545 0.22810075354002396 0.06441249658737004
0.5350917187206884 0.21920377744889347 0.06441249658737004
0.5011342556760343 0.19224110895552418 0.06441249658737004
0.4468566628485834 0.2097834498229907 0.06572087542430094
0.3738189303900608 0.32558504134397176 0.0664253871057253
0.3687565107363972 0.47216372889060554 0.0664253871057253
0.4857759010209834 0.5438326957966464 0.0664253871057253
0.6128396149921624 0.38820606537000546 0.0664253871057253
0.5266375785435963 0.2020740791376898 0.06692860973531417
0.41919954712638136 0.23217685683969347 0.06843827762408064
0.38095462727763046 0.3000515251186346 0.06843827762408064
0.35803786872615523 0.4505150913656942 0.06843827762408064
0.37607336777061884 0.3317545507827308 0.06843827762408064
0.45268398089922207 0.20968280529707287 0.06974665646101155
0.3663108487565956 0.36329654520535853 0.07045116814243592
0.3693201200815368 0.4699092915100477 0.07045116814243592
0.5173078309910193 0.5416185162264555 0.07045116814243592
0.5206089714411221 0.22215266205828407 0.07045116814243592
0.3789618656644588 0.2592804276693477 0.07095439077202478
0.3835411915937171 0.48652570273907075 0.07246405866079125
