0.5360564667600931 0.2846730273780799 -0.17910825714120188
-0.20893387326057813 0.3816005973974886 -0.17910825714120188
0.10961516254938583 0.29089181153465765 -0.17910825714120188
-0.24791946750532304 0.34426970887861685 -0.17865366765607193
0.7220199333370548 0.34426970887861685 -0.17865366765607193
0.6142549499921478 0.23419541094924975 -0.17865366765607193
0.550730615340088 0.45610781401028816 -0.17728989920068208
-0.2313451348774849 0.44426121202780156 -0.17728989920068208
-0.07683016888181346 0.2916191547108656 -0.17728989920068208
-0.10386005966764052 0.2881279074650675 -0.17728989920068208
0.5701143109860294 0.4412154624774308 -0.17728989920068208
-0.24791946750532304 0.4161130311085548 -0.1768353097155521
0.7459767992034033 0.4280869181468777 -0.1768353097155521
-0.2245717515490486 0.29506494300815056 -0.17547154126016226
-0.14595504599067435 0.2848003124339163 -0.17547154126016226
-0.23454544485279974 0.30110189137067633 -0.17547154126016226
-0.22817210027127785 0.3074752359521984 -0.17547154126016226
-0.21168868554046563 0.3517431600141533 -0.17547154126016226
0.49320686189174373 0.2776450739379707 -0.17547154126016226
-0.20002391935203112 0.24846952078233026 -0.17501695177503232
0.6741243851837628 0.37542727218942396 -0.17501695177503232
0.650176611107117 0.27241729485897626 -0.17501695177503232
0.4203907181636278 0.4569806258217377 -0.17365318331964244
0.6215829324924428 0.41988612383513346 -0.17365318331964244
0.5897980356921563 0.29024629446577316 -0.17365318331964244
0.37576821430327134 0.28474576169570065 -0.17365318331964244
0.5935074858908169 0.4314781557059472 -0.17365318331964244
0.4496390056368889 0.27995438852243093 -0.17365318331964244
0.5543764230108305 0.4999393321665183 -0.17258944392443834
0.7100460462987318 0.32032193480197085 -0.17258944392443834
0.41490836897296046 0.2789906588139555 -0.17183482537912265
-0.2301541104264444 0.35236140171393004 -0.17183482537912265
-0.23634561921391437 0.37539999682031616 -0.17183482537912265
0.6432759427228442 0.4056392893711606 -0.17183482537912265
-0.2021332145630341 0.37818208446931145 -0.17183482537912265
-0.2301268350573366 0.3494702125885035 -0.17183482537912265
0.6303928767142613 0.3352597452833411 -0.17183482537912265
-0.037289975465210144 0.4999393321665183 -0.1700164674386028
0.6741243851837628 0.2581431850258957 -0.1700164674386028
-0.23450907769398938 0.3123302516533862 -0.1700164674386028
-0.23450907769398938 0.3800640849377494 -0.1700164674386028
0.5520671084263701 0.460962829711476 -0.1700164674386028
0.6573864003412778 0.39053782667514353 -0.1700164674386028
-0.23138150203629526 0.30974818337784815 -0.1700164674386028
0.6366025690811363 0.3967384272523161 -0.1700164674386028
-0.16051100130453547 0.29306474927357873 -0.1700164674386028
-0.2352546044496025 0.32154932641182177 -0.168198109498083
-0.2317997243626148 0.4419064384948284 -0.168198109498083
0.629310953739652 0.4188405680193345 -0.168198109498083
0.6453215954059289 0.32851363732401256 -0.168198109498083
0.4144174123290201 0.4567169639203622 -0.168198109498083
0.5865977257168414 0.2959195712401949 -0.168198109498083
-0.0025684305909842303 0.28542764592339565 -0.168198109498083
0.1256076206362576 0.45059818945051316 -0.168198109498083
0.2485013420462895 0.4319691123498876 -0.168198109498083
0.032771355983018405 0.4204589065863971 -0.168198109498083
-0.14334570234602836 0.380482307264069 -0.168198109498083
-0.18805003231370807 0.47829178088462987 -0.16774352001295303
0.7100460462987318 0.3106482705584055 -0.16774352001295303
-0.21113408636860714 0.37063589901615424 -0.16637975155756318
-0.1217708853817607 0.4545985769196567 -0.16637975155756318
0.6689602486326864 0.37252699127429484 -0.16637975155756318
0.6390664440905408 0.31971278489189675 -0.16637975155756318
-0.10230536362849615 0.281609094248304 -0.16637975155756318
0.5973351293556111 0.43577857223527655 -0.16637975155756318
-0.13875434854621588 0.32249487254089204 -0.16637975155756318
0.06461080352152047 0.3216402443088477 -0.16637975155756318
0.26884876740070623 0.32165842788825294 -0.16637975155756318
0.16903910004557343 0.31803989558661844 -0.16637975155756318
-0.0012046621355943164 0.45237108844251994 -0.16637975155756318
-0.25989335454364604 0.4041391440702317 -0.1653160121623591
0.7579506862417263 0.4041391440702317 -0.1653160121623591
-0.21395254117641288 0.37474538796172896 -0.16456139361704336
0.6675510212287838 0.36569905720764284 -0.16456139361704336
-0.23930954265696167 0.31417588496301385 -0.16456139361704336
-0.23980049930090205 0.40862139639361317 -0.16456139361704336
0.6574136757103858 0.3985386016134307 -0.16456139361704336
-0.14016357595011875 0.32255851506881017 -0.16456139361704336
0.06497447510962437 0.3216402443088477 -0.16456139361704336
0.2691760718299998 0.32165842788825294 -0.16456139361704336
0.42312734686411 0.3719269331539233 -0.16456139361704336
0.10113252275686095 0.418558722538554 -0.16456139361704336
0.529874049762326 0.4625175257506205 -0.16456139361704336
0.6597957246124667 0.3583347075485376 -0.16456139361704336
-0.25989335454364604 0.30834804776364794 -0.16289759610146773
0.638202724068794 0.4999393321665183 -0.16289759610146773
-0.22885398449897273 0.3811005489638457 -0.16274303567652354
-0.23736389966060548 0.3089026469355064 -0.16274303567652354
-0.23648199605945336 0.4169040168126809 -0.16274303567652354
0.6697421425471101 0.37779113751209964 -0.16274303567652354
-0.24455550531536138 0.33545067286709573 -0.16274303567652354
-0.15486499989922137 0.46059006633366945 -0.16274303567652354
0.47245030600071014 0.27088987418893967 -0.16274303567652354
0.45376667816186894 0.46361763230463493 -0.16274303567652354
-0.12476208419391586 0.4130854651375893 -0.16274303567652354
-0.017097110535737554 0.32163115251914515 -0.16274303567652354
0.18714994513315086 0.32164933609855034 -0.16274303567652354
0.3913879090123367 0.32167661146765814 -0.16274303567652354
0.42671860379663673 0.3357052429787686 -0.16274303567652354
-0.2212259729384921 0.38572826992246867 -0.16092467773600372
0.47995103250535426 0.4702000880493167 -0.16092467773600372
-0.1592199671667663 0.27760870677916044 -0.16092467773600372
-0.2408096879578905 0.39582015649235364 -0.16092467773600372
0.679197603837813 0.3653444774092415 -0.16092467773600372
-0.1513919362328286 0.3661809220618806 -0.16092467773600372
-0.20550626854269832 0.356852745827014 -0.16092467773600372
0.30759797511318354 0.415131117820674 -0.16092467773600372
0.12348923363555213 0.415131117820674 -0.16092467773600372
-0.06062859963178193 0.415131117820674 -0.16092467773600372
-0.1399090058384459 0.32232212853654263 -0.16092467773600372
-0.1847224372825568 0.2865550278465179 -0.16092467773600372
0.6568499847488245 0.38521912969912314 -0.16092467773600372
-0.23594558046700004 0.4625720764888361 -0.16047008825087378
0.7579506862417263 0.3682174829552628 -0.16047008825087378
0.4178722924160077 0.41007608274602897 -0.15910631979548392
-0.23086327002324716 0.37663648021986956 -0.15910631979548392
0.6189463134786891 0.3046204139855822 -0.15910631979548392
-0.24210981388536218 0.31951276551843955 -0.15910631979548392
-0.2418825191427972 0.4240774388880316 -0.15910631979548392
0.5893979969452421 0.2784087842729891 -0.15910631979548392
-0.2351182276040635 0.4226773032738313 -0.15910631979548392
0.5215459703947449 0.46747255113853703 -0.15910631979548392
0.3724860782206332 0.31882178950104195 -0.15910631979548392
-0.20002391935203112 0.2581431850258957 -0.15865173031035393
0.6262288370304708 0.48796544512819523 -0.15865173031035393
0.6262288370304708 0.2604434078206533 -0.15865173031035393
-0.14072726691167986 0.4043118880745812 -0.1572879618549641
-0.20643363109236346 0.3672992121953003 -0.1572879618549641
-0.10068702506143354 0.4630448495533713 -0.1572879618549641
0.5854157930555035 0.2790997602903866 -0.1572879618549641
-0.24570107081788886 0.3540979335471265 -0.1572879618549641
0.5000166123789904 0.4803192499883095 -0.1572879618549641
-0.03591711522011759 0.31877633055252896 -0.1572879618549641
0.0013592225605385927 0.3187854223422316 -0.1572879618549641
-0.2291903807179689 0.4463341400799941 -0.1572879618549641
0.6686147606239878 0.37602733030979535 -0.1572879618549641
-0.04435429606412964 0.24616929798757267 -0.1561060291936262
0.7459767992034033 0.30834804776364794 -0.1561060291936262
-0.10554204076262137 0.3252951437692925 -0.15546960391444428
-0.23405448820885943 0.37447263427065103 -0.15546960391444428
0.5005621197611464 0.4741277412008395 -0.15546960391444428
0.4891882908431949 0.25882506925359067 -0.15546960391444428
-0.24652842368082536 0.3662900235383118 -0.15546960391444428
0.5458392324800899 0.4758460894546307 -0.15546960391444428
-0.23146332814361867 0.3101027631762495 -0.15546960391444428
0.5457574063727664 0.46528142982021065 -0.15546960391444428
0.2803226060053863 0.27483571091986764 -0.15546960391444428
0.48253310078089234 0.23880494832846752 -0.15365124597392446
0.6860982722220859 0.46631789384630695 -0.15365124597392446
-0.14269109348744122 0.3231858485582895 -0.15365124597392446
-0.21112499457890452 0.3674264972511367 -0.15365124597392446
0.5174182978697651 0.26215266428474193 -0.15365124597392446
-0.20819743829466758 0.3626533076572722 -0.15365124597392446
0.49121575994687455 0.47840997415076375 -0.15365124597392446
-0.2379275906221666 0.27918158639770996 -0.15365124597392446
-0.2479285592950256 0.39782944201662807 -0.15365124597392446
0.40984424210861264 0.31882178950104195 -0.15365124597392446
0.6697966932853257 0.3703540535353736 -0.15365124597392446
0.5513943159883778 0.27136264725347475 -0.15365124597392446
-0.1452731617629794 0.4105579476002667 -0.15183288803340464
-0.23655473037707417 0.3574891711061958 -0.15183288803340464
-0.10249629121225073 0.2710353428241813 -0.15183288803340464
-0.2441281911993392 0.378918519435222 -0.15183288803340464
-0.10139618465823616 0.4697000396156738 -0.15183288803340464
0.6455307065690886 0.31022095644238323 -0.15183288803340464
-0.22272611823942096 0.388237603880386 -0.15183288803340464
0.6778338353824231 0.3659536273193157 -0.15183288803340464
-0.23483638212328295 0.410212459591568 -0.15183288803340464
0.6004445214339 0.4413518393229698 -0.15183288803340464
0.4922067650244579 0.46926363370994906 -0.15183288803340464
-0.25989335454364604 0.4400698969749034 -0.15111463664689934
0.7220199333370548 0.3322958218402939 -0.15111463664689934
-0.13900891865788856 0.4095487589432783 -0.15001453009288485
-0.23213612058161104 0.3581346881750805 -0.15001453009288485
0.664368894832874 0.3392964999112952 -0.15001453009288485
-0.20474255820767998 0.2770086486587889 -0.15001453009288485
-0.24571925439729408 0.40978514547554584 -0.15001453009288485
0.5918527801649437 0.46350853082820376 -0.15001453009288485
0.15443768578319936 0.46698159449459664 -0.15001453009288485
0.5624317486873331 0.3330777157547174 -0.15001453009288485
0.41235357606653006 0.31863086191728746 -0.15001453009288485
0.2639392009613027 0.2684805499177509 -0.15001453009288485
0.0039140154669689885 0.3185854029687744 -0.15001453009288485
0.30227018634746033 0.46842718905730996 -0.15001453009288485
0.14279110317416988 0.41799503157699275 -0.15001453009288485
-0.06144686070501588 0.41799503157699275 -0.15001453009288485
-0.1471097032829044 0.32261306580702576 -0.15001453009288485
-0.12328921426209476 0.27490844523748836 -0.15001453009288485
0.565995730250752 0.27352649320269334 -0.15001453009288485
0.6741243851837628 0.4640176710515494 -0.14862348626838717
-0.04435429606412964 0.24616929798757267 -0.14862348626838717
-0.13900891865788856 0.40603023632837243 -0.148196172152365
-0.23720933923566134 0.35247959498006387 -0.148196172152365
-0.15705612121754775 0.46078099391742405 -0.148196172152365
0.6017719227304794 0.45568959168396855 -0.148196172152365
0.6052358946071696 0.27900884239336066 -0.148196172152365
-0.2391913493908279 0.3482064538198423 -0.148196172152365
-0.1649387028897012 0.4571170026672767 -0.148196172152365
-0.023352261851125745 0.46595422225820293 -0.148196172152365
0.1831586494537098 0.4682453532632579 -0.148196172152365
0.38967865254824796 0.47054557605801545 -0.148196172152365
0.575387549013537 0.46066280065129034 -0.148196172152365
-0.2110340766818786 0.28337290145060823 -0.148196172152365
-0.019642811652465307 0.27055347796994345 -0.148196172152365
0.18227674585255774 0.2682532551751859 -0.148196172152365
0.3741044167876958 0.26607122564656216 -0.148196172152365
0.5203185787848942 0.2898735310879665 -0.148196172152365
0.5291921655346309 0.4429338107312221 -0.148196172152365
-0.1442457895265857 0.33122299065538713 -0.1463778142118452
-0.21743469663250828 0.3719087495745181 -0.1463778142118452
0.6305383453495027 0.43418750903732173 -0.1463778142118452
0.6871711034069925 0.37682740780362417 -0.1463778142118452
0.6927443704946857 0.374336257425112 -0.1463778142118452
-0.15419220746122905 0.2765631509633614 -0.1463778142118452
-0.1505827669492973 0.39037417446049677 -0.1463778142118452
0.026216175607444433 0.41779501220353565 -0.1463778142118452
0.23043595590722504 0.41779501220353565 -0.1463778142118452
0.424963888384035 0.40868503892153124 -0.1463778142118452
0.04353603499089569 0.3187854223422316 -0.1463778142118452
0.24773763171127114 0.31880360592163676 -0.1463778142118452
0.42489115406641415 0.3254587959839393 -0.1463778142118452
0.4340374945072288 0.39800218602097737 -0.1463778142118452
0.5041715602730781 0.4759188237722516 -0.1463778142118452
0.7100460462987318 0.27241729485897626 -0.14613233588987504
0.6142549499921478 0.5119132192048413 -0.14613233588987504
0.4402108197152936 0.24846952078233026 -0.14613233588987504
-0.14043632964119673 0.33057747358650263 -0.14455945627132538
0.5827246233035343 0.27316282161458944 -0.14455945627132538
-0.1682208389723395 0.2707898645022111 -0.14455945627132538
0.4130536438736302 0.25653393824853565 -0.14455945627132538
-0.22360802184057307 0.3484701157212176 -0.14455945627132538
-0.09960510208682424 0.46798169136188256 -0.14455945627132538
-0.06583819513137126 0.31877633055252896 -0.14455945627132538
0.13839976874781462 0.31879451413193416 -0.14455945627132538
0.3426468244167029 0.3188126977113394 -0.14455945627132538
-0.0842399774894317 0.41779501220353565 -0.14455945627132538
0.11997980281034878 0.41779501220353565 -0.14455945627132538
0.3241995831101294 0.41779501220353565 -0.14455945627132538
0.5305104750415078 0.4505163633431898 -0.14455945627132538
0.555767466835328 0.4247229559569161 -0.14455945627132538
0.5712871518576645 0.46039004696021235 -0.14455945627132538
0.7699245732800495 0.3682174829552628 -0.14364118551136287
-0.25989335454364604 0.4161130311085548 -0.14364118551136287
-0.14046360501030453 0.32619523094984987 -0.14274109833080556
-0.239891417197928 0.364926255082922 -0.14274109833080556
0.4086623094472748 0.47497327764318126 -0.14274109833080556
0.6020901353700703 0.45930812398560306 -0.14274109833080556
0.578806061941714 0.473482224131955 -0.14274109833080556
0.5571130517113126 0.4185223553797435 -0.14274109833080556
0.5462574548064094 0.26359825884745514 -0.14274109833080556
0.3997341719593225 0.26276181419481603 -0.14274109833080556
0.21335248305604146 0.2649347519337372 -0.14274109833080556
0.026979885942462787 0.26710768967265847 -0.14274109833080556
0.3004336448275354 0.47258213695139767 -0.14274109833080556
0.11832509708447574 0.47049102531979986 -0.14274109833080556
-0.06378345065858376 0.46839991368820216 -0.14274109833080556
-0.22397169342867704 0.4535893882626682 -0.14274109833080556
-0.150564583369892 0.2742720199583065 -0.14274109833080556
0.6747699022526473 0.3795276693452961 -0.14274109833080556
0.5587041149092675 0.4695000202422166 -0.14274109833080556
0.7579506862417263 0.3585529105014 -0.1411409433431481
-0.15211927940903652 0.47920095985488975 -0.1411409433431481
-0.25989335454364604 0.30834804776364794 -0.1411409433431481
-0.23229977279625777 0.2930192903250658 -0.14092274039028574
-0.22853577185938181 0.3108937488803755 -0.14092274039028574
-0.22463539407696678 0.37793660614734126 -0.14092274039028574
0.5564675346424282 0.4742186590978656 -0.14092274039028574
0.52957402070214 0.27289006792351145 -0.14092274039028574
0.6957628446759486 0.3678174442083485 -0.14092274039028574
0.6922715974301507 0.3835826075526552 -0.14092274039028574
-0.24175523408696087 0.3006473018855464 -0.14092274039028574
-0.22124415651789733 0.45485314703132945 -0.14092274039028574
0.6569227190664454 0.32506784902672764 -0.14092274039028574
0.48968833927683786 0.2575794940643346 -0.14092274039028574
0.5537763648904589 0.47223664894269896 -0.14092274039028574
0.41208082237545207 0.41209446006000594 -0.14092274039028574
0.42078166512083937 0.3236768052022299 -0.14092274039028574
-0.14626416684056265 0.3261406802116343 -0.14092274039028574
0.42600035241013134 0.4030572210956224 -0.14092274039028574
0.5487667887643266 0.43938801274720846 -0.13910438244976592
0.536647433090762 0.43894251505178106 -0.13910438244976592
-0.23418177326469578 0.4565714952851207 -0.13910438244976592
0.5521671181130989 0.2981834268761421 -0.13910438244976592
0.4156084367800606 0.47450050457864607 -0.13910438244976592
0.6893622247253188 0.38422812462153977 -0.13910438244976592
0.6655690110736171 0.41922242318684366 -0.13910438244976592
0.6128911815367581 0.28825519252090387 -0.13910438244976592
0.5664321361564767 0.46523597087169766 -0.13910438244976592
0.43406476987633674 0.4174767995639447 -0.13910438244976592
0.46163107625461725 0.4304235081004457 -0.13910438244976592
0.45750340372963716 0.3046204139855822 -0.13910438244976592
-0.17749446446899053 0.4766279833690543 -0.13864979296463598
-0.25802953765461323 0.29637416072532485 -0.13864979296463598
-0.04435429606412964 0.24616929798757267 -0.13864979296463598
0.6860982722220859 0.2867004964817595 -0.13864979296463598
-0.14928264102182562 0.48796544512819523 -0.13792244978842805
-0.10422373125574454 0.24846952078233026 -0.13792244978842805
0.41955427351098856 0.3080116515446517 -0.13792244978842805
0.7220199333370548 0.4520437840132263 -0.13792244978842805
0.5088811073390245 0.30788436648881534 -0.13792244978842805
-0.2395368373995267 0.3830189165910941 -0.13728602450924612
-0.23550917456127526 0.38288253974555514 -0.13728602450924612
-0.2376548369310887 0.35932571262612095 -0.13728602450924612
-0.244428220259525 0.37910035522927393 -0.13728602450924612
0.5521853016925039 0.4694181941348932 -0.13728602450924612
0.49232495829059153 0.4835468353327322 -0.13728602450924612
0.38602375308780323 0.26098891520280926 -0.13728602450924612
-0.24492826869316792 0.4577625197361612 -0.13728602450924612
-0.1874136070345262 0.47020917983901933 -0.13728602450924612
0.5814426809554679 0.4646540963307313 -0.13728602450924612
0.6144913365244155 0.29228285535915527 -0.13728602450924612
0.4352012435891616 0.3127848411385163 -0.13728602450924612
0.4154629681448191 0.4123763055407865 -0.13728602450924612
0.4697773198281459 0.41814050021223437 -0.13728602450924612
-0.09757763298314466 0.48796544512819523 -0.13683143502411615
-0.09757763298314466 0.249678728812776 -0.13683143502411615
0.052864211225762445 0.247205762013669 -0.13610409184790823
-0.16409316644735944 0.24887865131894724 -0.13610409184790823
-0.012951254431352345 0.48911101063072276 -0.13610409184790823
0.15159195560628583 0.4999393321665183 -0.13610409184790823
0.5088811073390245 0.46262662722705167 -0.13610409184790823
0.7340029121650805 0.29637416072532485 -0.13610409184790823
0.5057262563122228 0.2705898451287539 -0.13610409184790823
0.5406387287702032 0.3006927608340594 -0.1354676665687263
0.5378475493315051 0.3144577304437945 -0.1354676665687263
-0.2356000924583013 0.3777002196150737 -0.1354676665687263
-0.2442827516242834 0.3846918058963723 -0.1354676665687263
0.5871796002578079 0.26961702363057577 -0.1354676665687263
-0.23672747438142355 0.28011804073707774 -0.1354676665687263
0.6606048938959981 0.3133576238897799 -0.1354676665687263
0.41427194369377857 0.2529063141571986 -0.1354676665687263
-0.2467375348439851 0.2702898160685681 -0.1354676665687263
0.63234761150032 0.4378060413389562 -0.1354676665687263
-0.13900891865788856 0.3295137341912985 -0.1354676665687263
0.43561037412577847 0.3165761174445 -0.1354676665687263
-0.09977784609117354 0.3250314818679172 -0.1354676665687263
-0.1040237118822873 0.4166767220701159 -0.1354676665687263
0.062265121778249825 0.24712393590634563 -0.13501307708359633
-0.12722595920332022 0.48796544512819523 -0.13501307708359633
0.07166603233073733 0.4999393321665183 -0.13501307708359633
0.2879233421967591 0.4999393321665183 -0.1342857339073884
0.13238100396469396 0.24363268866054757 -0.1342857339073884
0.3020247080254903 0.24356904613262945 -0.1342857339073884
0.5440845170674882 0.3322958218402939 -0.1342857339073884
0.6621504981454398 0.48796544512819523 -0.1342857339073884
0.5535308865684886 0.3155396534184038 -0.13364930862820648
0.5500123639535827 0.3155396534184038 -0.13364930862820648
-0.23099964686878616 0.37857303142652315 -0.13364930862820648
-0.24751942875840868 0.358507451552887 -0.13364930862820648
-0.013905892350125284 0.4730185428571224 -0.13364930862820648
0.5471575419869666 0.2565430300382383 -0.13364930862820648
-0.09777765235660177 0.26379827822091234 -0.13364930862820648
0.5490486342451072 0.48357411070183987 -0.13364930862820648
0.6955719170921941 0.3888012948419471 -0.13364930862820648
0.5650683677010868 0.4688817785424399 -0.13364930862820648
0.5581949746859219 0.2656711868996478 -0.13364930862820648
0.4143810451702098 0.32868638132836203 -0.13364930862820648
0.43886523483930895 0.31781260084405355 -0.13364930862820648
-0.1479734233046513 0.33122299065538713 -0.13364930862820648
0.42600035241013134 0.4030572210956224 -0.13364930862820648
0.16569332143501703 0.4922567698678221 -0.13319471914307654
0.2785224316442716 0.2438599834031126 -0.13319471914307654
0.4209998680737017 0.4999393321665183 -0.1324673759668686
0.5388931051473042 0.2843911818972993 -0.1324673759668686
0.3144713681283484 0.24149611808043678 -0.1324673759668686
0.5783241970874763 0.22452174670568426 -0.1324673759668686
-0.2411551759665893 0.28751875755499334 -0.13183095068768666
-0.23291801449603455 0.2845639259016487 -0.13183095068768666
0.1886955493825927 0.4793373367004287 -0.13183095068768666
0.5572857957156621 0.42094077144063496 -0.13183095068768666
0.48186940013260277 0.484228719560427 -0.13183095068768666
0.15123737580788446 0.2569885277336657 -0.13183095068768666
0.4095351212587243 0.48512880674098446 -0.13183095068768666
0.706663900529365 0.3731543247637742 -0.13183095068768666
0.5609679705452147 0.2947740057376674 -0.13183095068768666
0.5631772754429463 0.4681726189456371 -0.13183095068768666
0.433582905022099 0.42247728390037415 -0.13183095068768666
0.43006438240719314 0.4269413526443503 -0.13183095068768666
0.4102988315937427 0.3209038093429373 -0.13183095068768666
0.42600035241013134 0.4030572210956224 -0.13183095068768666
0.3866510865772825 0.2364956337440073 -0.13137636120255672
0.425736690508756 0.24275987684909803 -0.1306490180263488
0.41068068676125186 0.4280869181468777 -0.1306490180263488
0.7459767992034033 0.3921652570319088 -0.1306490180263488
0.5558583847323539 0.4370968817421534 -0.13001259274716684
0.5472120927251822 0.43976077612501496 -0.13001259274716684
-0.23325441071503072 0.35690729656522957 -0.13001259274716684
0.5506669728121698 0.47858271815511305 -0.13001259274716684
0.5496396005757762 0.4794100710180496 -0.13001259274716684
0.47957826912754775 0.4848196858910959 -0.13001259274716684
0.6725242301961055 0.41574026773074824 -0.13001259274716684
0.6721878339771094 0.3150486967744634 -0.13001259274716684
0.6648143925283014 0.32232212853654263 -0.13001259274716684
0.5624044733182252 0.2985834656230564 -0.13001259274716684
0.4420746366043265 0.4239865209910056 -0.13001259274716684
0.41304455208392754 0.41463106938703115 -0.13001259274716684
0.4266367776893132 0.30797528438584126 -0.13001259274716684
0.42265457379957494 0.49349325326737553 -0.1295580032620369
0.5783241970874763 0.5119132192048413 -0.12883066008582897
0.7100460462987318 0.27241729485897626 -0.12883066008582897
0.42425472878723225 0.24217800230813175 -0.12883066008582897
-0.2431280943320533 0.44640687439761484 -0.12819423480664704
-0.23768211230019648 0.45046181260497414 -0.12819423480664704
-0.15022818715089592 0.46813625178682666 -0.12819423480664704
0.550730615340088 0.25531563842838734 -0.12819423480664704
0.5532854082465185 0.2551974451622537 -0.12819423480664704
0.5476212232617993 0.43009620367115214 -0.12819423480664704
0.4088532370310295 0.48901100094399425 -0.12819423480664704
0.5098539288372025 0.4943387897097174 -0.12819423480664704
0.6867528810806731 0.34671540030861603 -0.12819423480664704
0.5603497288454379 0.33517791917601775 -0.12819423480664704
0.44202917765581357 0.4240319799395185 -0.12819423480664704
0.41304455208392754 0.41474926265316486 -0.12819423480664704
-0.10558749971113446 0.3182217313806705 -0.12819423480664704
0.43462846083789775 0.4386243024121901 -0.12701230214530915
0.698072159260409 0.4280869181468777 -0.12701230214530915
0.5424025359725073 0.3682174829552628 -0.12701230214530915
-0.22367166436849126 0.36316244788061774 -0.12637587686612722
0.5541036693197524 0.31509415572297633 -0.12637587686612722
0.5548491960753655 0.2688896804543679 -0.12637587686612722
-0.13268103302487963 0.4732640211790926 -0.12637587686612722
-0.2482285883552114 0.35106127578645835 -0.12637587686612722
-0.24933778669892848 0.38244613383983034 -0.12637587686612722
0.54975779384191 0.43001437756382876 -0.12637587686612722
-0.10513291022600439 0.2616162486922886 -0.12637587686612722
0.43933800790384403 0.24999694145236695 -0.12637587686612722
0.40974423242188407 0.24667843821091834 -0.12637587686612722
-0.13813610684643915 0.25584296223113817 -0.12637587686612722
0.6763336900814944 0.3313775510803313 -0.12637587686612722
0.4140901078997265 0.32528605197959 -0.12637587686612722
0.42703681643622765 0.41111254677212533 -0.12637587686612722
0.4261821882041834 0.3176034896808938 -0.12637587686612722
0.4383560946159636 0.4964299013413151 -0.12592128738099725
0.457167007510641 0.49892105171982726 -0.12519394420478933
0.638202724068794 0.2364956337440073 -0.12519394420478933
0.41701766418396347 0.31188475395795895 -0.12519394420478933
0.4978345828503668 0.25275175373225445 -0.1245575189256074
-0.22602643790146443 0.35623450412723723 -0.1245575189256074
-0.2255718484163345 0.3789367030146272 -0.1245575189256074
-0.24364632634510147 0.4600172835824057 -0.1245575189256074
0.5531853985597899 0.2552429041107666 -0.1245575189256074
0.4194724474036653 0.2560429816045954 -0.1245575189256074
0.5090720349227792 0.24862408120727453 -0.1245575189256074
0.66330515543767 0.42970525671394044 -0.1245575189256074
0.7116825684451996 0.37503632523221214 -0.1245575189256074
0.5626135844813852 0.26003427728403633 -0.1245575189256074
0.6076815860371688 0.44858890392623874 -0.1245575189256074
0.441929167969085 0.42412289783654455 -0.1245575189256074
0.4573215679355851 0.42865060910843894 -0.1245575189256074
-0.14854620605591506 0.41516748497948447 -0.1245575189256074
0.4430565498922073 0.2364956337440073 -0.12410292944047746
0.7339938203753779 0.4303962327313379 -0.12337558626426953
0.4746050601602261 0.4280869181468777 -0.12337558626426953
0.5497759774213152 0.3100118452792235 -0.1227391609850876
0.5562038727410528 0.2987016588891902 -0.1227391609850876
-0.22379894942432768 0.3688266328653369 -0.1227391609850876
-0.1784854695465739 0.26794413432529757 -0.1227391609850876
0.5524489635938793 0.2534245461702468 -0.1227391609850876
0.4150265622390943 0.4830467868990892 -0.1227391609850876
0.5451573482523948 0.25183348297229197 -0.1227391609850876
0.5106085473825185 0.4928386444087884 -0.1227391609850876
0.7149737963175404 0.3683629515905045 -0.1227391609850876
0.5732146112746157 0.43641499751445856 -0.1227391609850876
0.5673776822855472 0.2701988981715421 -0.1227391609850876
0.41793593494392595 0.4089668844023119 -0.1227391609850876
0.4232182647611359 0.40617570496361394 -0.1227391609850876
0.45707608961361507 0.3042112834489652 -0.1227391609850876
0.650176611107117 0.27241729485897626 -0.1215572283237497
0.6262288370304708 0.48796544512819523 -0.1215572283237497
0.4745596012117131 0.4280869181468777 -0.1215572283237497
-0.24052784247710995 0.3581528717544856 -0.12092080304456776
-0.24696482958655014 0.3766001130610591 -0.12092080304456776
-0.10019606841749316 0.4116671459439838 -0.12092080304456776
0.43237369699165323 0.3208583503944242 -0.12092080304456776
0.41165350825943 0.320976543660558 -0.12092080304456776
0.4307098994760777 0.39593834975848746 -0.12092080304456776
0.6311474952595769 0.2840366020988979 -0.12092080304456776
0.44264741935559015 0.24879682521162383 -0.12092080304456776
0.5272010635897617 0.48787452723116936 -0.12092080304456776
0.5600769751543598 0.4350239536899609 -0.12092080304456776
0.5813790384275497 0.2558520540208408 -0.12092080304456776
0.5497850692110179 0.4374150943817445 -0.12092080304456776
0.7160102603436368 0.3718814742054103 -0.12092080304456776
0.5726691038924597 0.2601615623398727 -0.12092080304456776
0.5717053741839844 0.43963349106917865 -0.12092080304456776
0.46767711640684556 0.5119132192048413 -0.11973887038322989
0.47518693470119233 0.32032193480197085 -0.11973887038322989
0.7699245732800495 0.3682174829552628 -0.11973887038322989
-0.14110912207918905 0.3263952503233071 -0.11910244510404795
0.4333192431207237 0.31422134391152695 -0.11910244510404795
-0.10437829168068868 0.4146947119149493 -0.11910244510404795
0.42508208165016886 0.3175307553632729 -0.11910244510404795
0.5591768879738026 0.3055841436940578 -0.11910244510404795
0.43763784322945815 0.4872017347931769 -0.11910244510404795
0.4253730189206521 0.25371548344073 -0.11910244510404795
0.4116353246800247 0.24878773342192131 -0.11910244510404795
-0.12098899146733719 0.4783008726743325 -0.11910244510404795
0.4944251617118921 0.2507151928388722 -0.11910244510404795
0.41284453271047045 0.49088390962272954 -0.11910244510404795
0.5699870259301929 0.2960377645063288 -0.11910244510404795
0.5700506684581111 0.43977895970442016 -0.11910244510404795
0.698072159260409 0.4640176710515494 -0.11792051244271007
0.4176995484116583 0.31191202932706674 -0.11792051244271007
0.5258918458725874 0.23302257007761443 -0.11792051244271007
-0.14464582827350003 0.4043118880745812 -0.11728408716352814
0.45927630272164394 0.31093011603918597 -0.11728408716352814
-0.14811889193989294 0.3234858776184753 -0.11728408716352814
0.4306098897893491 0.40766675847484024 -0.11728408716352814
0.5620680770992292 0.4810647767439227 -0.11728408716352814
0.553067205293656 0.2510879562166789 -0.11728408716352814
0.4271913768611718 0.4844014635647764 -0.11728408716352814
0.5223915068370868 0.2507242846285749 -0.11728408716352814
0.599217129824049 0.47490054332556036 -0.11728408716352814
0.5172910128139286 0.25425189903318335 -0.11728408716352814
0.0396356572084808 0.4857015894922481 -0.11728408716352814
0.6001899513222271 0.2683714484413197 -0.11728408716352814
-0.22403533595659522 0.36052582886686396 -0.11728408716352814
0.47126837333937205 0.22452174670568426 -0.11682949767839818
0.7339938203753779 0.4400698969749034 -0.11610215450219026
0.44621140091900896 0.3322958218402939 -0.11610215450219026
0.47055921374256954 0.22452174670568426 -0.11610215450219026
-0.10669669805485155 0.4108034259222369 -0.11546572922300832
0.4330646730090507 0.4172495048213797 -0.11546572922300832
-0.10255993374016885 0.3205310459651306 -0.11546572922300832
0.42560940545291953 0.4091032612478509 -0.11546572922300832
0.5612861831848056 0.48446510609269466 -0.11546572922300832
0.4841423475582526 0.49049296266551795 -0.11546572922300832
0.2847866747493624 0.2525971933073103 -0.11546572922300832
0.47004098172952125 0.49614805586053445 -0.11546572922300832
0.5591768879738026 0.2567157740425877 -0.11546572922300832
0.5136724805122943 0.4988846845610169 -0.11546572922300832
0.5704416154153229 0.30368395964621453 -0.11546572922300832
0.6088907940676144 0.4611173901364203 -0.11546572922300832
0.48536973916810333 0.2291221922951994 -0.11501113973787837
0.698072159260409 0.4640176710515494 -0.11428379656167044
0.4466114396659234 0.4041391440702317 -0.11428379656167044
-0.24130064460183087 0.37760020992834503 -0.1136473712824885
-0.1443003402648013 0.3301956184189934 -0.1136473712824885
0.4243365548945558 0.41190353247625144 -0.1136473712824885
0.41010790400998826 0.3196673259433837 -0.1136473712824885
0.42600035241013134 0.4030572210956224 -0.1136473712824885
0.567314039757629 0.47905549121964824 -0.1136473712824885
0.4561396352742473 0.24686936579467292 -0.1136473712824885
0.4100078943232594 0.24867863194549011 -0.1136473712824885
0.5470938994590484 0.483665028598866 -0.1136473712824885
0.6794067150009728 0.3087935454590752 -0.1136473712824885
0.5552310512428746 0.2580977260773828 -0.1136473712824885
0.6929534816578455 0.39723847568595905 -0.1136473712824885
0.5064808748575385 0.22554911894207808 -0.11319278179735855
0.4461113912322804 0.3801913699935857 -0.11246543862115062
0.7220199333370548 0.44237011976966095 -0.11246543862115062
-0.2273720227774491 0.37137233398206465 -0.11182901334196868
-0.0980685896270849 0.4120853682703034 -0.11182901334196868
0.43315559090607686 0.41086706845015514 -0.11182901334196868
-0.14526406997327676 0.32066742281066957 -0.11182901334196868
0.43047351294381 0.40752128983959857 -0.11182901334196868
0.5657684355081869 0.4850560724233636 -0.11182901334196868
0.5489122573995684 0.43059625210479513 -0.11182901334196868
0.49748000305196527 0.23951410792527017 -0.11182901334196868
0.5462210876475988 0.29976539828439436 -0.11182901334196868
0.41609030163429833 0.4774644280216934 -0.11182901334196868
0.6575591443456273 0.4303962327313379 -0.11182901334196868
0.57798780086848 0.4684180972676073 -0.11182901334196868
0.4466114396659234 0.3921652570319088 -0.11064708068063081
0.6741243851837628 0.2843911818972993 -0.11064708068063081
0.6142549499921478 0.5022486467509784 -0.11064708068063081
-0.22677196465707755 0.3759182288333642 -0.11001065540144887
0.41604484268578534 0.3299774154661311 -0.11001065540144887
0.408753227344301 0.3219311815793309 -0.11001065540144887
0.42949159965592926 0.42748686002650627 -0.11001065540144887
0.5678686389294872 0.2519789516075336 -0.11001065540144887
0.5757603123913435 0.25353364764667796 -0.11001065540144887
0.4735049536062115 0.24345085286649562 -0.11001065540144887
0.617546177864489 0.26648944797288177 -0.11001065540144887
0.5686869000027213 0.29999269302695925 -0.11001065540144887
0.4599309115802311 0.48218306687734225 -0.11001065540144887
0.5826246136168057 0.2873823807094543 -0.11001065540144887
0.5764149212499307 0.4620538444757879 -0.11001065540144887
0.4460568404940648 0.3772001711814307 -0.10882872274011099
0.6262288370304708 0.25077883536679046 -0.10882872274011099
0.5333107462699083 0.5104676246421279 -0.10882872274011099
-0.23186336689053305 0.3800004424098313 -0.10819229746092907
-0.10546930644500062 0.4075031062601934 -0.10819229746092907
-0.06832025372018079 0.32184935547200755 -0.10819229746092907
0.45905809976878154 0.42965979776542734 -0.10819229746092907
0.5633045604987827 0.2500605839802852 -0.10819229746092907
0.5701779535139476 0.25125160843132566 -0.10819229746092907
0.47700529264171204 0.4932114077865949 -0.10819229746092907
0.5427843911400165 0.29986540797112293 -0.10819229746092907
0.49327959620936457 0.4999938829047339 -0.10819229746092907
0.6800795074389653 0.3055841436940578 -0.10819229746092907
0.5619317002536901 0.4016752690608275 -0.10819229746092907
0.521727806188797 0.5071945803491924 -0.1077377079757991
0.5424025359725073 0.417240413031677 -0.10701036479959117
0.638202724068794 0.24616929798757267 -0.10701036479959117
0.5543764230108305 0.5119132192048413 -0.10701036479959117
-0.14414577983985716 0.4060120527489672 -0.10637393952040923
0.4328010111076754 0.4177586450447252 -0.10637393952040923
-0.13900891865788856 0.41506747529275595 -0.10637393952040923
0.41301727671481986 0.3163851898607455 -0.10637393952040923
0.6902895872749839 0.41123983182796164 -0.10637393952040923
0.5144361908473126 0.49402966885982885 -0.10637393952040923
0.5130724223919227 0.24256894926534356 -0.10637393952040923
0.5615316615067759 0.49162034458864023 -0.10637393952040923
0.602071951790665 0.2539609617627002 -0.10637393952040923
0.549575958047858 0.29801977466149526 -0.10637393952040923
0.7066548087396624 0.351070367576161 -0.10637393952040923
0.5370838389964868 0.5119132192048413 -0.10591935003527929
0.638202724068794 0.4999393321665183 -0.10519200685907136
0.6698603358132439 0.27241729485897626 -0.10519200685907136
0.4466114396659234 0.3596166498966041 -0.10519200685907136
-0.10809683366905176 0.4107761505531291 -0.10455558157988942
0.4320827597211702 0.4170313018685173 -0.10455558157988942
-0.15010999388476207 0.4057847580064023 -0.10455558157988942
0.4269458985392015 0.30610237570710597 -0.10455558157988942
0.6431213822979001 0.45333481815099536 -0.10455558157988942
0.5192457475999875 0.49700268409257875 -0.10455558157988942
0.5641500969411243 0.2490332117438915 -0.10455558157988942
0.4942978766560556 0.5001302597502728 -0.10455558157988942
0.5825064203506719 0.24619657335668046 -0.10455558157988942
0.5701324945654347 0.29709241211183024 -0.10455558157988942
0.6863710259131639 0.41265815102156717 -0.10455558157988942
0.5304286489341843 0.22479450039676224 -0.10410099209475947
0.5783241970874763 0.4981482495951063 -0.10337364891855154
0.6704513021439129 0.27241729485897626 -0.10337364891855154
0.4117535179461585 0.30872081114145444 -0.10337364891855154
-0.10437829168068868 0.32868638132836203 -0.1027372236393696
0.4569488045577786 0.3108937488803755 -0.1027372236393696
0.42490024585611674 0.3198946206859487 -0.1027372236393696
0.42550939576619096 0.42091349607152717 -0.1027372236393696
0.5595769267207171 0.42183176683148965 -0.1027372236393696
0.5477212329485279 0.4912657647902387 -0.1027372236393696
0.5655320489759196 0.24885137594983942 -0.1027372236393696
0.5107449242280574 0.49068389024927245 -0.1027372236393696
0.71745585490635 0.3456425691237093 -0.1027372236393696
0.4711592718629408 0.25115159874459697 -0.1027372236393696
0.5839611067030878 0.43746964511996006 -0.1027372236393696
0.6262288370304708 0.4803738007265251 -0.10155529097803173
0.7220199333370548 0.2843911818972993 -0.10155529097803173
0.4458295457515 0.3921652570319088 -0.10155529097803173
-0.10553294897291886 0.3295137341912985 -0.1009188656988498
0.4588489886056218 0.310520985502569 -0.1009188656988498
0.41919060192288465 0.3200219057417851 -0.1009188656988498
0.425736690508756 0.4284142225761713 -0.1009188656988498
0.5517670793661844 0.4307962714782523 -0.1009188656988498
0.5690869387496357 0.2493423325937798 -0.1009188656988498
0.5769058778938707 0.44006080518520074 -0.1009188656988498
0.6139185537731519 0.4754278671283112 -0.1009188656988498
0.6280562867606932 0.26416194980901636 -0.1009188656988498
0.5784423903536101 0.4286324255290337 -0.1009188656988498
0.5828700919387758 0.29484674005528827 -0.1009188656988498
0.4457840868029868 0.37790933077823347 -0.0997369330375119
0.590307175915502 0.24043237868523265 -0.0997369330375119
0.5428298500885295 0.5119132192048413 -0.0997369330375119
0.7121007907715191 0.38947408727993943 -0.09910050775832997
0.555812925783841 0.4907929917257036 -0.09910050775832997
0.5518398136838053 0.24080514206303932 -0.09910050775832997
0.5435026425265219 0.2995835624903423 -0.09910050775832997
0.5100084892621469 0.5054944156748062 -0.09910050775832997
0.5807244295689625 0.25530654663868485 -0.09910050775832997
0.5861795033905219 0.43838791587992254 -0.09910050775832997
0.43384656692347434 0.42175903251386876 -0.09910050775832997
-0.14709151970349923 0.32688620696724735 -0.09910050775832997
0.4605855204388183 0.431414513178029 -0.09910050775832997
0.42600035241013134 0.3333777448149032 -0.09910050775832997
0.6142549499921478 0.22452174670568426 -0.09791857509699209
0.4466114396659234 0.3322958218402939 -0.09791857509699209
0.5522216688513145 0.30552050116613955 -0.09728214981781015
0.5242189565673092 0.2409687942776861 -0.09728214981781015
0.5712507846988543 0.48748358027395755 -0.09728214981781015
0.6034811791945679 0.25511561905493024 -0.09728214981781015
0.5703234221491891 0.2565521218279409 -0.09728214981781015
0.5856430877980686 0.4393789209575058 -0.09728214981781015
0.5876705569017483 0.26042522424124814 -0.09728214981781015
0.44122000837228226 0.4247956902745369 -0.09728214981781015
-0.14660965484926153 0.4098306044240588 -0.09728214981781015
0.43647409414752536 0.3205128623857254 -0.09728214981781015
0.4273732126552239 0.32535878629721077 -0.09728214981781015
0.7459767992034033 0.4280869181468777 -0.09610021715647228
0.4708137838542422 0.2943012326731323 -0.09610021715647228
0.5608952362275939 0.3048658923075524 -0.09546379187729034
0.5210095548022916 0.24054148016166385 -0.09546379187729034
0.5430298694619866 0.494120586756855 -0.09546379187729034
0.5395477140058913 0.2327861835453469 -0.09546379187729034
0.5499305378462594 0.29561045039030653 -0.09546379187729034
0.5025168545472052 0.48960196727466315 -0.09546379187729034
0.5868341122491091 0.301383736851457 -0.09546379187729034
0.43517396822005366 0.42330463676331065 -0.09546379187729034
-0.14740064055338753 0.40737582120435706 -0.09546379187729034
0.43660137920336184 0.4172858719801901 -0.09546379187729034
0.42600035241013134 0.33156847866408584 -0.09546379187729034
0.5783241970874763 0.5119132192048413 -0.09428185921595246
0.5343017513474917 0.29637416072532485 -0.09428185921595246
0.5808608064145013 0.302902065731791 -0.09364543393677052
0.5449573288789378 0.24195070756556672 -0.09364543393677052
0.578287829928666 0.3000836109239853 -0.09364543393677052
0.5821154733934601 0.44801612117497497 -0.09364543393677052
0.5920891666972113 0.4905747887728412 -0.09364543393677052
0.7075730794996249 0.3411966839591384 -0.09364543393677052
0.4143810451702098 0.40789405321740524 -0.09364543393677052
0.4324282477298688 0.31795806947929506 -0.09364543393677052
0.4130809192427381 0.4167585481774393 -0.09364543393677052
0.4130354602942249 0.31528508330673094 -0.09364543393677052
0.4466114396659234 0.34426970887861685 -0.09246350127543264
0.7339938203753779 0.4041391440702317 -0.09246350127543264
0.5424025359725073 0.3921652570319088 -0.09246350127543264
0.726774939351514 0.3730815904461533 -0.0918270759962507
0.5776786800185918 0.48707444973734065 -0.0918270759962507
0.65228590631812 0.4573352056201391 -0.0918270759962507
0.6616686332912021 0.28129997339841556 -0.0918270759962507
0.5932074568306309 0.46937273518638023 -0.0918270759962507
0.595771341526764 0.26202537922890545 -0.0918270759962507
-0.14072726691167986 0.33122299065538713 -0.0918270759962507
0.4323827887813559 0.4185223553797435 -0.0918270759962507
-0.10437829168068868 0.4164130601687406 -0.0918270759962507
0.42814601477994463 0.305011360942794 -0.0918270759962507
0.4466114396659234 0.3801913699935857 -0.09064514333491282
0.7699245732800495 0.3682174829552628 -0.09064514333491282
0.5475212135750706 0.38566462739455043 -0.09064514333491282
0.7083731569934536 0.4015570757946937 -0.0900087180557309
0.5505578713357386 0.49404785243923416 -0.0900087180557309
0.6316293601138147 0.4704819335300973 -0.0900087180557309
0.6620232130896035 0.2808090167544752 -0.0900087180557309
0.5909708765637918 0.44217010039620375 -0.0900087180557309
0.5916800361605943 0.2996744803873683 -0.0900087180557309
0.4111807351948949 0.4118126145792254 -0.0900087180557309
-0.14264563453892826 0.32219484348070626 -0.0900087180557309
0.4336101803912067 0.31440317970557885 -0.0900087180557309
0.4403290129814274 0.315239624358218 -0.0900087180557309
0.4299007301925464 0.3294864588221907 -0.0900087180557309
0.4466114396659234 0.3921652570319088 -0.08882678539439301
0.5783241970874763 0.23407721768311593 -0.08882678539439301
0.7220199333370548 0.4520437840132263 -0.08882678539439301
0.5366656166701673 0.23651381732341248 -0.08819036011521107
0.5451209810935845 0.23274072459683393 -0.08819036011521107
0.5510124608208687 0.2974651754896368 -0.08819036011521107
0.5512306637737311 0.4388697807341603 -0.08819036011521107
0.5987443567595139 0.43746964511996006 -0.08819036011521107
-0.13900891865788856 0.3259861197866901 -0.08819036011521107
0.43118267254061277 0.41738588166691865 -0.08819036011521107
-0.13900891865788856 0.4132127501934256 -0.08819036011521107
0.42872788932091116 0.4212135251317128 -0.08819036011521107
0.5450482467759636 0.3562435959169399 -0.08773577063008113
0.5424025359725073 0.4161130311085548 -0.0870084274538732
0.6741243851837628 0.24846952078233026 -0.0870084274538732
0.587452353948886 0.43386020460802815 -0.08637200217469126
0.5736237418112325 0.24632385841251694 -0.08637200217469126
0.6448306387619885 0.2722081836958165 -0.08637200217469126
0.5321379053982731 0.23046777717118416 -0.08637200217469126
0.5806516952513416 0.314875952770114 -0.08637200217469126
0.5842611357632737 0.32764991730226567 -0.08637200217469126
0.6675873883875941 0.29601048913722094 -0.08637200217469126
-0.1426274509595231 0.32219484348070626 -0.08637200217469126
0.45652149044175644 0.3104937101334612 -0.08637200217469126
0.42054527858857194 0.3193127461449823 -0.08637200217469126
0.4253548353412468 0.42875971058487017 -0.08637200217469126
0.44540223163547765 0.3975748719049552 -0.08519006951335337
0.7459767992034033 0.3562435959169399 -0.08519006951335337
0.5464847495489744 0.3837553515570047 -0.08519006951335337
0.6095908618747147 0.25764313659225274 -0.08455364423417143
0.5422116083887529 0.49629352449577596 -0.08455364423417143
0.7165466759360901 0.336168924253601 -0.08455364423417143
0.5348199833605397 0.22996772873754115 -0.08455364423417143
0.6166642742633367 0.2640892154913955 -0.08455364423417143
0.5842611357632737 0.42089531249212186 -0.08455364423417143
0.6977175794620074 0.33395052756616683 -0.08455364423417143
-0.1438275672002661 0.3241495782667651 -0.08455364423417143
0.4219272306233669 0.4107761505531291 -0.08455364423417143
-0.10116888991567126 0.31781260084405355 -0.08455364423417143
0.43981987275808204 0.41694038397149125 -0.08455364423417143
0.43462846083789775 0.4386243024121901 -0.08337171157283356
0.5464847495489744 0.3886285508375978 -0.08337171157283356
0.7579506862417263 0.32032193480197085 -0.08337171157283356
0.5918345965855387 0.48492878736752715 -0.08273528629365162
0.5441299760160012 0.2400232481486158 -0.08273528629365162
0.5529399202378196 0.3087935454590752 -0.08273528629365162
0.5766603995719007 0.4861198118185676 -0.08273528629365162
0.6721605586080014 0.2855367473998268 -0.08273528629365162
0.6159642064562366 0.3186672290760978 -0.08273528629365162
0.5893889051555394 0.42709591306929445 -0.08273528629365162
0.6233921986432599 0.2777723589938072 -0.08273528629365162
0.4194451720345574 0.3290773282855737 -0.08273528629365162
0.4564305725447305 0.4260230818843878 -0.08273528629365162
-0.10076885116875693 0.32150386746330867 -0.08273528629365162
0.4286006042650747 0.42124989229052323 -0.08273528629365162
0.5464847495489744 0.3886285508375978 -0.08228069680852167
0.5464847495489744 0.34373329328616353 -0.08155335363231374
0.7182832077692866 0.4161130311085548 -0.08155335363231374
0.41953608993158326 0.30994820275130525 -0.08155335363231374
0.41609030163429833 0.357216417415118 -0.08091692835313181
0.4305553390511335 0.31951276551843955 -0.08091692835313181
-0.10174167266693503 0.4176768189374018 -0.08091692835313181
0.4140901078997265 0.3155942041566194 -0.08091692835313181
0.5533399589847341 0.43140542138832644 -0.08091692835313181
0.5676686195560302 0.30693882035974507 -0.08091692835313181
0.5961895638530835 0.2531608842688714 -0.08091692835313181
0.688407586806546 0.3032020947919768 -0.08091692835313181
0.7404217156951154 0.3636443127348555 -0.08091692835313181
0.6286472530913622 0.46029003727348367 -0.08091692835313181
0.41068068676125186 0.30800255975494906 -0.07973499569179393
0.4735231371856168 0.30834804776364794 -0.07973499569179393
0.7339938203753779 0.4041391440702317 -0.07973499569179393
-0.10543293928619017 0.4075303816293012 -0.079098570412612
0.4333283349104263 0.4222590809475118 -0.079098570412612
