0.5370495267430118 0.4307369037037926 -0.12132473136608259
0.23037568769958844 0.14263695526147396 -0.12132473136608259
0.4724209630145089 0.48650730029881994 -0.12054513469867
0.24985585942656033 0.4820830892112535 -0.12054513469867
0.47658206022682353 0.31504475825976586 -0.12054513469867
0.5013927241672289 0.13223908470985876 -0.12054513469867
0.22967405069891708 0.16121084586257872 -0.12054513469867
0.24780941817460223 0.1454922280558726 -0.119862987614684
0.44248445098586586 0.15702051377523604 -0.119862987614684
0.525443281356907 0.25038695965623503 -0.119862987614684
0.5291463655271167 0.48869017096757505 -0.119862987614684
0.2479653375080848 0.49286101313823233 -0.119862987614684
0.5370495267430118 0.44225544446481346 -0.11937573969755112
0.22463590723576332 0.16121084586257872 -0.11937573969755112
0.25443598984760923 0.09394139842321576 -0.11859614303013855
0.3345395474242517 0.4949171993485331 -0.11859614303013855
0.27035925177951114 0.3152299124682764 -0.11859614303013855
0.3440116469333145 0.13956729338353696 -0.11859614303013855
0.5672783875219346 0.2984685841189058 -0.11859614303013855
0.49452252853565554 0.23337226238995556 -0.11791399594615254
0.4218933540078311 0.10179583484739761 -0.11791399594615254
0.3417897964311887 0.11331437560841835 -0.11791399594615254
0.5305593844868021 0.2688341657988852 -0.11791399594615254
0.5502734352139976 0.4673682021138411 -0.11791399594615254
0.38329357401256586 0.5828849383076998 -0.11791399594615254
0.20618870109311316 0.5199227624557916 -0.11742674802901969
0.34710079872793687 0.0842354199139292 -0.11742674802901969
0.4372221734808309 0.30486127679168906 -0.11664715136160711
0.47658206022682353 0.2552399489108784 -0.11664715136160711
0.11634993013215617 0.058528219805999364 -0.11664715136160711
0.17424472764588284 0.13554262558801955 -0.11664715136160711
0.48855861402994927 0.45311132805853355 -0.11664715136160711
0.38587598797337 0.6361021558169512 -0.11664715136160711
0.42488505621902695 0.10582050264291501 -0.1159650042776211
0.4347469540617961 0.12564174791187976 -0.1159650042776211
0.5283570239013613 0.23459038218278772 -0.1159650042776211
0.5546586664681933 0.5002964163536798 -0.1159650042776211
0.544202326166522 0.5185584682878195 -0.1159650042776211
0.34318332547418867 0.5282644467971062 -0.1159650042776211
0.5487629666708858 0.23128684130462693 -0.11547775636048824
0.3345395474242517 0.4820830892112535 -0.11469815969307567
0.47154391676366975 0.49265636901303667 -0.11469815969307567
0.320370377994028 0.08419644008055853 -0.11469815969307567
0.49813790808078134 0.311517083339724 -0.11469815969307567
0.5823928179113959 0.2769712060150041 -0.11469815969307567
0.4953313600780961 0.20179859735974617 -0.11401601260908965
0.41316187133281024 0.09524722284113184 -0.11401601260908965
0.4729959155567257 0.15206032997882366 -0.11401601260908965
0.48854886907160666 0.17278785637365554 -0.11401601260908965
0.5348861459909418 0.44164151208922603 -0.11401601260908965
0.5168384831403405 0.4966907817668966 -0.11401601260908965
0.19837324450230215 0.5150015584927498 -0.11401601260908965
0.3102940910677205 0.08419644008055853 -0.11352876469195679
0.180520480818554 0.5077513094858128 -0.11352876469195679
0.48908484178045275 0.23020515092859195 -0.11274916802454421
0.46145788487901956 0.46609161257095305 -0.11274916802454421
0.29603721701241287 0.28956169219371725 -0.11274916802454421
0.2672700999848887 0.08419644008055853 -0.11274916802454421
0.180520480818554 0.21254728641169704 -0.11274916802454421
0.2827256039163431 0.14148705017704047 -0.1120670209405582
0.5602717624735638 0.26475102825331187 -0.1120670209405582
0.29216846855037804 0.12332244782632734 -0.1120670209405582
0.45679004983288674 0.12644083449597773 -0.1120670209405582
0.4731908147235788 0.48372998717116267 -0.1120670209405582
0.24139723558513376 0.4937380593890715 -0.1120670209405582
0.355627637277762 0.5415078451847775 -0.1120670209405582
0.3102940910677205 0.08591155274886622 -0.11157977302342535
0.5471258136693193 0.19650708497968322 -0.11080017635601275
0.3345395474242517 0.5719218601722105 -0.11080017635601275
0.45138159795271193 0.16477750061599128 -0.11080017635601275
0.42880252947277514 0.14837673572529922 -0.11080017635601275
0.05216963448741562 0.17404495599985836 -0.11080017635601275
0.180520480818554 0.5077513094858128 -0.11080017635601275
0.3577520381964611 0.1108391561893835 -0.11011802927202675
0.3914306142286846 0.08667165949959352 -0.11011802927202675
0.4284809458474675 0.11068323685590092 -0.11011802927202675
0.37084926220899256 0.10066541967964937 -0.11011802927202675
0.5172477713907322 0.43955609100389736 -0.11011802927202675
0.22475284673587523 0.49701236539220445 -0.11011802927202675
0.19502097883242797 0.5067865586098895 -0.11011802927202675
0.5975072483008571 0.3023470775392835 -0.10963078135489389
0.16570814413771504 0.17404495599985836 -0.10885118468748131
0.35564712719444724 0.12756150470538324 -0.10885118468748131
0.44634345448955814 0.15367799306370472 -0.10885118468748131
0.624637212326815 0.2382155066862562 -0.10885118468748131
0.48546946223532694 0.401979531634611 -0.10885118468748131
0.5521834470491584 0.41790279356651294 -0.10885118468748131
0.4948733470359911 0.2014380339010678 -0.1081690376034953
0.16994720101677097 0.1607138529871032 -0.1081690376034953
0.4635140710893202 0.1288965639983273 -0.1081690376034953
0.2661494297754832 0.12861396020639027 -0.1081690376034953
0.5414542479138928 0.41376118627088365 -0.1081690376034953
0.5303742302782916 0.49667129185021147 -0.1081690376034953
0.38915029397650286 0.5918015751912314 -0.1081690376034953
0.426190880636943 0.46924897907397395 -0.10768178968636245
0.22967405069891708 0.09703055021783819 -0.10768178968636245
0.3730418778360904 0.2510496168235357 -0.10690219301894988
0.5168872079320538 0.2915204288205913 -0.10690219301894988
0.47892085022906133 0.10986466035511769 -0.10690219301894988
0.2548647680146861 0.08419644008055853 -0.10690219301894988
0.42108452246539063 0.4404818620464498 -0.10690219301894988
0.5705916733584377 0.2853616151480319 -0.10622004593496387
0.35893117815592274 0.10295548489017382 -0.10622004593496387
0.1622486839260717 0.16003170590311724 -0.10622004593496387
0.4132885557912647 0.10325757859879611 -0.10622004593496387
0.5400314839958648 0.23540895868357095 -0.10622004593496387
0.5547171362182493 0.5300672640904978 -0.10622004593496387
0.20958969155470059 0.5014950462298269 -0.10622004593496387
0.2283877161976864 0.48977186134361017 -0.10622004593496387
0.5823928179113959 0.25691608174581543 -0.10573279801783099
0.5912314951281861 0.3023958023309968 -0.10495320135041843
0.39871009811064956 0.1868790661371379 -0.10495320135041843
0.47154391676366975 0.4050686834292334 -0.10495320135041843
0.3730418778360904 0.22538139654897657 -0.10495320135041843
0.11881540459284845 0.09703055021783819 -0.10495320135041843
0.2672700999848887 0.07136232994327901 -0.10495320135041843
0.14312907565777816 0.1126224835660897 -0.10427105426643242
0.44796111757443924 0.10052899026285207 -0.10427105426643242
0.2022322480059944 0.15030623747714528 -0.10427105426643242
0.43181372160065623 0.10488498664201988 -0.10427105426643242
0.5464826464187039 0.4462801122603309 -0.10427105426643242
0.4683280805105929 0.4577791631046665 -0.10427105426643242
0.25428007051412665 0.5031321992313931 -0.10427105426643242
0.39562094631602723 0.5933412786093711 -0.10427105426643242
0.5622402440587806 0.1997131762744174 -0.10378380634929955
0.6227077105749688 0.3023958023309968 -0.10300420968188698
0.11634993013215617 0.07136232994327901 -0.10300420968188698
0.06500374462469513 0.16121084586257872 -0.10300420968188698
0.320370377994028 0.1356108402964182 -0.10300420968188698
0.320370377994028 0.41790279356651294 -0.10300420968188698
0.244691031504952 0.6361021558169512 -0.10300420968188698
0.5271583940252146 0.22940606434449412 -0.10232206259790097
0.35469212127686683 0.1035694172657611 -0.10232206259790097
0.313178598737147 0.09962270913698505 -0.10232206259790097
0.3277473114594196 0.09058913275334174 -0.10232206259790097
0.5524368159660673 0.24958787307213723 -0.10232206259790097
0.4753931753090193 0.49125309501169395 -0.10232206259790097
0.5495523082966409 0.5039507757321763 -0.10232206259790097
0.37359734046162185 0.5622061367045813 -0.10232206259790097
0.15409215379326754 0.08419644008055853 -0.10183481468076812
0.5269634948583616 0.3768277941522128 -0.10183481468076812
0.5118490644689 0.3742356352330659 -0.10105521801335551
0.5823928179113959 0.2382155066862562 -0.10105521801335551
0.244691031504952 0.4435807587994148 -0.10105521801335551
0.3757997010470624 0.4564148689366945 -0.10105521801335551
0.1893591580353441 0.09536416234124373 -0.10105521801335551
0.3153322345308742 0.13140101829239026 -0.10105521801335551
0.2558587537656372 0.12886732912329932 -0.10037307092936952
0.13049960964569446 0.16409535353200533 -0.10037307092936952
0.1675499412644772 0.15114430389461378 -0.10037307092936952
0.18567556378181965 0.13433425075353012 -0.10037307092936952
0.5272266087336132 0.2132489234123684 -0.10037307092936952
0.5277528364841167 0.4850455565474213 -0.10037307092936952
0.5406551613297947 0.52446391304347 -0.10037307092936952
0.5122875875943198 0.4836715174211067 -0.10037307092936952
0.2148812039347634 0.5021869382721555 -0.10037307092936952
0.2793635932881264 0.508852489778533 -0.10037307092936952
0.6227077105749688 0.2767178370980949 -0.09988582301223665
0.4009904183628314 0.4495349283467784 -0.09988582301223665
0.4467527427399498 0.4148136417718907 -0.09910622634482408
0.5219253513952076 0.35373224288011507 -0.09910622634482408
0.5257843548989 0.2755484420969761 -0.09910622634482408
0.45005628361811056 0.045694109668719854 -0.09910622634482408
0.2548647680146861 0.14957536560144596 -0.09910622634482408
0.5790990219915777 0.260706870541109 -0.09842407926083807
0.47939835318785146 0.16299417323928506 -0.09842407926083807
0.3274257278341119 0.1062395358516492 -0.09842407926083807
0.14788461532899488 0.15152435726997743 -0.09842407926083807
0.277297662119483 0.09848254901089412 -0.09842407926083807
0.5567830673868924 0.25485989553551475 -0.09842407926083807
0.5144022435546762 0.48524045571427454 -0.09842407926083807
0.5583520056800603 0.488894815092771 -0.09842407926083807
0.2106713819307356 0.5093299927373233 -0.09842407926083807
0.2798605861636019 0.5103044885715889 -0.09842407926083807
0.6312442940831366 0.3023958023309968 -0.09793683134370522
0.39091413143652376 0.4564148689366945 -0.09793683134370522
0.4276818592633695 0.07136232994327901 -0.09715723467629264
0.25990291147783984 0.07136232994327901 -0.09715723467629264
0.4372221734808309 0.21254728641169704 -0.09715723467629264
0.43412327672786594 0.37940046315467424 -0.09715723467629264
0.16768637068127448 0.5719218601722105 -0.09715723467629264
0.5686914064816196 0.28452354873056335 -0.09647508759230662
0.4286368651809499 0.12269877049239734 -0.09647508759230662
0.2634403313562244 0.11134589402320161 -0.09647508759230662
0.13669740315162443 0.13074810608343215 -0.09647508759230662
0.5408110806632774 0.4565123185201209 -0.09647508759230662
0.5502442003389695 0.48878762055100183 -0.09647508759230662
0.5656314895620254 0.5189482666215259 -0.09647508759230662
0.4680162418436279 0.465809008779016 -0.09647508759230662
0.2288067494064206 0.5088135099451623 -0.09647508759230662
0.4312290241000968 0.07136232994327901 -0.09598783967517376
0.29603721701241287 0.41790279356651294 -0.09598783967517376
0.5034781452525575 0.2167473634573823 -0.09520824300776119
0.4659795455500125 0.3152299124682764 -0.09520824300776119
0.23185692136767233 0.37940046315467424 -0.09520824300776119
0.30885183723300713 0.11859614303013859 -0.09520824300776119
0.22967405069891708 0.07136232994327901 -0.09520824300776119
0.2717625257808537 0.08748049104203405 -0.09452609592377519
0.5287273323183824 0.15160231693671863 -0.09452609592377519
0.16539630547075004 0.1419060833857748 -0.09452609592377519
0.4644106072568447 0.1126419734827751 -0.09452609592377519
0.5443290106249766 0.46319735994318384 -0.09452609592377519
0.5220228009786343 0.3830353326164854 -0.09452609592377519
0.5653878656034589 0.5052371102334071 -0.09452609592377519
0.4997945509990331 0.4036166846361775 -0.09452609592377519
0.38179285042779654 0.5750207569251756 -0.09452609592377519
0.396819576192174 0.5998704006989517 -0.09452609592377519
0.6126314236486613 0.2510496168235357 -0.09403884800664232
0.12588049939127488 0.08620390149914595 -0.09325925133922974
0.39091413143652376 0.058528219805999364 -0.09325925133922974
0.44634345448955814 0.3408981327428356 -0.09325925133922974
0.6202032562809059 0.2510496168235357 -0.09325925133922974
0.3088713271496925 0.2382155066862562 -0.09325925133922974
0.49060505528190734 0.17946315283837577 -0.09257710425524372
0.15963703509023955 0.16545964769997734 -0.09257710425524372
0.2818583026238466 0.07866130374192924 -0.09257710425524372
0.27533892549260897 0.09125178992064241 -0.09257710425524372
0.5590049178890184 0.23167663963833315 -0.09257710425524372
0.5304521899450326 0.4357750471669463 -0.09257710425524372
0.5618796806001024 0.506318800609442 -0.09257710425524372
0.4804020838971451 0.37441104448323376 -0.09257710425524372
0.5039264133363197 0.4365351539176736 -0.09257710425524372
0.21227930005727394 0.5113374541559106 -0.09257710425524372
0.36764317091425824 0.5646033964568751 -0.09257710425524372
0.6277458540381226 0.26388372696081536 -0.09208985633811087
0.09593424240428927 0.22538139654897657 -0.09131025967069828
0.5246052149394383 0.35373224288011507 -0.09131025967069828
0.45005628361811056 0.06806853402346093 -0.09131025967069828
0.23471219416207098 0.1451608994722222 -0.09131025967069828
0.2832031068751334 0.4050686834292334 -0.09131025967069828
0.1921657060380295 0.5306909414244277 -0.09062811258671229
0.29599823717904233 0.5154108467431414 -0.09062811258671229
0.36681484945513243 0.42518227744847786 -0.09062811258671229
0.4647906606322083 0.37472288315019875 -0.09062811258671229
0.43574093981274703 0.4497980422220302 -0.09062811258671229
0.45901190033501255 0.44839476822068747 -0.09062811258671229
0.577130540406361 0.24200629548154984 -0.09062811258671229
0.5191967630592635 0.21766338954159214 -0.09062811258671229
0.4165141370026843 0.09250888954684523 -0.09062811258671229
0.33972386526254533 0.08063953028548869 -0.09062811258671229
0.20463925271663075 0.12917916779026434 -0.09062811258671229
0.46145788487901956 0.2767178370980949 -0.09014086466957942
0.20951173188795938 0.08118524795267747 -0.09014086466957942
0.49164776582457165 0.26388372696081536 -0.08936126800216684
0.41463336004255147 0.04724355804520241 -0.08936126800216684
0.1972330843762112 0.16027532986168358 -0.08936126800216684
0.3088713271496925 0.2382155066862562 -0.08936126800216684
0.29603721701241287 0.4949171993485331 -0.08936126800216684
0.3915962785205097 0.5960308871119446 -0.08867912091818084
0.5370008019512983 0.4330172239559743 -0.08867912091818084
0.5236112291884872 0.38323023178333854 -0.08867912091818084
0.5549802500935012 0.46868377149009993 -0.08867912091818084
0.35157373460721647 0.4318185940798276 -0.08867912091818084
0.49601350716208203 0.34746623466578647 -0.08867912091818084
0.41402917262530675 0.11851818336339737 -0.08867912091818084
0.16909938964095975 0.16097696686235494 -0.08867912091818084
0.21452064047608516 0.09846305909420884 -0.08867912091818084
0.5995926693861857 0.27974851914266136 -0.08867912091818084
0.2649410549409936 0.058528219805999364 -0.08819187300104799
0.44634345448955814 0.2831202747292208 -0.08819187300104799
0.3270456744587482 0.5167264161194001 -0.0874122763336354
0.4824582701074459 0.2801480624347103 -0.0874122763336354
0.3506089837312935 0.38894077737213567 -0.0874122763336354
0.4434881816951595 0.13764753659003345 -0.0874122763336354
0.2145498753511131 0.07136232994327901 -0.0874122763336354
0.3903489238526496 0.6033785857023081 -0.08673012924964939
0.5424969584565571 0.4886511911342045 -0.08673012924964939
0.5118880443022705 0.35759124638380735 -0.08673012924964939
0.5497666973801792 0.44902819051296017 -0.08673012924964939
0.5423118042480466 0.49688568093374985 -0.08673012924964939
0.4647906606322083 0.39979666096585587 -0.08673012924964939
0.1551153744192466 0.16035328952842495 -0.08673012924964939
0.30074403189191634 0.07292152327810414 -0.08673012924964939
0.5484024032122073 0.16916273187018704 -0.08673012924964939
0.47901829981248784 0.11127767931480309 -0.08673012924964939
0.2000201424622112 0.12727890091344624 -0.08673012924964939
0.24478848108837847 0.21254728641169704 -0.08624288133251652
0.6498279296425837 0.3134465850915701 -0.08624288133251652
0.504686520087047 0.3023958023309968 -0.08546328466510394
0.12165118747056167 0.17404495599985836 -0.08546328466510394
0.3707615575839086 0.045694109668719854 -0.08546328466510394
0.2832031068751334 0.28956169219371725 -0.08546328466510394
0.16768637068127448 0.5462536398976514 -0.08546328466510394
0.3698260415830135 0.5654122279993157 -0.08478113758111795
0.5090912412579282 0.48267753167015565 -0.08478113758111795
0.4583882230010824 0.38564698145231757 -0.08478113758111795
0.5429939513320325 0.41596354685632414 -0.08478113758111795
0.40847454636999203 0.40513689813763204 -0.08478113758111795
0.486375743361194 0.3959376574621636 -0.08478113758111795
0.5410839394968717 0.5048862917330714 -0.08478113758111795
0.5683503329396267 0.21403826503812368 -0.08478113758111795
0.6267908481205423 0.2799239283928292 -0.08478113758111795
0.6427043650941013 0.3066348592100527 -0.08478113758111795
0.4938208915349842 0.12051589982364208 -0.08478113758111795
0.13784730823605806 0.1596516525277536 -0.08478113758111795
0.20797202846981952 0.21254728641169704 -0.08429388966398509
0.4892212711972499 0.2791638216421019 -0.08429388966398509
0.6630226032385418 0.3023958023309968 -0.0835142929965725
0.37613102963071277 0.35373224288011507 -0.0835142929965725
0.2649410549409936 0.2049072390710537 -0.0835142929965725
0.180520480818554 0.24069072610529121 -0.0835142929965725
0.3455708402681396 0.054386612510370066 -0.0835142929965725
0.23661246103888905 0.5132669559077568 -0.08283214591258649
0.5311440819873613 0.4051076632626041 -0.08283214591258649
0.29596900230401435 0.4263516724495968 -0.08283214591258649
0.29264597150916816 0.42311634627983463 -0.08283214591258649
0.3116583852356925 0.41117877231007943 -0.08283214591258649
0.4483996406998588 0.45066534351452664 -0.08283214591258649
0.47241121805616626 0.2751488988049272 -0.08283214591258649
0.23268524282679828 0.12279622007582397 -0.08283214591258649
0.12091057063651965 0.13413935158667686 -0.08283214591258649
0.16134240280020454 0.1328335271687608 -0.08283214591258649
0.24632818450651833 0.08978030121090119 -0.08283214591258649
0.35564712719444724 0.28956169219371725 -0.08234489799545364
0.20951173188795938 0.06888711052424402 -0.08234489799545364
0.7195823414593244 0.37940046315467424 -0.08156530132804106
0.3314503956296293 0.3152299124682764 -0.08156530132804106
0.17347487593681282 0.16121084586257872 -0.08156530132804106
0.5270609444417881 0.3408981327428356 -0.08156530132804106
0.15913029725642144 0.06460907381181757 -0.08156530132804106
0.23776236612332272 0.5161124837438127 -0.08088315424405505
0.5161465910980119 0.38326921161670924 -0.08088315424405505
0.29546226447019613 0.42610804849103046 -0.08088315424405505
0.34466455914227256 0.4429960612988553 -0.08088315424405505
0.4652584186326559 0.2901463896942766 -0.08088315424405505
0.4254989885946142 0.41533012456405144 -0.08088315424405505
0.5139149956375433 0.3755512046093247 -0.08088315424405505
0.5482854637120955 0.2177900740000466 -0.08088315424405505
0.3367906328014055 0.10852960106217364 -0.08088315424405505
0.12100802021994628 0.16309162282271156 -0.08088315424405505
0.12541274139082734 0.11458122019296388 -0.08088315424405505
0.5100365022171657 0.13014391866618744 -0.08088315424405505
0.22967405069891708 0.1868790661371379 -0.08039590632692219
0.48039233893880257 0.19911873381551537 -0.08039590632692219
0.27035925177951114 0.38187568257370924 -0.07961630965950961
0.5398950545790677 0.3665663530173946 -0.07961630965950961
0.2145498753511131 0.1997131762744174 -0.07961630965950961
0.28629225866975566 0.045694109668719854 -0.07961630965950961
0.38825375780897836 0.5912266226490147 -0.07893416257552359
0.34400190197497177 0.553123835529225 -0.07893416257552359
0.5506729785060466 0.48690684359086883 -0.07893416257552359
0.43390888764432756 0.3916986005831077 -0.07893416257552359
0.37350963583653796 0.36272683943038775 -0.07893416257552359
0.45739423725013145 0.28389012643829065 -0.07893416257552359
0.41699163996147454 0.4008880963002334 -0.07893416257552359
0.5333269526561166 0.49813303560161015 -0.07893416257552359
0.6025551367223535 0.2558636262448084 -0.07893416257552359
0.60837287685292 0.26475102825331187 -0.07893416257552359
0.6355905455039617 0.2830033352291089 -0.07893416257552359
0.5831431797037804 0.2371825411019346 -0.07893416257552359
0.4009904183628314 0.6194090421759794 -0.07844691465839074
0.27501734186730126 0.17404495599985836 -0.07844691465839074
0.16768637068127448 0.5719218601722105 -0.07766731799097816
0.3707615575839086 0.26058993104099715 -0.07766731799097816
0.28510337375195144 0.17404495599985836 -0.07766731799097816
0.3707615575839086 0.12784410849732028 -0.07766731799097816
0.6810800110474857 0.3185237083880945 -0.07766731799097816
0.38445322405534205 0.5933900034010844 -0.07698517090699215
0.22538626902814793 0.2057940302802356 -0.07698517090699215
0.6143660262336542 0.275265838305039 -0.07698517090699215
0.549376899046473 0.48178099550263104 -0.07698517090699215
0.5508776226312422 0.45740885468764536 -0.07698517090699215
0.5056122911295994 0.4791108769167432 -0.07698517090699215
0.4864439580695926 0.08779232970899904 -0.07698517090699215
0.4812498952729563 0.4892651235097918 -0.07698517090699215
0.38607088714022314 0.41942300706796753 -0.07698517090699215
0.5061872436718161 0.34575112199747876 -0.07698517090699215
0.375897150630489 0.07185932281875455 -0.07698517090699215
0.5107089043428092 0.1262556802874672 -0.07698517090699215
0.514353518762963 0.4893041033431626 -0.07698517090699215
0.238064459831945 0.1868790661371379 -0.07649792298985929
0.17743132902393174 0.5621769018295533 -0.07571832632244671
0.22878725948973533 0.22431919608962697 -0.07571832632244671
0.3473736575615312 0.13554262558801955 -0.07571832632244671
0.503351460794103 0.39420305487717067 -0.07571832632244671
0.19088911649514137 0.5238889605012532 -0.07503617923846072
0.31604361648988816 0.5268124480040502 -0.07503617923846072
0.6595436531102131 0.31156580813143725 -0.07503617923846072
0.4508261353271804 0.41735707589932414 -0.07503617923846072
0.4365010465634743 0.12464776216092882 -0.07503617923846072
0.48370562477530604 0.08823085283441864 -0.07503617923846072
0.35330833719220955 0.31798773567924826 -0.07503617923846072
0.5039556482113476 0.10007097722074722 -0.07503617923846072
0.49367471715984435 0.49485872959847715 -0.07503617923846072
0.36526540107864985 0.38231420569912883 -0.07503617923846072
0.45211246982841125 0.2900489401108501 -0.07503617923846072
0.3575668839879507 0.4079142112652893 -0.07503617923846072
0.4562930569574112 0.1881166758466553 -0.07503617923846072
0.25602441805746234 0.07641021836477548 -0.07503617923846072
0.3153322345308742 0.35005839358493335 -0.07454893132132784
0.22967405069891708 0.054172223426831694 -0.07454893132132784
0.30578217535507013 0.1997131762744174 -0.07376933465391526
0.3163164753234826 0.4949171993485331 -0.07376933465391526
0.4372221734808309 0.2039132533201028 -0.07376933465391526
0.6630226032385418 0.32806402260555595 -0.07376933465391526
0.2617544535629447 0.5228462499585889 -0.07308718756992925
0.35390277965111155 0.21270320574517962 -0.07308718756992925
0.39753095815118805 0.059824299265572874 -0.07308718756992925
0.47354163322391446 0.4752518734130508 -0.07308718756992925
0.1451365370763656 0.06765924577306931 -0.07308718756992925
0.2940589904688534 0.4304250650368276 -0.07308718756992925
0.47851156197866973 0.3765062105269051 -0.07308718756992925
0.6460858656390035 0.29824445007702477 -0.07308718756992925
0.3511059766067689 0.11000108977191499 -0.07308718756992925
0.5010906304586065 0.33037357773276566 -0.07308718756992925
0.4629098836720755 0.2848353873975285 -0.07308718756992925
0.43700778439729254 0.4185167259421004 -0.07308718756992925
0.4097706258295655 0.06356636326915326 -0.07308718756992925
0.3707615575839086 0.13166413216764203 -0.0725999396527964
0.2870036406287697 0.12925712745700568 -0.07182034298538383
0.4253528142194745 0.13648788654725724 -0.07182034298538383
0.36020776769881085 0.6489362659542308 -0.07182034298538383
0.6145901602755354 0.2630066807099762 -0.07182034298538383
0.12475982918186936 0.13636120208880279 -0.07113819590139782
0.5197619706431378 0.3718091406057443 -0.07113819590139782
0.48873402328011706 0.2762793139726754 -0.07113819590139782
0.29737227630535695 0.4299183272030093 -0.07113819590139782
0.35253848548313954 0.20171089273466225 -0.07113819590139782
0.46071726804497753 0.38640708820304476 -0.07113819590139782
0.4433517522783624 0.20489749411271116 -0.07113819590139782
0.27576770365968584 0.0686142516906497 -0.07113819590139782
0.4539640119135161 0.20500468865448035 -0.07113819590139782
0.5050470835457254 0.3382085242402621 -0.07113819590139782
0.3557250868611885 0.3807355224476183 -0.07113819590139782
0.21824321456298026 0.21640628991538932 -0.07113819590139782
0.2178534162292739 0.523489417209204 -0.07113819590139782
0.32598347399939864 0.5337898381773929 -0.07113819590139782
0.13443657281612795 0.17404495599985836 -0.06987135131685236
0.3473736575615312 0.46924897907397395 -0.06987135131685236
0.5270609444417881 0.3477878182910942 -0.06987135131685236
0.6616875439455978 0.28956169219371725 -0.06987135131685236
0.35705040119578996 0.12255259611725748 -0.06918920423286636
0.29692400822159476 0.42909000574388356 -0.06918920423286636
0.5391836726200536 0.4803289967095754 -0.06918920423286636
0.6005281853870809 0.25163431432409517 -0.06918920423286636
0.5622207541420954 0.4997896785198617 -0.06918920423286636
0.49016653215648776 0.2237637334640955 -0.06918920423286636
0.4608926772951454 0.2160067466233404 -0.06918920423286636
0.4533013547462154 0.25844604020561257 -0.06918920423286636
0.3641154959942164 0.3697919342288142 -0.06918920423286636
0.3421795947648949 0.3283368814391504 -0.06918920423286636
0.3496149979803424 0.2842701798136543 -0.06918920423286636
0.2777166953282173 0.1785861065875366 -0.06918920423286636
0.376803431756356 0.573305644256868 -0.06918920423286636
0.3127693104867553 0.20604739919714465 -0.0687019563157335
0.39968459394491535 0.3755609495676672 -0.06792235964832093
0.3102940910677205 0.13554262558801955 -0.06792235964832093
0.30775065694028686 0.3023958023309968 -0.06792235964832093
0.6457837719303811 0.31228693504879385 -0.06724021256433492
0.36258553753441924 0.4306491990787087 -0.06724021256433492
0.5979750063013046 0.24572886956844495 -0.06724021256433492
0.4273797655547472 0.4544463873514776 -0.06724021256433492
0.4936162474097884 0.33506090269558386 -0.06724021256433492
0.3183044468253846 0.22598558396622143 -0.06724021256433492
0.46594056571664183 0.3204044853482273 -0.06724021256433492
0.3791617116752791 0.11607219881939036 -0.06724021256433492
0.31639443499022385 0.3963274557958698 -0.06724021256433492
0.36157206186678287 0.4370711266265198 -0.06724021256433492
0.3576545886130347 0.11514642777683792 -0.06724021256433492
0.28841665958845497 0.1932620138515784 -0.06724021256433492
0.30417425722853175 0.5026546962726031 -0.06724021256433492
0.33085595317072725 0.5378437408479383 -0.06724021256433492
0.19644374275045592 0.5719218601722105 -0.06597336797978946
0.6072522066435143 0.26056069616596916 -0.06597336797978946
0.4539542669551734 0.3930044250010238 -0.06597336797978946
0.2993310129322311 0.17404495599985836 -0.06597336797978946
0.5420974151645083 0.2147204121221096 -0.06529122089580347
0.5198496752682216 0.4940986228477499 -0.06529122089580347
0.4730836201818096 0.309041863920689 -0.06529122089580347
0.21471553964293824 0.12802926270583082 -0.06529122089580347
0.41123236958096404 0.39551862425342926 -0.06529122089580347
0.48269214910766955 0.0722393761941182 -0.06529122089580347
0.4535157438297538 0.07024165973387349 -0.06529122089580347
0.3431930704325312 0.3786988261540029 -0.06529122089580347
0.3352801642582936 0.3668587017676743 -0.06529122089580347
0.34169234684776206 0.17776753008675336 -0.06529122089580347
0.25494272768142734 0.18981229859827772 -0.06529122089580347
0.2641127334818678 0.18749299851272533 -0.06529122089580347
0.3289751762105944 0.5229339545836726 -0.06529122089580347
0.1939197985397077 0.5345596898864629 -0.06529122089580347
0.6682459009102061 0.28956169219371725 -0.06402437631125803
0.47154391676366975 0.361723108721094 -0.06402437631125803
0.16768637068127448 0.559087750034931 -0.06402437631125803
0.3730418778360904 0.1868790661371379 -0.06402437631125803
0.19335459095583366 0.1868790661371379 -0.06402437631125803
0.22031889068996618 0.5285275606723581 -0.06334222922727202
0.2938348564269724 0.4976068078511066 -0.06334222922727202
0.25576130418221055 0.18449155134318682 -0.06334222922727202
0.1198288802604848 0.1532589598549704 -0.06334222922727202
0.33212279775527265 0.4320622180383939 -0.06334222922727202
0.3568652469872794 0.18250357984128482 -0.06334222922727202
0.5075807727148162 0.09621197371705494 -0.06334222922727202
0.5549120353851025 0.5068742632349736 -0.06334222922727202
0.49256379190878136 0.32495538089424825 -0.06334222922727202
0.15988065904880602 0.06897481514932795 -0.06334222922727202
0.34836764331248227 0.3620349473880591 -0.06334222922727202
0.34497639780923756 0.1910304183911099 -0.06334222922727202
0.63782214096443 0.2382155066862562 -0.06285498131013917
0.6277458540381226 0.24129491352253593 -0.06207538464272659
0.2927336761342521 0.46924897907397395 -0.06207538464272659
0.47154391676366975 0.3257544674783462 -0.06207538464272659
0.426190880636943 0.4074172183898138 -0.06207538464272659
0.2195977637726096 0.14837673572529922 -0.06207538464272659
0.2427420398364205 0.5333513150519732 -0.06139323755874058
0.32840022366837757 0.5175742274952111 -0.06139323755874058
0.2859609300861054 0.5079462086526657 -0.06139323755874058
0.23453678491190313 0.20063894731696996 -0.06139323755874058
0.12043306767772952 0.13969397784199156 -0.06139323755874058
0.3453661961429438 0.4326079357055827 -0.06139323755874058
0.5498933818386339 0.46425956040253347 -0.06139323755874058
0.501275784667117 0.34174594411864667 -0.06139323755874058
0.3144454433216925 0.17914156921306806 -0.06139323755874058
0.461301965545537 0.22725242855076683 -0.06139323755874058
0.3214618133284057 0.3738848167327302 -0.06139323755874058
0.3198344052851819 0.11576036015242536 -0.06139323755874058
0.31755408503300003 0.4308635881622472 -0.06139323755874058
0.20618870109311316 0.1868790661371379 -0.06090598964160771
0.5270609444417881 0.34852843512513604 -0.06012639297419513
0.42115273717378915 0.3989585945483874 -0.06012639297419513
0.27035925177951114 0.3023958023309968 -0.06012639297419513
0.24478848108837847 0.2071680694065502 -0.06012639297419513
0.6581111442338426 0.3156586906353533 -0.05944424589020912
0.36785755999779673 0.574241160257763 -0.05944424589020912
0.402052618822181 0.6035052701607627 -0.05944424589020912
0.25288654147112666 0.16825645074431989 -0.05944424589020912
0.41308391166606906 0.4444480600919113 -0.05944424589020912
0.3731003475861463 0.12195815365835531 -0.05944424589020912
0.36074374040765694 0.13223908470985876 -0.05944424589020912
0.5137493313457181 0.09896005196968424 -0.05944424589020912
0.4057459580340481 0.45125978597342864 -0.05944424589020912
0.45198578536995665 0.13365210366954403 -0.05944424589020912
0.35159322452390185 0.3035749422904582 -0.05944424589020912
0.3265681714999581 0.1532589598549704 -0.05944424589020912
0.30021780414141286 0.1352795117127678 -0.05895699797307627
0.24478848108837847 0.20345524027799777 -0.05817740130566369
0.48162020368997727 0.32081377359861896 -0.05817740130566369
0.5131159090534454 0.29833215470210867 -0.05817740130566369
0.34052295184664316 0.40789472134860405 -0.05817740130566369
0.3986613733189363 0.6225176838872869 -0.05749525422167768
0.2885530890052521 0.5022064281888406 -0.05749525422167768
0.6584424728174929 0.30321437883178 -0.05749525422167768
0.4481365268246071 0.456424613895037 -0.05749525422167768
0.46325095721406845 0.25875787887257773 -0.05749525422167768
0.4598694566691663 0.2609602394580182 -0.05749525422167768
0.22224839244181227 0.2068757206562706 -0.05749525422167768
0.4606393083782363 0.26655384554670347 -0.05749525422167768
0.22249201640037874 0.21404800999646623 -0.05749525422167768
0.4645665265903271 0.2507280331982282 -0.05749525422167768
0.5967763764251579 0.23120888163788572 -0.05749525422167768
0.3462627323104682 0.2899320006107382 -0.05749525422167768
0.6554117907729264 0.2767275820564376 -0.05700800630454481
0.6660532852831083 0.28260379193705987 -0.056228409637132236
0.43048840726605475 0.1408341379680825 -0.056228409637132236
0.5017727775425925 0.35000966879322 -0.056228409637132236
0.3473736575615312 0.6385676302776436 -0.056228409637132236
0.3149619261138533 0.4963107283915331 -0.05554626255314624
0.30313154668586745 0.48180048541931647 -0.05554626255314624
0.6843835519256465 0.33357966902749997 -0.05554626255314624
0.21841862381314797 0.1900754124735295 -0.05554626255314624
0.3431248557241327 0.332722112693346 -0.05554626255314624
0.5459174388348298 0.44907691530467353 -0.05554626255314624
0.5045013658785366 0.08509297624808312 -0.05554626255314624
0.32544750129055244 0.44902819051296017 -0.05554626255314624
0.5832016494538363 0.23805958735277366 -0.05554626255314624
0.4992585782901869 0.09037474366980322 -0.05554626255314624
0.3048661492708604 0.11821608965477494 -0.05554626255314624
0.2698720038623782 0.1704490663714177 -0.05554626255314624
0.6810800110474857 0.3454295383721711 -0.05427941796860079
0.4570044389164251 0.2809666389354935 -0.05427941796860079
0.3668440843301604 0.17404495599985836 -0.05427941796860079
0.1893591580353441 0.574894072466721 -0.05427941796860079
0.544543399708515 0.4736049754531418 -0.05359727088461478
0.5006521073331869 0.08484935228951664 -0.05359727088461478
0.4562053523323273 0.2134340776208788 -0.05359727088461478
0.22673107327943468 0.14640825414008232 -0.05359727088461478
0.3188793993676015 0.41242612697793957 -0.05359727088461478
0.1340760093574497 0.0633714641023 -0.05359727088461478
0.3390124833035313 0.24156777235613025 -0.05359727088461478
0.3044081362287555 0.11875206236362115 -0.05359727088461478
0.33275622004754535 0.22314980108850807 -0.05359727088461478
0.18716654240824626 0.559058515159903 -0.05359727088461478
0.3147280471136295 0.5106455621135819 -0.05359727088461478
0.6579747148170454 0.26388372696081536 -0.053110022967481935
0.4976506601636485 0.22691135500877385 -0.05233042630006935
0.5068109210057463 0.3434610567869543 -0.05233042630006935
0.2822870807909235 0.4820830892112535 -0.05233042630006935
0.07783785476197479 0.14837673572529922 -0.05233042630006935
0.1205402622194987 0.11209625581558619 -0.051648279216083344
0.5346230321156898 0.4792083265001697 -0.051648279216083344
0.31337349790400004 0.36517282397439477 -0.051648279216083344
0.45077741053546716 0.1685682894112849 -0.051648279216083344
0.21767800697910608 0.14502447005542504 -0.051648279216083344
0.47458434376657876 0.06691862893902728 -0.051648279216083344
0.31566356311452465 0.18279592859156454 -0.051648279216083344
0.32022420361888815 0.43572632237523307 -0.051648279216083344
0.3199805796603218 0.4743650822038691 -0.051648279216083344
0.17435192218765203 0.5525391380286655 -0.051648279216083344
0.45318441524610353 0.2667097648801859 -0.05116103129895047
0.5118490644689 0.3149765435513672 -0.050381434631537894
0.4313946883919219 0.14837673572529922 -0.050381434631537894
0.29603721701241287 0.46853759711496007 -0.050381434631537894
0.17556029702214146 0.5481539067744695 -0.04969928754755189
0.291739690383301 0.4875695007581697 -0.04969928754755189
0.5425749181232983 0.4646493587362398 -0.04969928754755189
0.5702408548581022 0.17308020512393527 -0.04969928754755189
0.4570531637081385 0.207372713531746 -0.04969928754755189
0.21667427626981242 0.17115070337208907 -0.04969928754755189
0.5346912468240885 0.46530227094519777 -0.04969928754755189
0.639478783882682 0.25629240441188544 -0.04969928754755189
0.2536563931801965 0.12112983219922951 -0.04969928754755189
0.34216010484820963 0.14215945230268384 -0.04969928754755189
0.4505825113686141 0.2662420068797385 -0.049212039630419036
0.2863897082531823 0.4564148689366945 -0.04843244296300645
0.5131646338451586 0.32678743306266783 -0.04843244296300645
0.238064459831945 0.19171256547509583 -0.04843244296300645
0.2070267675105817 0.5342283613028124 -0.047750295879020445
0.29938948268228704 0.19105965326613786 -0.047750295879020445
0.31067414444308417 0.40501995863752016 -0.047750295879020445
0.32491152858170635 0.4534718915172119 -0.047750295879020445
0.5037997288778653 0.3025614666228219 -0.047750295879020445
0.2598444417277839 0.5273094408795259 -0.047750295879020445
0.6395275086743952 0.2559513308698923 -0.047750295879020445
0.554892545468417 0.4972852242257988 -0.047750295879020445
0.3202047137022029 0.4367787778762401 -0.047750295879020445
0.4912872023658933 0.07565011161404818 -0.047750295879020445
0.2992140734321192 0.1807105075062359 -0.047750295879020445
0.563877397060347 0.2382155066862562 -0.046483451294474995
0.3430956208491048 0.2083472093660118 -0.046483451294474995
0.3730418778360904 0.6489362659542308 -0.046483451294474995
0.6748919624998982 0.32964270585706645 -0.045801304210489
0.11481997167235887 0.15090067993604744 -0.045801304210489
0.3205750221192238 0.4597281547731978 -0.045801304210489
0.1163889099655267 0.11181365202364917 -0.045801304210489
0.5152987797222008 0.4732541569528061 -0.045801304210489
0.6431039083861503 0.2650531219619343 -0.045801304210489
0.2971189073884479 0.19838786193981606 -0.045801304210489
0.49461997811908204 0.2450662124011443 -0.045801304210489
0.3863437459738176 0.6233752402214408 -0.045801304210489
0.5374003452433475 0.47926679625022567 -0.045801304210489
0.2984929465147626 0.1432606325954041 -0.045801304210489
0.28510337375195144 0.46924897907397395 -0.045314056293356136
0.39871009811064956 0.17652017541889323 -0.04453445962594355
0.30821841494073443 0.506182371192645 -0.04453445962594355
0.11903953863472953 0.16673623724286546 -0.04453445962594355
0.3373363504685942 0.12528118445320152 -0.043852312541957546
0.32084788095281824 0.27987520360111595 -0.043852312541957546
0.2834954556254131 0.4401505334627994 -0.043852312541957546
0.28578552083593756 0.48777414488336535 -0.043852312541957546
0.6246567022435001 0.25181946853260573 -0.043852312541957546
0.27003766815420344 0.5078585040275819 -0.043852312541957546
0.10614695874739406 0.1400740312173552 -0.043852312541957546
0.4400189765251736 0.4357068324585478 -0.043852312541957546
0.2950724661364898 0.4418169213393939 -0.043852312541957546
0.39651748248355173 0.6161152462561613 -0.043852312541957546
0.3863047661404469 0.062309263642950426 -0.043852312541957546
0.5047937146288162 0.26388372696081536 -0.04258546795741212
0.2876370629210424 0.20359166969479509 -0.04258546795741212
0.4469573868651456 0.2736286853034726 -0.04258546795741212
0.2749004023671894 0.4992049810193023 -0.0419033208734261
0.5122486077609489 0.08607721704069149 -0.0419033208734261
0.13850022044501603 0.06264059222660083 -0.0419033208734261
0.3267533257084685 0.17693920862762755 -0.0419033208734261
0.3032679761026646 0.41733758598263887 -0.0419033208734261
0.30407680764510514 0.39608383183730345 -0.0419033208734261
0.5088086374659911 0.07125513540150982 -0.0419033208734261
0.5306958139035991 0.44247957850669456 -0.0419033208734261
0.2737017724910425 0.44281090709034493 -0.0419033208734261
0.286340983461469 0.43981920487914916 -0.0419033208734261
0.5729791881523888 0.1748635325006415 -0.0419033208734261
0.6040753502238081 0.2767178370980949 -0.04063647628888066
0.29603721701241287 0.28801224381723467 -0.04063647628888066
0.2919345895501543 0.20464412519580197 -0.04063647628888066
0.5449234530838788 0.49094125634472907 -0.03995432920489465
0.3244145357062308 0.4998578932282604 -0.03995432920489465
0.39759917285958657 0.6350009755242308 -0.03995432920489465
0.5306373441535431 0.4401505334627994 -0.03995432920489465
0.2896347793812871 0.4278036712426527 -0.03995432920489465
0.60837287685292 0.23914127772880864 -0.03995432920489465
0.2148617140180781 0.18577788584441762 -0.03995432920489465
0.6371984636305 0.254908620327228 -0.03995432920489465
0.4532916097878727 0.20812307532413074 -0.03995432920489465
0.5848485474137456 0.23946286135411635 -0.03995432920489465
0.30306333197746876 0.1351625722126559 -0.03995432920489465
0.7067482313220448 0.3778607597365344 -0.03868748462034922
0.29603721701241287 0.28801224381723467 -0.03868748462034922
0.2714214522388607 0.17086809958015203 -0.03868748462034922
0.20577941284272155 0.5498300396094066 -0.03800533753636321
0.4230237691755794 0.4455297504679463 -0.03800533753636321
0.29205152905026616 0.4719873123682607 -0.03800533753636321
0.32402473737252446 0.5305837468826585 -0.03800533753636321
0.47079355497128517 0.45924090685606495 -0.03800533753636321
0.48164943856500525 0.25198513282443086 -0.03800533753636321
0.1111071425438066 0.14431308809641114 -0.03800533753636321
0.4277695638884534 0.057349079846537886 -0.03800533753636321
0.3226506982462099 0.29367406461431855 -0.03800533753636321
0.5070448000059701 0.06625597177172661 -0.03800533753636321
0.23350381932758138 0.10364737693250246 -0.03800533753636321
0.5566758728451233 0.23575003222556393 -0.03673849295181776
0.25443598984760923 0.4564148689366945 -0.03673849295181776
0.4710274339715089 0.28956169219371725 -0.03673849295181776
0.12918404026943567 0.17249550762337582 -0.03673849295181776
0.4070128026185935 0.4424211087566386 -0.03605634586783177
0.5499518515886898 0.4843146846717221 -0.03605634586783177
0.32104278011967136 0.4335824315398485 -0.03605634586783177
0.18176783548641415 0.5485047252748052 -0.03605634586783177
0.290862644132462 0.4466309307606665 -0.03605634586783177
0.23163278732579126 0.1082859771036073 -0.03605634586783177
0.31958103636827273 0.2723618407189272 -0.03605634586783177
0.6810800110474857 0.3131834712163183 -0.03605634586783177
0.328361243835007 0.28306180497916483 -0.03605634586783177
0.49152108136611705 0.22316929100519348 -0.03605634586783177
0.7067482313220448 0.3665663530173946 -0.035569097950698896
0.14201815040671534 0.1399473467589006 -0.03478950128328632
0.30170878276783947 0.3408981327428356 -0.03478950128328632
0.4708715146380264 0.2683274279650671 -0.03478950128328632
0.28521056829372077 0.477181375164897 -0.03410735419930031
0.49463946803576747 0.46716355798864534 -0.03410735419930031
0.3344128629657971 0.5479005378575607 -0.03410735419930031
0.4075877551608103 0.6189900089672451 -0.03410735419930031
0.49240787257529883 0.4567851773537154 -0.03410735419930031
0.3121651230695106 0.4444188252168833 -0.03410735419930031
0.14200840544837262 0.06401463135291541 -0.03410735419930031
0.31503014082225184 0.20051226285851537 -0.03410735419930031
0.504062842753117 0.29589591511644436 -0.03410735419930031
0.5096856837168301 0.06560305956276864 -0.03410735419930031
0.2719671699060495 0.10281905547337652 -0.03410735419930031
0.46243238071328524 0.29913124128620666 -0.032840509614754876
0.320370377994028 0.30562138354241636 -0.032840509614754876
0.16768637068127448 0.16121084586257872 -0.032840509614754876
0.36020776769881085 0.6232680456796715 -0.032840509614754876
0.2733606989490495 0.4482778287205756 -0.03215836253076887
0.30131898443413313 0.39044150095690483 -0.03215836253076887
0.31876245986748963 0.4756903965384703 -0.03215836253076887
0.3287900220020839 0.5499274891928333 -0.03215836253076887
0.28733496921241997 0.430298380578373 -0.03215836253076887
0.48206847177373957 0.0596683799320903 -0.03215836253076887
0.4987031156646554 0.2939664133645983 -0.03215836253076887
0.3443819553503354 0.055253913802866546 -0.03215836253076887
0.46094140208685863 0.2759382404306823 -0.03215836253076887
0.42371566121790805 0.05197960779973373 -0.03215836253076887
0.6149117439008429 0.22670671088357805 -0.03215836253076887
0.4830624575246906 0.28956169219371725 -0.030891517946223423
0.4628903937553901 0.41790279356651294 -0.030891517946223423
0.2921197437586647 0.1997131762744174 -0.030891517946223423
0.2784865470372872 0.48163482112749134 -0.030209370862237413
0.5444264602084031 0.4774055092067781 -0.030209370862237413
0.5384333108276691 0.4910874307198688 -0.030209370862237413
0.42051931488151645 0.4294700591192472 -0.030209370862237413
0.17527769323020445 0.5631124178304484 -0.030209370862237413
0.3505797488562655 0.4387764943364848 -0.030209370862237413
0.3465161012273774 0.05943450093186652 -0.030209370862237413
0.29904840914029396 0.11743649298736238 -0.030209370862237413
0.4913846519493199 0.19804678839782308 -0.030209370862237413
0.18725424703333018 0.21614317604013758 -0.030209370862237413
0.4658041362998447 0.2910039460284305 -0.030209370862237413
0.15485226054399484 0.22538139654897657 -0.02894252627769198
0.2575251416422315 0.46106321406614187 -0.02894252627769198
0.4454761531970617 0.2510496168235357 -0.02894252627769198
0.2696088899871264 0.5015437710215401 -0.02826037919370597
0.5399632692874661 0.4701844950748691 -0.02826037919370597
0.4538470724134042 0.4574185996459881 -0.02826037919370597
0.5124045270944316 0.463363024235009 -0.02826037919370597
0.2668315768594691 0.49936090035278474 -0.02826037919370597
0.3905633129361881 0.6194480220093499 -0.02826037919370597
0.34202367543141243 0.059229856806670714 -0.02826037919370597
0.21497865351819 0.13607859829686578 -0.02826037919370597
0.48737947407048776 0.2606484007910531 -0.02826037919370597
0.2120161861820222 0.14467365155508938 -0.02826037919370597
0.4678018527600894 0.2893765379852067 -0.02826037919370597
0.1087391176665408 0.17404495599985836 -0.026993534609160524
0.337287625676881 0.4050686834292334 -0.026993534609160524
0.4372221734808309 0.22538139654897657 -0.026993534609160524
0.1828885056958198 0.5598770916606862 -0.02631138752517453
0.3987295880273348 0.6258602045988185 -0.02631138752517453
0.2903559062986437 0.43682750266795334 -0.02631138752517453
0.31309089411206303 0.5145240555339595 -0.02631138752517453
0.37903502721682464 0.6235798843466367 -0.02631138752517453
0.41511086300134176 0.4401992582545128 -0.02631138752517453
0.25364664822185395 0.05946373580689449 -0.02631138752517453
0.21239623955738585 0.16628796915910316 -0.02631138752517453
0.490497860740138 0.23798162768603243 -0.02631138752517453
0.20099463829647685 0.13098198508365594 -0.02631138752517453
0.46559949217464885 0.27188433776013693 -0.02631138752517453
0.11634993013215617 0.07136232994327901 -0.025044542940629085
0.30261506389370646 0.27905662710033274 -0.025044542940629085
0.3473736575615312 0.6104339355423921 -0.025044542940629085
0.2000981021289524 0.5861494993524902 -0.024362395856643074
0.5009054762500961 0.46703687353019074 -0.024362395856643074
0.28531776283549 0.42679994053335907 -0.024362395856643074
0.31038179569280444 0.445023012634128 -0.024362395856643074
0.3439141973498879 0.5786946062203575 -0.024362395856643074
0.6986501709392967 0.3489377233755277 -0.024362395856643074
0.46939028096994245 0.061471197225481916 -0.024362395856643074
0.1595883102985263 0.05715418067968478 -0.024362395856643074
0.48556691181875344 0.25625342457851474 -0.024362395856643074
0.12020893363584843 0.14267593509484466 -0.024362395856643074
0.4648881102156348 0.26952605784121386 -0.024362395856643074
0.2145498753511131 0.6104339355423921 -0.023875147939510222
0.23185692136767233 0.46924897907397395 -0.023095551272097642
0.3342569436323145 0.2824576175619201 -0.023095551272097642
0.12918404026943567 0.045694109668719854 -0.023095551272097642
0.34914723997989483 0.4484629829290861 -0.022413404188111632
