0.3019714772748176 0.2221655146216748 -0.09981468650823361
0.2082464023746551 0.2010853854159909 -0.09981468650823361
0.050172905264092835 0.19453790827347844 -0.09981468650823361
-0.03831418792205956 0.19098487172621284 -0.09981468650823361
0.0043955091306378475 0.24649648912189281 -0.09981468650823361
-0.05143661413915113 0.29224641332328133 -0.09981468650823361
-0.07352404752060618 0.3407343734206297 -0.09981468650823361
0.07755326422369095 0.34435151114271717 -0.09981468650823361
-0.08389012322036027 0.31762132124202586 -0.09981468650823361
0.658667043226076 0.33831684339877893 -0.09862423611868586
0.49422005787608897 0.19209290631956105 -0.09862423611868586
0.5213165402043334 0.20392415172952785 -0.09798322437046784
0.47660139211078234 0.399386948382578 -0.09798322437046784
0.4555578921478538 0.39263801040491125 -0.09798322437046784
0.5233677777986309 0.31747480427100466 -0.09798322437046784
0.22596579855753882 0.27866612157174836 -0.09798322437046784
0.2925669191973906 0.23896917973567555 -0.09798322437046784
0.12899903567353094 0.2430716549242709 -0.09798322437046784
0.29470972989857647 0.3164217135417893 -0.09798322437046784
0.11902672433339642 0.19092077055139098 -0.09798322437046784
0.3849092401835398 0.32093626771138195 -0.09798322437046784
0.07541045352250493 0.24312659878840387 -0.09798322437046784
0.03797536742657297 0.19453790827347844 -0.09798322437046784
-0.08428388757997997 0.24651480374327045 -0.09798322437046784
-0.08133523353817708 0.23653333509244717 -0.09798322437046784
-0.01631832764749284 0.3409083623237175 -0.09798322437046784
0.07595989216383468 0.2868436000168724 -0.09798322437046784
-0.08107882883888995 0.2888032645042818 -0.09798322437046784
0.6827873995804509 0.3406428003137415 -0.09679277398092011
0.36920445235219856 0.20710173853855152 -0.09679277398092011
0.5442922327226046 0.1976147646649249 -0.0961517622327021
0.47260880465045296 0.3983430149640516 -0.0961517622327021
0.4632591904371589 0.3939108765906584 -0.0961517622327021
0.5440449853340064 0.332804142364104 -0.0961517622327021
0.22222961579649667 0.34310611688903636 -0.0961517622327021
0.2937298976548718 0.3091050223014152 -0.0961517622327021
0.25737537422022155 0.2431449134097815 -0.0961517622327021
0.23958271955182728 0.19371375031148383 -0.0961517622327021
0.10550137644599629 0.24847446823067992 -0.0961517622327021
0.2811202808363546 0.24570896040265355 -0.0961517622327021
0.0754470827652603 0.2431449134097815 -0.0961517622327021
0.033241037800448535 0.19371375031148383 -0.0961517622327021
-0.08110630077095643 0.24652396105395932 -0.0961517622327021
0.0869852942331846 0.2270555185295093 -0.0961517622327021
0.0515465018674172 0.34160431793606844 -0.0961517622327021
0.021510522808058822 0.2877227018429999 -0.0961517622327021
-0.056619651989028234 0.3443331965213394 -0.0961517622327021
0.07705876944649417 0.29873894660166095 -0.0961517622327021
0.5077087765207337 0.30213630886721654 -0.09496131184315434
0.20035280056088475 0.4468676043041552 -0.09496131184315434
-0.027160583503066084 0.29117500797268847 -0.09432030009493633
-0.0752730938621725 0.28769522991093344 -0.09432030009493633
0.031647665740592267 0.335478077085242 -0.09432030009493633
-0.052178356304946286 0.1929170642815557 -0.09432030009493633
-0.08766293522415777 0.24765946757937404 -0.09432030009493633
0.11754324000180624 0.19287127772811158 -0.09432030009493633
0.12914555264455227 0.2441430602748638 -0.09432030009493633
0.1772946922464139 0.24763199564730756 -0.09432030009493633
0.26535139183019135 0.2048856693518549 -0.09432030009493633
0.42050370683101723 0.3262749798429691 -0.09432030009493633
0.4203480325493072 0.2038692078653949 -0.09432030009493633
0.5216095741463757 0.33152211886766797 -0.09432030009493633
0.47460509838061776 0.13251544297804108 -0.09432030009493633
0.5065274834418748 0.40281178258020006 -0.09432030009493633
0.6827873995804509 0.31419648704440395 -0.0931298497053886
0.36920445235219856 0.1815253697846527 -0.0931298497053886
0.08623439475670057 0.24100210270859562 -0.09248883795717058
-0.06537404100754857 0.2966419224539192 -0.09248883795717058
0.27057105892282385 0.2208743338145499 -0.09248883795717058
0.2928507958287442 0.22843827244352255 -0.09248883795717058
0.28764944335748943 0.21899708512334 -0.09248883795717058
0.5078919227345102 0.14071123604454291 -0.09248883795717058
0.5189081674931714 0.3962643054376874 -0.09248883795717058
0.6748846404559917 0.25300733702165007 -0.09248883795717058
0.20485819741978856 0.30213630886721654 -0.09129838756762283
0.5018755696119497 0.2780159525128415 -0.09129838756762283
0.03934896402989734 0.24438115035277344 -0.09065737581940483
0.08269051552012383 0.19360386258321788 -0.09065737581940483
-0.00806759071685815 0.1901881856962847 -0.09065737581940483
0.21446421633236987 0.33514841390044414 -0.09065737581940483
0.29378484151900475 0.22867636252143206 -0.09065737581940483
0.3862370502334201 0.20474830969152247 -0.09065737581940483
0.5373876204632277 0.14672758916710338 -0.09065737581940483
0.5096867556295207 0.39883750974124826 -0.09065737581940483
0.5516638678271119 0.35465348566764954 -0.09065737581940483
0.6024136836646009 0.3493147735360622 -0.09065737581940483
0.4331499528922898 0.33831684339877893 -0.08946692542985708
0.706907755934826 0.2780159525128415 -0.08946692542985708
-0.08954018391536767 0.1990249905110045 -0.08882591368163907
-0.0038369131786192274 0.24759536640455232 -0.08882591368163907
0.02270097319760652 0.19098487172621284 -0.08882591368163907
0.2769628617836263 0.3401666201579223 -0.08882591368163907
0.39736318272034704 0.21115842717370265 -0.08882591368163907
0.5420670062252193 0.14877882676140106 -0.08882591368163907
0.551709654380556 0.14632466749679496 -0.08882591368163907
0.5375341374342489 0.38095328196596573 -0.08882591368163907
0.5018755696119497 0.2780159525128415 -0.08836804814719765
0.22537057336276495 0.25096525673804126 -0.08763546329209133
0.40533004301962816 0.27321752171189523 -0.08763546329209133
0.6267812874075742 0.3624371997531539 -0.08763546329209133
0.003479778061755022 0.19440970592383475 -0.08699445154387332
-0.07659174660136377 0.24847446823067992 -0.08699445154387332
0.08623439475670057 0.2126327541946041 -0.08699445154387332
0.37051394778070107 0.30784131342635673 -0.08699445154387332
0.3964016650980199 0.21138735994092328 -0.08699445154387332
0.6723205934631196 0.30059788067149323 -0.08699445154387332
0.6370191607576848 0.34193398112086626 -0.08699445154387332
0.5222047993411495 0.20638746830482285 -0.08699445154387332
0.56293651728506 0.3702025992172807 -0.08699445154387332
0.28219168618694745 0.18523408061362837 -0.08580400115432557
0.5019763000295268 0.26740262942448895 -0.08580400115432557
0.07980596265314278 0.2226783240202492 -0.08516298940610756
0.02576867227836423 0.19453790827347844 -0.08516298940610756
-0.08757136211726944 0.24667963533566936 -0.08516298940610756
0.0869852942331846 0.24570896040265355 -0.08516298940610756
0.21059067391099529 0.2856714642487024 -0.08516298940610756
0.39029373886857105 0.2186857365599199 -0.08516298940610756
0.30853726903870793 0.21466567716752402 -0.08516298940610756
0.5026447837098114 0.40028436483008323 -0.08516298940610756
0.5505283613016971 0.1642638391362104 -0.08516298940610756
0.545235435723554 0.2053801641290517 -0.08516298940610756
0.28477404780119714 0.5795295642532176 -0.08397253901655982
0.37918592100302184 0.3263573956391686 -0.08397253901655982
0.6707272214032636 0.20982145981313363 -0.08397253901655982
-0.0847875396678656 0.24289766602118312 -0.08333152726834181
0.0043955091306378475 0.24649648912189281 -0.08333152726834181
0.016602204278846587 0.19098487172621284 -0.08333152726834181
0.21681764517939892 0.27464606217935245 -0.08333152726834181
0.29397714504347017 0.31287783430521254 -0.08333152726834181
0.38505575715456114 0.20590213083831493 -0.08333152726834181
0.5613339879145148 0.3323371195189737 -0.08333152726834181
0.6709286822384177 0.31003906799167574 -0.08333152726834181
0.5548780838788907 0.37229046605433364 -0.08333152726834181
0.5806650707786326 0.1876332960141015 -0.08333152726834181
0.20035280056088475 0.5433490297216551 -0.08214107687879406
0.49551123868321373 0.19158925423167555 -0.08214107687879406
0.7310281122892008 0.2418262606705901 -0.08214107687879406
-0.08878928443888376 0.19411667198179225 -0.08150006513057606
-0.0017032597881220862 0.24649648912189281 -0.08150006513057606
0.027142268881688598 0.188997735306737 -0.08150006513057606
0.27964595381545315 0.2799847743109396 -0.08150006513057606
0.29834518224204154 0.22177175026205512 -0.08150006513057606
0.3882058720315183 0.3316320065959339 -0.08150006513057606
0.5420944781572856 0.2889955680287472 -0.08150006513057606
0.5546583084223589 0.1553354612146024 -0.08150006513057606
0.6671833421666868 0.30558861499690493 -0.08150006513057606
0.20971157208486782 0.3160371064928586 -0.08030961474102831
0.28477404780119714 0.20564572613902768 -0.08030961474102831
0.658667043226076 0.17919941286969016 -0.08030961474102831
-0.01631832764749284 0.2430716549242709 -0.0796686029928103
0.06938494308925572 0.24759536640455232 -0.0796686029928103
-0.051711333459815996 0.18988599444355334 -0.0796686029928103
0.2255537195765415 0.34091751963440636 -0.0796686029928103
0.3995059934215328 0.3248555966862007 -0.0796686029928103
0.2902684342144945 0.22147871632001262 -0.0796686029928103
0.5099889468822519 0.20368606165161834 -0.0796686029928103
0.6535847357937761 0.32563396809475104 -0.0796686029928103
0.5005569168727583 0.3907424470923236 -0.0796686029928103
0.5893828305543976 0.21109432599888078 -0.0796686029928103
0.2698201594463398 0.30213630886721654 -0.07847815260326256
0.5527444304883936 0.3632064138510156 -0.07847815260326256
0.06985196593438588 0.24388665557557665 -0.07783714085504455
0.04009070619569237 0.19440970592383475 -0.07783714085504455
-0.08999804944980908 0.24668879264635823 -0.07783714085504455
0.08719591237902763 0.2397841803869813 -0.07783714085504455
0.36645725914554983 0.30974603404963313 -0.07783714085504455
0.4161539842538236 0.20929949310387036 -0.07783714085504455
0.3894329516638212 0.22350248198224382 -0.07783714085504455
0.564914496393847 0.15301866161032873 -0.07783714085504455
0.6327976405301347 0.18676335149866277 -0.07783714085504455
0.584712602103095 0.1735218802426164 -0.07783714085504455
0.5018755696119497 0.21770590431621512 -0.0766466904654968
0.28477404780119714 0.3744973779303414 -0.0766466904654968
-0.0839359097738045 0.1945195936521007 -0.07600567871727879
-0.0038369131786192274 0.24759536640455232 -0.07600567871727879
0.021510522808058822 0.18988599444355334 -0.07600567871727879
0.21538910471194156 0.2929698408676989 -0.07600567871727879
0.5453270088304423 0.20210184690245095 -0.07600567871727879
0.5626068541002621 0.15152601996804968 -0.07600567871727879
0.604712168647497 0.16669968377943892 -0.07600567871727879
0.5867913116294589 0.37095349869376476 -0.07600567871727879
0.5558487588119065 0.16946519160746526 -0.07481522832773105
0.206277580576557 0.30213630886721654 -0.07481522832773105
-0.03462379171446151 0.2430716549242709 -0.07417421657951304
0.04544773294865727 0.24847446823067992 -0.07417421657951304
-0.02777412331921755 0.188997735306737 -0.07417421657951304
0.2572105426278226 0.34310611688903636 -0.07417421657951304
0.4243223053882589 0.2124496079808274 -0.07417421657951304
0.5274702529872263 0.20580140042073775 -0.07417421657951304
0.5075073156855795 0.4040388622125031 -0.07417421657951304
0.5225710917687029 0.40304987265810954 -0.07417421657951304
0.5742366386750748 0.12121532158802642 -0.07298376618996531
0.37688743602012587 0.32316149420876733 -0.07298376618996531
0.28477404780119714 0.39861773428471636 -0.07298376618996531
-0.07659174660136377 0.19358554796184024 -0.07234275444174729
-0.009935682097379162 0.24759536640455232 -0.07234275444174729
0.027618449037507625 0.18988599444355334 -0.07234275444174729
0.21538910471194156 0.32315233689807843 -0.07234275444174729
0.38773884918638785 0.33184262474177706 -0.07234275444174729
0.518166425327376 0.2796001672620088 -0.07234275444174729
0.5685865779800673 0.14889787180035577 -0.07234275444174729
0.6106461059738579 0.35859112926384584 -0.07234275444174729
0.28477404780119714 0.31236502490663814 -0.07115230405219956
0.5579915695130925 0.19358554796184024 -0.07115230405219956
-0.07680236474720692 0.23946367451287232 -0.07051129230398154
-0.0033698903334889426 0.19371375031148383 -0.07051129230398154
-0.056619651989028234 0.24649648912189281 -0.07051129230398154
0.07437567741466729 0.1909665571048352 -0.07051129230398154
0.2552417208297244 0.2790049420672349 -0.07051129230398154
0.5194301342024344 0.2545366079066845 -0.07051129230398154
0.5884854141068921 0.16164484827920536 -0.07051129230398154
0.6573392331761958 0.20460179272050116 -0.07051129230398154
0.6091259923995124 0.18339346116517372 -0.07051129230398154
0.24518699369339045 0.27068094665108966 -0.06932084191443377
0.5001356805810723 0.21743118499555036 -0.06932084191443377
-0.08669226029114198 0.1982191471703875 -0.06867983016621576
0.007463208211395559 0.19453790827347844 -0.06867983016621576
-0.06438505145315503 0.24847446823067992 -0.06867983016621576
0.08190298680088456 0.188997735306737 -0.06867983016621576
0.2538955961584665 0.2790049420672349 -0.06867983016621576
0.5228732830214341 0.23238507335040773 -0.06867983016621576
0.5990621079524895 0.1666538972259948 -0.06867983016621576
0.6033660439762389 0.3708161390334323 -0.06867983016621576
0.6629251926963815 0.21886888277369645 -0.06867983016621576
0.5788427659515555 0.35931455680826335 -0.06748937977666802
0.2638404355665347 0.2861476444045214 -0.06748937977666802
-0.052178356304946286 0.19371375031148383 -0.06684836802845001
-0.07048382037191496 0.24364856549766714 -0.06684836802845001
0.08692119305836275 0.2406632822131089 -0.06684836802845001
-0.0826905155201237 0.188997735306737 -0.06684836802845001
0.21538910471194156 0.32344537084012104 -0.06684836802845001
0.5130017020988766 0.33190672591659875 -0.06684836802845001
0.6875858303813972 0.2433189023128693 -0.06684836802845001
0.5258127797525481 0.39977155543150883 -0.06684836802845001
0.28477404780119714 0.5554092078988427 -0.06565791763890229
0.36920445235219856 0.22976608249340266 -0.06565791763890229
0.5031301211763193 0.29007613069002897 -0.06565791763890229
0.01493557373347973 0.24376761053662183 -0.06501690589068426
0.08269051552012383 0.19436391937039063 -0.06501690589068426
-0.09304743390918904 0.22205562689340885 -0.06501690589068426
0.08631681055290003 0.22206478420409773 -0.06501690589068426
0.275103927713794 0.30436153536460187 -0.06501690589068426
0.5195308646200115 0.3228501456453472 -0.06501690589068426
0.6148859408227856 0.3601387147702579 -0.06501690589068426
0.606085765250821 0.3566497793978141 -0.06501690589068426
0.20035280056088475 0.4468676043041552 -0.06382645550113654
0.4323074803089177 0.19455622289485605 -0.06382645550113654
0.5839983318693662 0.14290899060986179 -0.06382645550113654
-0.03387289223797761 0.24376761053662183 -0.06318544375291851
0.057187405251735726 0.24759536640455232 -0.06318544375291851
-0.03950463831160726 0.18988599444355334 -0.06318544375291851
0.25398716926535486 0.34091751963440636 -0.06318544375291851
0.4240384287569051 0.21217488866016254 -0.06318544375291851
0.5519660590798431 0.3407435307313186 -0.06318544375291851
0.6126149277719561 0.3574739373598087 -0.06318544375291851
0.6770457657785555 0.2323667587290301 -0.06318544375291851
0.2263778775385361 0.29007613069002897 -0.06199499336337078
0.5594842111553715 0.33831684339877893 -0.06199499336337078
0.5983661523401385 0.14301887833812774 -0.06199499336337078
-0.03313115007218245 0.19440970592383475 -0.06135398161515277
-0.02166619708976887 0.24847446823067992 -0.06135398161515277
0.03934896402989734 0.188997735306737 -0.06135398161515277
0.275103927713794 0.3177495235916696 -0.06135398161515277
0.5129284436133662 0.2962023715408554 -0.06135398161515277
0.6335393826959299 0.34332589234556826 -0.06135398161515277
0.5624420225078632 0.37859069580824783 -0.06135398161515277
0.28477404780119714 0.4709879606585302 -0.060163531225605006
0.36920445235219856 0.20564572613902768 -0.060163531225605006
0.6948475777576385 0.3291595327099502 -0.060163531225605006
0.0019871364194759622 0.2430716549242709 -0.05952251947738699
0.08722338431109411 0.22574602310100678 -0.05952251947738699
-0.07833163563224121 0.19100318634759045 -0.05952251947738699
0.25019604264017975 0.34091751963440636 -0.05952251947738699
0.42349814742626424 0.20421718567157035 -0.05952251947738699
0.5145492876052888 0.33952560840970436 -0.05952251947738699
0.6104354878280149 0.3647814712894941 -0.05952251947738699
0.6647474975234582 0.3325019511113726 -0.05952251947738699
0.20035280056088475 0.33831684339877893 -0.05833206908783926
0.4053849868837611 0.22976608249340266 -0.05833206908783926
0.6941333075239098 0.31419648704440395 -0.05833206908783926
0.014193831567684702 0.2430716549242709 -0.05769105733962124
0.08734242935004893 0.21129578683403508 -0.05769105733962124
-0.08832226159375348 0.18988599444355334 -0.05769105733962124
0.21398803617655085 0.27416072471284453 -0.05769105733962124
0.4154213993987172 0.3302217807498543 -0.05769105733962124
0.5536143750038323 0.19558184169200482 -0.05769105733962124
0.6342811248617249 0.3490217395940197 -0.05769105733962124
0.7124387715908784 0.26889527106676797 -0.05769105733962124
0.28477404780119714 0.5192286733672803 -0.05650060695007351
0.3784624934586044 0.22976608249340266 -0.05650060695007351
0.6678243539149048 0.3412197108871377 -0.05650060695007351
0.08348720155005196 0.22105748002832656 -0.055859595201855496
0.021785242128723695 0.19440970592383475 -0.055859595201855496
-0.06272757821847703 0.24649648912189281 -0.055859595201855496
0.08082242413960282 0.19081088282312503 -0.055859595201855496
0.3940482362509911 0.32276772984914776 -0.055859595201855496
0.5143295121487569 0.33984611428381334 -0.055859595201855496
0.6486397880218085 0.1998949350264432 -0.055859595201855496
0.641295624849368 0.20248645395138176 -0.055859595201855496
0.6948475777576385 0.21770590431621512 -0.055401729667414044
0.20035280056088475 0.2659466170249651 -0.05466914481230776
0.5742366386750748 0.17919941286969016 -0.05466914481230776
0.08014478314862951 0.21754107272381631 -0.054028133064089746
-0.023048951003781983 0.19453790827347844 -0.054028133064089746
-0.023332827635135597 0.24649648912189281 -0.054028133064089746
0.04100643726457532 0.19098487172621284 -0.054028133064089746
0.4194414587911132 0.3272731267080514 -0.054028133064089746
0.5149155800328419 0.23400591734233034 -0.054028133064089746
0.6929703290664284 0.2442895772458851 -0.054028133064089746
0.6822379609391211 0.31513969004535325 -0.054028133064089746
0.6619728323847431 0.2120650009318966 -0.054028133064089746
0.20035280056088475 0.2538864388477777 -0.0535702675296483
0.5742366386750748 0.16946519160746526 -0.0535702675296483
0.0797052322355657 0.23926221367771816 -0.052196670926324
-0.015567428171008809 0.19371375031148383 -0.052196670926324
-0.03221541900329963 0.24649648912189281 -0.052196670926324
0.04711436349402413 0.19098487172621284 -0.052196670926324
0.4174360077502595 0.32699840738738656 -0.052196670926324
0.5182396838128868 0.23811754984161457 -0.052196670926324
0.665031374154812 0.21115842717370265 -0.052196670926324
0.6950856678355481 0.2403244617176223 -0.052196670926324
0.6712217161804601 0.31830811954368804 -0.052196670926324
0.28477404780119714 0.20564572613902768 -0.05173880539188255
0.5088625976675261 0.25055317775704394 -0.05173880539188255
0.06887213369068121 0.24301671106013795 -0.05036520878855821
0.0440741363453329 0.19453790827347844 -0.05036520878855821
-0.07832247832155247 0.2464781745005152 -0.05036520878855821
0.034120139626576 0.23658827895658016 -0.05036520878855821
0.3913010430443424 0.21843848917132153 -0.05036520878855821
0.5138350173715601 0.1989517320254939 -0.05036520878855821
0.6913220131424395 0.2406449675917313 -0.05036520878855821
0.650544508645085 0.34306033033559225 -0.05036520878855821
0.691285383899684 0.28330887809098443 -0.05036520878855821
0.20035280056088475 0.21770590431621512 -0.049907343254116804
0.5018755696119497 0.16946519160746526 -0.049907343254116804
0.04544773294865727 0.24376761053662183 -0.04853374665079247
0.06431179296764457 0.19435476205970176 -0.04853374665079247
-0.09363350179327415 0.24115777699030566 -0.04853374665079247
-0.05878077731159186 0.23662490819933538 -0.04853374665079247
0.3996891396353095 0.3258903727940383 -0.04853374665079247
0.5185235604442405 0.29863821618408387 -0.04853374665079247
0.6615515960930571 0.20672628880030944 -0.04853374665079247
0.5857565355216212 0.16068333065687845 -0.04853374665079247
0.6921736430365004 0.22592916931478343 -0.04853374665079247
0.21967472611431346 0.33664105554272333 -0.047343296261244734
0.5018755696119497 0.3185828388643529 -0.047343296261244734
0.6831536920080042 0.20564572613902768 -0.047343296261244734
-0.0847875396678656 0.24289766602118312 -0.04670228451302672
0.037691490795219225 0.24649648912189281 -0.04670228451302672
-0.03387289223797761 0.188997735306737 -0.04670228451302672
0.22873130638556516 0.339278361021106 -0.04670228451302672
0.4193407283735359 0.3334817833550773 -0.04670228451302672
0.5133313652836745 0.3006802964676927 -0.04670228451302672
0.5233677777986309 0.12876094559562132 -0.04670228451302672
0.6353342155909403 0.3508348871104079 -0.04670228451302672
0.20035280056088475 0.3503770215759665 -0.04551183412347899
0.4041395926300802 0.2780159525128415 -0.04551183412347899
0.7036660679509805 0.30213630886721654 -0.04551183412347899
-0.001987136419475832 0.2429434525746272 -0.04487082237526097
0.08687540650491865 0.23896002242498682 -0.04487082237526097
-0.07611556644554474 0.18988599444355334 -0.04487082237526097
0.2105357300468623 0.34357313973416664 -0.04487082237526097
0.4152931970490738 0.20848449245256462 -0.04487082237526097
0.5149705238969748 0.3402673505754994 -0.04487082237526097
0.5682569147952694 0.15695630520652518 -0.04487082237526097
0.6370191607576848 0.3499008414201473 -0.04487082237526097
0.24533351066441175 0.33566122329901854 -0.04368037198571324
0.4040938060766361 0.30213630886721654 -0.04368037198571324
0.6542349048526829 0.1815253697846527 -0.04368037198571324
0.03859806455341331 0.2430716549242709 -0.043039360237495224
0.07471449791015401 0.1945195936521007 -0.043039360237495224
-0.09414631119184853 0.2258833827613392 -0.043039360237495224
-0.08394506708449324 0.20092971113428088 -0.043039360237495224
0.39522037201916105 0.20947348200695817 -0.043039360237495224
0.5144119279449563 0.198731956568962 -0.043039360237495224
0.6575315367006613 0.2119001693394978 -0.043039360237495224
0.6932816776298488 0.3111196306529575 -0.043039360237495224
0.5520851041187979 0.405375829573072 -0.04184890984794746
0.6893989778977854 0.21789820784068054 -0.04184890984794746
0.4053849868837611 0.22976608249340266 -0.04184890984794746
0.20485819741978856 0.33831684339877893 -0.04184890984794746
-0.08837720545788645 0.24317238534184799 -0.04120789809972945
0.007179331580041813 0.24649648912189281 -0.04120789809972945
0.01049427804939778 0.19098487172621284 -0.04120789809972945
0.21538910471194156 0.32904048767099536 -0.04120789809972945
0.38381036290088044 0.329754757904724 -0.04120789809972945
0.5552443763064437 0.33815201180638 -0.04120789809972945
0.6408560739363042 0.19723015761599408 -0.04120789809972945
0.6823203767353208 0.2965411920363421 -0.04120789809972945
0.5520851041187979 0.4106779124619039 -0.04075003256528803
0.3780320998562295 0.30213630886721654 -0.04001744771018171
0.6224865086945136 0.14534483525309028 -0.04001744771018171
0.6707272214032636 0.2418262606705901 -0.04001744771018171
-0.08145427857713189 0.2429709245066937 -0.0393764359619637
0.026675246036558315 0.24759536640455232 -0.0393764359619637
-0.009468659252248875 0.188997735306737 -0.0393764359619637
-0.07048382037191496 0.2365791216458913 -0.0393764359619637
0.39945104955739985 0.2092262346183598 -0.0393764359619637
0.5518470140408885 0.338206955670513 -0.0393764359619637
0.6163968970864423 0.17514272423453903 -0.0393764359619637
0.6989134237034783 0.27046117119455776 -0.0393764359619637
0.528605759512641 0.3986726781488493 -0.0393764359619637
0.20035280056088475 0.16946519160746526 -0.03818598557241597
0.5018755696119497 0.2538864388477777 -0.03818598557241597
0.5615537633710468 0.12121532158802642 -0.03818598557241597
-0.07556612780421498 0.19447380709865658 -0.03754497382419795
-0.013909954936330826 0.24649648912189281 -0.03754497382419795
0.03934896402989734 0.188997735306737 -0.03754497382419795
0.03322272317907079 0.2009938123091027 -0.03754497382419795
0.3935628987844829 0.3232164380729003 -0.03754497382419795
0.5162525473934111 0.22770568758841625 -0.03754497382419795
0.5337063815663184 0.30480108627766567 -0.03754497382419795
0.7014408414535952 0.2516703696610811 -0.03754497382419795
0.5505008893696305 0.4014290286661868 -0.03754497382419795
0.20035280056088475 0.33831684339877893 -0.03635452343465022
0.43094304101628217 0.31492907189951025 -0.03635452343465022
0.6921828003471894 0.216643656276311 -0.03635452343465022
-0.022426253876941644 0.2430716549242709 -0.0357135116864322
0.055996954862188024 0.24649648912189281 -0.0357135116864322
-0.029431596553895663 0.19098487172621284 -0.0357135116864322
0.01008219906840047 0.23648754853900295 -0.0357135116864322
0.27351055565393784 0.27416072471284453 -0.0357135116864322
0.5210967647478014 0.23012321761026702 -0.0357135116864322
0.5292009847074148 0.2615785798263939 -0.0357135116864322
0.6530261398417574 0.20593876008107018 -0.0357135116864322
0.565555508142065 0.3878487369146538 -0.0357135116864322
0.20035280056088475 0.39861773428471636 -0.03452306129688447
0.40385571599872666 0.2659466170249651 -0.03452306129688447
0.7310281122892008 0.2538864388477777 -0.03452306129688447
-0.004120789809972844 0.2430716549242709 -0.03388204954866645
0.07437567741466729 0.24652396105395932 -0.03388204954866645
-0.05383582953962427 0.19098487172621284 -0.03388204954866645
-0.0843754606868683 0.2376413696857954 -0.03388204954866645
0.27949027953374295 0.28927028734941207 -0.03388204954866645
0.5226077210114581 0.27316257784776227 -0.03388204954866645
0.5252724984219073 0.272375049128523 -0.03388204954866645
0.5881374363007169 0.15199304281317996 -0.03388204954866645
0.6576139524968606 0.33530408818215435 -0.03388204954866645
0.28477404780119714 0.5071684951900928 -0.032691599159118685
0.5019213561653938 0.1875875094606574 -0.032691599159118685
0.6948475777576385 0.33831684339877893 -0.032691599159118685
0.0027380358959598634 0.24376761053662183 -0.03205058741090067
0.07158269765457458 0.24648733181120394 -0.03205058741090067
-0.052178356304946286 0.188997735306737 -0.03205058741090067
-0.06552971528925862 0.20097549768772496 -0.03205058741090067
0.2669356065793588 0.2790049420672349 -0.03205058741090067
0.5234593509055191 0.25999436507722645 -0.03205058741090067
0.5461694814138146 0.2492070530857862 -0.03205058741090067
0.6497295079937792 0.18392458518512583 -0.03205058741090067
0.5715535466432479 0.39008312072272805 -0.03205058741090067
0.22252264973853927 0.2974202938624697 -0.03086013702135294
0.4316939404927661 0.33831684339877893 -0.03086013702135294
0.658667043226076 0.2192718044440049 -0.03086013702135294
0.6408835458683705 0.35762045433083 -0.030219125273134924
0.6141075694142352 0.17710238872194836 -0.030219125273134924
0.5153551309459057 0.2696736424753185 -0.030219125273134924
0.26863886636748097 0.34310611688903636 -0.030219125273134924
0.021180859623260974 0.23867614579363305 -0.030219125273134924
0.20035280056088475 0.3744973779303414 -0.02902867488358719
0.5018755696119497 0.2149129245561224 -0.02902867488358719
0.706907755934826 0.21537994740125269 -0.02902867488358719
0.2646188069750851 0.27761303084253297 -0.028387663135369175
0.39846206000300655 0.21277011385493652 -0.028387663135369175
0.5412062190204694 0.2088507848801177 -0.028387663135369175
0.7008364589481324 0.24045266406726587 -0.028387663135369175
0.5590171883102413 0.4011726239668997 -0.028387663135369175
0.20035280056088475 0.2659466170249651 -0.027197212745821445
0.5862968168522623 0.31419648704440395 -0.027197212745821445
0.6568538957096879 0.1815253697846527 -0.027197212745821445
0.4148078595825659 0.20803578422881194 -0.026556200997603426
0.5407758254180944 0.33053312931327455 -0.026556200997603426
0.6952871286707023 0.2390607528425639 -0.026556200997603426
0.6146203788128096 0.35822483683629275 -0.026556200997603426
0.27080914900073333 0.3262566652215915 -0.025365750608055695
0.3748911422899612 0.2751039277137939 -0.025365750608055695
0.7062759014972967 0.22976608249340266 -0.025365750608055695
0.399066442508469 0.32647644067812326 -0.02472473885983768
0.5188440663183495 0.23699120062688858 -0.02472473885983768
0.6362865759025784 0.1824227862321579 -0.02472473885983768
0.5498324056893459 0.3927845273759324 -0.02472473885983768
0.37215310639400134 0.29007613069002897 -0.024266873325396236
0.36920445235219856 0.2569907671712906 -0.023534288470289915
0.5094669801729887 0.26641363987009536 -0.023534288470289915
0.2695637547470527 0.3396538107593479 -0.0228932767220719
0.3906325593640578 0.3191322775056827 -0.0228932767220719
0.5415084102732006 0.3343791998025826 -0.0228932767220719
0.6676778369438834 0.19662577511053134 -0.0228932767220719
0.5524147673035957 0.40237223166713626 -0.0228932767220719
0.22809029463734706 0.3344433009774043 -0.021702826332524166
0.4053849868837611 0.2780159525128415 -0.021702826332524166
0.6827873995804509 0.21770590431621512 -0.021702826332524166
0.272915330459164 0.34310611688903636 -0.02106181458430615
0.4266757342352879 0.21448253095374747 -0.02106181458430615
0.5564806132494359 0.19443717785590123 -0.02106181458430615
0.6849943114564587 0.29870231735890573 -0.02106181458430615
0.6224865086945136 0.3772628857583677 -0.020603949049864706
0.22153366018414572 0.2917519185460847 -0.01987136419475842
0.429505343238136 0.3152770497056857 -0.01987136419475842
0.7086384876550146 0.30213630886721654 -0.01987136419475842
0.2144825309537476 0.3429229706752598 -0.0192303524465404
0.3982239699250969 0.21254118108771575 -0.0192303524465404
0.5404461622332967 0.20455600616705708 -0.0192303524465404
0.7047741025443289 0.2848381489760189 -0.0192303524465404
0.6677510954293941 0.33069796090567344 -0.0192303524465404
0.28477404780119714 0.4709879606585302 -0.01803990205699267
0.2070559519851074 0.26848319208577065 -0.01803990205699267
0.3774551892828332 0.3170993545327627 -0.01803990205699267
0.6825950960559857 0.311092158720891 -0.01803990205699267
0.6111955446151878 0.3686550137108687 -0.017398890308774655
0.721403778755242 0.26395948060548924 -0.017398890308774655
0.5145218156732222 0.1966349324212202 -0.017398890308774655
0.3839843518039681 0.29158708695368574 -0.017398890308774655
0.224189280283906 0.34091751963440636 -0.017398890308774655
0.5047326505468643 0.2538864388477777 -0.01694102477433321
0.25377655111951186 0.2703970700197359 -0.016208439919226922
0.36920445235219856 0.29903198054370345 -0.016208439919226922
0.6863038068849613 0.32597278859023776 -0.016208439919226922
0.22608484359649364 0.34091751963440636 -0.015567428171008906
0.39016553651892766 0.2088782568121842 -0.015567428171008906
0.5173605819867592 0.2892611300387232 -0.015567428171008906
0.6673115445163303 0.2014791497756106 -0.015567428171008906
0.6410941640142135 0.3500839876339239 -0.015567428171008906
0.6634013728522005 0.22044394021217498 -0.015109562636567462
0.27115712680690884 0.3180791867764674 -0.014376977781461143
0.3746072656586074 0.2780159525128415 -0.014376977781461143
0.6827873995804509 0.1912595910468777 -0.014376977781461143
0.6698847488198912 0.3246449785403576 -0.013735966033243126
0.6720916606958991 0.20012386779366398 -0.013735966033243126
0.5165364240247645 0.24759536640455232 -0.013735966033243126
0.3803397421498143 0.2990228232330147 -0.013735966033243126
0.675195989019412 0.30213630886721654 -0.013278100498801713
0.20485819741978856 0.27068094665108966 -0.012545515643695394
0.5862968168522623 0.29007613069002897 -0.012545515643695394
0.6467900112626651 0.16946519160746526 -0.012545515643695394
0.4163829170210444 0.20734898592714976 -0.011904503895477378
0.5474148756674952 0.33216313061588604 -0.011904503895477378
0.6857085816901874 0.2162041053632473 -0.011904503895477378
0.6687400849837877 0.33755678661160615 -0.011904503895477378
0.658667043226076 0.3533165183070805 -0.011446638361035932
0.3746072656586074 0.2654154930050131 -0.010714053505929647
0.5662880929971714 0.20564572613902768 -0.010714053505929647
0.7013584256573958 0.24416137489624154 -0.010073041757711631
0.6358103957467593 0.3671440574472119 -0.010073041757711631
0.5431750408185676 0.2095375831817799 -0.010073041757711631
0.3817865972386493 0.2318997358838998 -0.010073041757711631
0.21538910471194156 0.2893984896990556 -0.010073041757711631
0.24673457919980246 0.33831684339877893 -0.008882591368163899
0.4318313001530984 0.3262566652215915 -0.008882591368163899
0.6515243408887896 0.1722490140568691 -0.008882591368163899
0.38889267033318037 0.3042333330149583 -0.008241579619945882
0.38329755350230593 0.2034296569523311 -0.008241579619945882
0.6367169695049536 0.1775602542563899 -0.008241579619945882
0.7070268009737809 0.25800722865775066 -0.008241579619945882
0.6657273297671629 0.1815253697846527 -0.0077837140855044375
0.429505343238136 0.31419648704440395 -0.007051129230398151
0.24382255440075493 0.2829517429741201 -0.007051129230398151
0.21398803617655085 0.27589145643303326 -0.006410117482180134
0.4140752747274595 0.20385089324401726 -0.006410117482180134
0.560738762719741 0.21005954989104314 -0.006410117482180134
0.6999573571220049 0.28718242051235904 -0.006410117482180134
0.6657273297671629 0.1815253697846527 -0.005952251947738689
0.5561326354432603 0.1866809357024633 -0.00521966709263237
0.5862968168522623 0.3262566652215915 -0.00521966709263237
0.27949027953374295 0.29509433694750714 -0.004578655344414354
0.39874593663436003 0.3232896965584109 -0.004578655344414354
0.5429461080513468 0.33493779575460114 -0.004578655344414354
0.7067612389638046 0.28427039571331153 -0.004578655344414354
0.6870455490507563 0.2151327000126543 -0.004578655344414354
0.6827873995804509 0.3503770215759665 -0.0033882049548666225
0.37688743602012587 0.2765141535598736 -0.0033882049548666225
0.26895937224158994 0.31419648704440395 -0.0033882049548666225
0.6859924583215409 0.23030636382404354 -0.0027471932066486055
0.5540264539848297 0.3231706515194562 -0.0027471932066486055
0.3835997447550373 0.237183504151354 -0.0027471932066486055
0.23138692648532544 0.27462774755797487 -0.0027471932066486055
0.7310281122892008 0.29007613069002897 -0.0015567428171008744
0.40174037722960704 0.2780159525128415 -0.0015567428171008744
0.27115712680690884 0.286761184220673 -0.0015567428171008744
0.6439512449491283 0.3480327500396263 -9.157310688828577E-4
0.5141372086242914 0.2892428154173456 -9.157310688828577E-4
0.38964356980966425 0.22475703354661336 -9.157310688828577E-4
0.2572105426278226 0.27462774755797487 -9.157310688828577E-4
0.28477404780119714 0.4709879606585302 2.747193206648736E-4
0.37422265860967663 0.22976608249340266 2.747193206648736E-4
0.5671397228912324 0.20564572613902768 2.747193206648736E-4
0.6415428722379662 0.3503403923332111 9.157310688828903E-4
0.5183220996090864 0.2013326328045893 9.157310688828903E-4
0.3861637917479093 0.22243107663165082 9.157310688828903E-4
0.21398803617655085 0.27761303084253297 9.157310688828903E-4
0.21746781423830572 0.3344433009774043 0.0021061814584306215
0.36920445235219856 0.29007613069002897 0.0021061814584306215
0.706907755934826 0.3262566652215915 0.0021061814584306215
0.6929062278916068 0.23790693169577143 0.002747193206648638
0.5204832249316499 0.33394880620020756 0.002747193206648638
0.3830136768709523 0.20314578032097746 0.002747193206648638
0.23688131289862277 0.33872892237977625 0.002747193206648638
0.20485819741978856 0.2780159525128415 0.003937643596196402
0.36920445235219856 0.33831684339877893 0.003937643596196402
0.6584381104588553 0.1985854395979407 0.004578655344414419
0.7244348485932441 0.26870296754230255 0.004578655344414419
0.5443288619653598 0.3262475079109026 0.004578655344414419
0.3987001500809159 0.3199747500890549 0.004578655344414419
0.20035280056088475 0.5554092078988427 0.00576910573396215
0.4305950632101066 0.19358554796184024 0.00576910573396215
0.7036111240868476 0.21955568107535864 0.00576910573396215
0.38957031132415376 0.3254416645702856 0.006410117482180166
0.5582021876589356 0.2103159545903304 0.006410117482180166
0.6934922957756918 0.29703568681353887 0.006410117482180166
0.5574879174252069 0.3427856110149274 0.006410117482180166
0.26244852434183275 0.28336382195511745 0.007600567871727898
0.5380561041435123 0.31419648704440395 0.007600567871727898
0.5205106968637162 0.3413387559260924 0.008241579619945915
0.7233451286212735 0.2613221751271066 0.008241579619945915
0.37976283157641805 0.21929927637607138 0.008241579619945915
0.21538910471194156 0.31438879056886937 0.008241579619945915
0.240452664067266 0.2861476444045214 0.009432030009493646
0.5862968168522623 0.3262566652215915 0.009432030009493646
0.7019536508521697 0.2426870478753401 0.010073041757711662
0.6834284113286692 0.20757791869437053 0.010073041757711662
0.39103548103436636 0.20816398657845564 0.010073041757711662
0.275103927713794 0.30144951056555436 0.010073041757711662
0.28477404780119714 0.3624371997531539 0.011263492147259394
0.4053849868837611 0.2659466170249651 0.011263492147259394
0.5653723619282883 0.22639619215991375 0.011263492147259394
0.4138005554067946 0.3282529589517561 0.011904503895477411
0.5127452973995895 0.1951239761575634 0.011904503895477411
0.7078509589357752 0.2854608461028592 0.011904503895477411
0.7225484425913455 0.2418262606705901 0.012362369429918856
0.4304119169963299 0.19358554796184024 0.013094954285025174
0.7298926057637861 0.2538864388477777 0.013094954285025174
0.6928787559595403 0.24282440753567253 0.013735966033243192
0.3909439079274779 0.21309977703973423 0.013735966033243192
0.27949027953374295 0.3140774420054491 0.013735966033243192
0.20485819741978856 0.3470529177959215 0.014926416422790922
0.429505343238136 0.31619278077456864 0.014926416422790922
0.275103927713794 0.3143338467047364 0.015567428171008939
0.3933522806386399 0.21570961058605054 0.015567428171008939
0.6919355529585908 0.22913422805587347 0.015567428171008939
0.28477404780119714 0.5433490297216551 0.01675787856055667
0.5226626648755911 0.18514250750674002 0.01675787856055667
0.21398803617655085 0.27589145643303326 0.017398890308774687
0.3983704868961181 0.3202952559631639 0.017398890308774687
0.5527535877990825 0.3270533512515195 0.017398890308774687
0.7069443851775813 0.2961474276767224 0.017398890308774687
0.27300690356605223 0.26848319208577065 0.01858934069832242
0.5862968168522623 0.2538864388477777 0.01858934069832242
0.710112814675916 0.29725546227007077 0.019230352446540436
0.38577918469897854 0.20474830969152247 0.019230352446540436
0.2799481450681845 0.27416072471284453 0.019230352446540436
0.3737006919004135 0.31419648704440395 0.020420802836088166
0.26895937224158994 0.3262566652215915 0.020420802836088166
0.7097373649376741 0.2682176300757947 0.02106181458430618
0.42126376361819 0.19997735082264267 0.02106181458430618
0.25606587879171905 0.2790049420672349 0.02106181458430618
0.5018755696119497 0.3262566652215915 0.022252264973853946
0.20035280056088475 0.3865575561075289 0.022252264973853946
0.21100275289199258 0.2881622527560637 0.022893276722071965
0.5181297960846208 0.19570088673095964 0.022893276722071965
0.7158544484778118 0.2725581953422995 0.022893276722071965
0.20485819741978856 0.2780159525128415 0.024083727111619695
0.5862968168522623 0.2780159525128415 0.024083727111619695
0.3828854745213087 0.31387598117029497 0.02472473885983771
0.5610592685938502 0.20738561516990514 0.02472473885983771
0.28477404780119714 0.4709879606585302 0.025915189249385445
0.36920445235219856 0.29007613069002897 0.025915189249385445
0.5496034729221254 0.3212109870320468 0.02655620099760346
0.39649323820490834 0.22482113472143508 0.02655620099760346
0.21100275289199258 0.33337189562681135 0.02655620099760346
0.28477404780119714 0.1815253697846527 0.02774665138715119
0.5018755696119497 0.17919941286969016 0.02774665138715119
0.41337016180441966 0.20667134493617645 0.02838766313536921
0.263657289352758 0.27462774755797487 0.02838766313536921
0.23783367321026094 0.34746499677691883 0.02957811352491694
0.44917524659774016 0.3262566652215915 0.02957811352491694
0.5507389794475401 0.20190038606729666 0.030219125273134955
0.39429548363958933 0.3225113251498605 0.030219125273134955
0.28477404780119714 0.3479137050006715 0.0306769908075764
0.2836385412757824 0.3624371997531539 0.031409575662682716
0.36920445235219856 0.29007613069002897 0.031409575662682716
0.5212982255829556 0.34230943085910837 0.032050587410900735
0.3892681200714223 0.32142160517788987 0.032050587410900735
0.2166711282083776 0.33853661885531083 0.032050587410900735
0.28477404780119714 0.35917719714793095 0.033241037800448466
0.5063260226067207 0.18561868766255918 0.033241037800448466
0.5603633129814991 0.3212109870320468 0.033882049548666485
0.3963009346804428 0.22480282010005748 0.033882049548666485
0.21454663212856934 0.34135707054747005 0.033882049548666485
0.28477404780119714 0.2538864388477777 0.03433991508310793
0.2206362437366405 0.36554152807666684 0.035072499938214215
0.3760632780581313 0.325743855823017 0.035072499938214215
0.27618449037507586 0.2840689348781572 0.035713511686432234
0.3790485613426894 0.3202219974776533 0.035713511686432234
0.5208586746698918 0.19275223268915676 0.035713511686432234
0.28477404780119714 0.1815253697846527 0.036903962075979964
0.20035280056088475 0.4951083170129052 0.036903962075979964
0.5380561041435123 0.30213630886721654 0.036903962075979964
0.27508561309241636 0.2728146000415867 0.03754497382419798
0.4258424189626044 0.21298988931146842 0.03754497382419798
0.28477404780119714 0.3705231050913897 0.03800283935863943
0.4825536440585211 0.3624371997531539 0.03873542421374571
0.2603148709513356 0.2832997207802957 0.03873542421374571
0.21398803617655085 0.3281980150876231 0.039376435961963725
0.3973906546524134 0.3280698127379795 0.039376435961963725
0.560793706583874 0.21042584231859635 0.039376435961963725
0.27271386962400973 0.37754676238972146 0.039834301496405176
0.5251992399363965 0.18712964392621587 0.04056688635151149
0.2730343754981187 0.3832242950167952 0.04056688635151149
0.21538910471194156 0.3453038714543553 0.04120789809972951
0.38866373756595957 0.20747718827679346 0.04120789809972951
0.5609402235548954 0.3234636854614987 0.04120789809972951
0.22737602440361854 0.3971708791958815 0.04166576363417092
0.37591676108711 0.3251394733175544 0.04166576363417092
0.5176078293753577 0.19540785278891717 0.04303936023749526
0.41701477145857346 0.3337015588116092 0.04303936023749526
0.21557225092571825 0.34457128659924907 0.04303936023749526
0.2158927567998272 0.22976608249340266 0.04422981062704299
0.27744819925013414 0.39861773428471636 0.04422981062704299
0.5415358822052673 0.22114905313521477 0.04422981062704299
0.4180587048771 0.20560909689627233 0.04487082237526101
0.27949027953374295 0.28587292508385653 0.04487082237526101
0.2206362437366405 0.24222918234089869 0.04532868790970245
0.4324814692120052 0.3173191299892945 0.04606127276480874
0.2395735622411384 0.28138584284633045 0.04606127276480874
0.22447315691525974 0.3865575561075289 0.04606127276480874
0.21557225092571825 0.280286965563671 0.04670228451302675
0.3807060345773675 0.21704657794661955 0.04670228451302675
0.5440266707126286 0.2233559650112225 0.0471601500474682
0.22737602440361854 0.2268632150050439 0.0471601500474682
0.2834279231299394 0.40024773558732796 0.0471601500474682
0.2799481450681845 0.33787729248571513 0.0485337466507925
0.3886912094980262 0.21599348721740416 0.0485337466507925
0.5650610133648682 0.3176671077954701 0.0485337466507925
0.20168976792145377 0.39861773428471636 0.049724197040340264
0.4360436630699597 0.19143357994996538 0.049724197040340264
0.5551161739568004 0.32928773505959374 0.05036520878855828
0.3923266618414911 0.21594770066396005 0.05036520878855828
0.2770361202691369 0.27761303084253297 0.05036520878855828
0.20035280056088475 0.5554092078988427 0.05155565917810601
0.22153366018414572 0.285158654850128 0.05155565917810601
0.43741725967328404 0.32480065282206766 0.05155565917810601
0.21100275289199258 0.2940137742862254 0.05219667092632403
0.4307415801811278 0.34025819326481066 0.05219667092632403
0.5524605538570398 0.33413195241398425 0.05219667092632403
0.28219168618694745 0.35162241582964715 0.05338712131587176
0.36920445235219856 0.2418262606705901 0.05338712131587176
0.23833732529814647 0.285158654850128 0.05338712131587176
0.21483966607061195 0.3757794014267774 0.054028133064089774
0.4222069666191395 0.33041408427431973 0.054028133064089774
0.5619475277306665 0.21042584231859635 0.054028133064089774
0.22447315691525974 0.4267673073421761 0.054485998598531225
0.28219168618694745 0.3602028159450797 0.05521858345363751
0.37288569124910775 0.21770590431621512 0.05521858345363751
0.5714619735363596 0.21770590431621512 0.05521858345363751
0.21538910471194156 0.2978140582220893 0.05585959520185552
0.3932607075317517 0.20841123396705405 0.05585959520185552
0.506829674694606 0.33088110711945 0.05585959520185552
0.4952639912946155 0.34797780617549334 0.05631746073629697
0.2196197822501805 0.36991872258592695 0.05705004559140325
0.2158927567998272 0.21461073330339103 0.05705004559140325
0.4389831598010737 0.34659505226148013 0.05705004559140325
0.2523663252734322 0.34310611688903636 0.05769105733962127
0.4275548360614155 0.3298280163902346 0.05769105733962127
0.3956873948642912 0.23528794083876636 0.05769105733962127
0.2158927567998272 0.4468676043041552 0.05814892287406272
0.27271386962400973 0.2558552606458759 0.05888150772916904
0.3910904248984993 0.24485733050859246 0.05888150772916904
0.5689986569610647 0.33831684339877893 0.05888150772916904
0.21241297873807233 0.3658711912614647 0.05888150772916904
0.21398803617655085 0.34302370109283686 0.059522519477387056
0.385861600495178 0.3077680549408462 0.059522519477387056
0.5069487197335608 0.20097549768772496 0.059522519477387056
0.28219168618694745 0.43997214935546713 0.059980385011828466
0.40127335438447687 0.2929332116249435 0.059980385011828466
0.27744819925013414 0.45892778248134275 0.060712969866934786
0.2116529219508994 0.25394138271191063 0.060712969866934786
0.37189670169471417 0.3180791867764674 0.060712969866934786
0.569136016621397 0.19358554796184024 0.060712969866934786
0.21538910471194156 0.32185199878026477 0.0613539816151528
0.39558666444671414 0.29625731540498834 0.0613539816151528
0.5562425231715262 0.20801746960743434 0.0613539816151528
0.20168976792145377 0.45892778248134275 0.06181184714959425
0.4005682414614371 0.27800679520215266 0.06181184714959425
0.28477404780119714 0.3503770215759665 0.06254443200470053
0.22447315691525974 0.20254139781551475 0.06254443200470053
0.36920445235219856 0.2418262606705901 0.06254443200470053
0.5429735799834132 0.32374756209285244 0.06254443200470053
0.49391786662335746 0.3440584772006745 0.06318544375291855
0.38321513770610643 0.22818186774423527 0.06318544375291855
0.21100275289199258 0.31232839566388293 0.06318544375291855
0.27271386962400973 0.45131805729892605 0.06364330928735999
0.4796049900167182 0.19358554796184024 0.06364330928735999
0.27271386962400973 0.24512289251856845 0.06437589414246628
0.26895937224158994 0.454788678049992 0.06437589414246628
0.4746508849340619 0.3262475079109026 0.06437589414246628
0.4746508849340619 0.21770590431621512 0.06437589414246628
0.27648668162780726 0.34357313973416664 0.0650169058906843
0.3818232264814046 0.30503917635557515 0.0650169058906843
0.38370963248330325 0.2001147104829751 0.0650169058906843
0.28477404780119714 0.4709879606585302 0.06547477142512574
0.4431772080965573 0.3182989622329993 0.06547477142512574
