0.33293810724550604 0.050933999185035064 -0.0638817365122802
0.5269100662097858 -0.13904924647506323 -0.062323645377834316
0.5535014882376618 -0.10911312214524356 -0.062323645377834316
0.375183151537448 0.1158752376687384 -0.062323645377834316
0.633234205224371 -0.0735990315541075 -0.062323645377834316
0.47909744293075707 -0.14753564952067844 -0.062323645377834316
0.5938352740713503 0.018733449073154038 -0.062323645377834316
0.5722401309479306 -0.07965481242998722 -0.062323645377834316
0.38816724432449684 -0.11139832247576414 -0.062323645377834316
0.3549799031608001 -0.09939063346630134 -0.062323645377834316
0.64420316681087 -0.10060594455116915 -0.06180428166635239
0.3432318960070783 -0.019419009172310243 -0.06180428166635239
0.26114126777024077 -0.1047920160657136 -0.06180428166635239
0.20896598931476384 0.03168638003751394 -0.06024619053190651
0.5546544756771515 0.015388746771210233 -0.06024619053190651
0.504546264793373 -0.147691458634123 -0.06024619053190651
0.5103735256362002 -0.10841717477185768 -0.06024619053190651
0.5327061652299242 0.05125600468615393 -0.06024619053190651
0.6616122384197449 -0.021496464018238085 -0.06024619053190651
0.5833025780024962 0.013581361055253116 -0.06024619053190651
0.5660804773297547 -0.10319237583434923 -0.06024619053190651
0.353598395688258 0.03267317108932964 -0.06024619053190651
0.36645784118455116 0.01850492904010192 -0.06024619053190651
0.6720306744720731 -0.050071855423975034 -0.05972682682042455
0.17906102680763294 -0.13216248366081257 -0.05972682682042455
0.17906102680763294 0.0183283453781981 -0.05972682682042455
0.251148709961328 -0.09581741113130555 -0.058168735685978704
0.5945727705416547 0.028113157702518023 -0.058168735685978704
0.4147898281750616 0.10268339939709699 -0.058168735685978704
0.3846563456348789 -0.18540765136194243 -0.058168735685978704
0.43902333895280954 -0.07307966784262558 -0.058168735685978704
0.35707813255518717 0.12223224949727746 -0.058168735685978704
0.5765612370274604 -0.01628205235495918 -0.058168735685978704
0.5867823148694253 -0.06649413598103442 -0.058168735685978704
0.3567457397798386 -0.0012205047219826601 -0.058168735685978704
0.36361172804563 -0.0748974408328124 -0.058168735685978704
0.64420316681087 0.007452869259766036 -0.057649371974496745
0.425312136969686 0.004648305217763384 -0.057649371974496745
0.22186698390797543 0.02925575786777831 -0.056091280840050904
0.3736666094999208 0.11360042461244751 -0.056091280840050904
0.6103094909995577 -0.09460210004643774 -0.056091280840050904
0.5035594737415572 -0.14888599517053144 -0.056091280840050904
0.552255015330105 0.046363598523993896 -0.056091280840050904
0.5833752889221037 -0.11875251263034858 -0.056091280840050904
0.4572426179515966 -0.09509030193523074 -0.056091280840050904
0.6043264210432856 -0.051754593849176626 -0.056091280840050904
0.6129374713796565 0.006912730999824736 -0.056091280840050904
0.3558212723734007 -0.03490643504870208 -0.056091280840050904
0.3528816737664129 -0.04645708399206065 -0.056091280840050904
0.6097589654653869 -0.1138081700970404 -0.05557191712856894
0.3432318960070783 -0.05141181379959853 -0.05557191712856894
0.19751921311370155 -0.050071855423975034 -0.05557191712856894
0.2518342700604842 0.04277998891476843 -0.0540138259941231
0.39137691206145525 0.04313315623857623 -0.0540138259941231
0.36723688675177424 -0.18679954610871408 -0.0540138259941231
0.5419404520200735 0.05936846585950195 -0.0540138259941231
0.5176550048711774 0.0704516874625269 -0.0540138259941231
0.5869900603540179 -0.09034331761228577 -0.0540138259941231
0.5719596745437302 0.028736394156296387 -0.0540138259941231
0.581380932270013 -0.12057028562053539 -0.0540138259941231
0.6319461832198958 -0.034740238661027795 -0.0540138259941231
0.6191698359174399 0.0110364788689915 -0.0540138259941231
0.6168430864900005 -0.13216248366081257 -0.05349446228264114
0.45267221729055546 0.11673738142979843 -0.05349446228264114
0.22688403736089116 -0.0227117751031059 -0.05349446228264114
0.2361079368768107 -0.10738883462312337 -0.05193637114819526
0.5493569658200358 -0.12685458652946707 -0.05193637114819526
0.5481416547351681 -0.1283191921958461 -0.05193637114819526
0.630907455796932 -0.0847445768025103 -0.05193637114819526
0.5317816978234864 -0.14740061495569307 -0.05193637114819526
0.6175805829603052 -0.007016603742121179 -0.05193637114819526
0.3639441208209786 0.02697055753725773 -0.05193637114819526
0.35120932261544113 0.001926839369597946 -0.05193637114819526
0.4768537916971552 0.02524627001513768 -0.05193637114819526
0.5106228202177115 0.039736517565484124 -0.05193637114819526
0.45267221729055546 0.11673738142979843 -0.05100151646752774
0.3465973728574814 -0.06375189558440975 -0.05100151646752774
0.19736340400025695 -0.050071855423975034 -0.05100151646752774
0.25173039731818775 0.04287347438283519 -0.04985891630226745
0.5525250844600758 -0.12506797536196917 -0.04985891630226745
0.5949778742366104 0.030097127080379107 -0.04985891630226745
0.4047661085434602 -0.1826757982395473 -0.04985891630226745
0.6015945679208905 -0.07970674880113536 -0.04985891630226745
0.614703307998695 0.007774874760884761 -0.04985891630226745
0.3639441208209786 -0.08630266793695622 -0.04985891630226745
0.3443017852527311 -0.10120840645648814 -0.04985891630226745
0.5013054352337254 -0.10841717477185768 -0.04985891630226745
0.4523398245152069 -0.09048873945150067 -0.04985891630226745
0.6305231266504353 -0.11847205622614831 -0.04850857065241439
0.3480931403465493 -0.11847205622614831 -0.04850857065241439
0.19730108035487912 0.0183283453781981 -0.04850857065241439
0.23917218277455424 -0.0954226947105793 -0.047781461456339644
0.4313679178455656 -0.1681336143180527 -0.047781461456339644
0.3613265277151095 -0.04647785854052003 -0.047781461456339644
0.3561121160518307 -0.08805811728176519 -0.047781461456339644
0.36536717739043917 -0.005770130834564593 -0.047781461456339644
0.5642523170653381 0.006092136335683318 -0.047781461456339644
0.45831250719724953 -0.025869506468916045 -0.047781461456339644
0.4585306399560718 0.008076105713544404 -0.047781461456339644
0.6721137726659102 -0.0274899212487398 -0.047781461456339644
0.5530963845427059 0.0558679544441137 -0.047781461456339644
0.51613846283365 0.062245740821111985 -0.047781461456339644
0.6989337147268383 -0.06375189558440975 -0.04643111580648658
0.3932985577939385 -0.12659490467372603 -0.04643111580648658
0.17906102680763294 0.03200838553863267 -0.04643111580648658
0.3882295679698747 -0.18121119257316814 -0.045704006610411844
0.4677753140204504 -0.16788431973654136 -0.045704006610411844
0.3898811445723872 -0.10923776943599924 -0.045704006610411844
0.35384769026976937 0.04587539663520089 -0.045704006610411844
0.3740093895494988 -0.07920815963811266 -0.045704006610411844
0.5584769925936587 0.013082771892230423 -0.045704006610411844
0.4587072236179756 -0.032268067394373705 -0.045704006610411844
0.5179977849207553 0.027396435780673047 -0.045704006610411844
0.6319461832198958 -0.07230062227540263 -0.045704006610411844
0.534472001848963 0.06416738655359523 -0.045704006610411844
0.6852536745664035 -0.06639026323873812 -0.044353660960558774
0.6168430864900005 0.04832679335339576 -0.044353660960558774
0.3432318960070783 -0.06375189558440975 -0.044353660960558774
0.4110296349039323 -0.1925956451288526 -0.044353660960558774
0.22175272389144945 -0.09858042607638946 -0.04362655176448404
0.42430457136941124 -0.17460488616311776 -0.04362655176448404
0.5608245165695575 -0.1344684585397924 -0.04362655176448404
0.37474688601980316 0.042738439817849826 -0.04362655176448404
0.36932472887193163 -0.024373738979848115 -0.04362655176448404
0.4336427309018568 -0.03657878619967398 -0.04362655176448404
0.43495152745479104 -0.008283851198137144 -0.04362655176448404
0.5582276980121477 -0.04974984992285631 -0.04362655176448404
0.6728304945877552 -0.0379395191237567 -0.04362655176448404
0.5897011389279537 0.035384249663265394 -0.04362655176448404
0.5627357750278109 0.03871856469097951 -0.04362655176448404
0.1979554786313464 0.03200838553863267 -0.04227620611463093
0.40508811404457873 0.0183283453781981 -0.04227620611463093
0.6168430864900005 -0.13216248366081257 -0.04227620611463093
0.6715736344059688 0.0183283453781981 -0.04227620611463093
0.6031630463295662 -0.008605856699256016 -0.04227620611463093
0.39546949810793314 -0.1821564345280654 -0.0415490969185562
0.5796150956509745 -0.10135382829570319 -0.0415490969185562
0.35669380340869045 0.0033602832132881904 -0.0415490969185562
0.3637675371590748 -0.04112841231225591 -0.0415490969185562
0.560918002037624 -0.07636204649919155 -0.0415490969185562
0.5293926247506695 -0.10886382756373222 -0.0415490969185562
0.555391972147456 -0.033140598429663416 -0.0415490969185562
0.6620692784858492 -0.05329191043516317 -0.0415490969185562
0.3984610330860693 0.10751348191387919 -0.0415490969185562
0.4213026491170454 0.09394770176997046 -0.0415490969185562
0.4116320968092516 -0.20056268446298586 -0.04019875126870313
0.5596715291300672 -0.14323531798960784 -0.04019875126870313
0.598966587540792 0.052066212076065814 -0.04019875126870313
0.3474075802473931 -0.06375189558440975 -0.04019875126870313
0.17906102680763294 -0.0227117751031059 -0.04019875126870313
0.22186698390797543 -0.09467481096604527 -0.03947164207262839
0.5598481127919711 -0.11865902716228183 -0.03947164207262839
0.3623237060411548 -0.027053655731094944 -0.03947164207262839
0.3489760586560687 -0.04399529999963625 -0.03947164207262839
0.36498284824394245 0.03125011451986909 -0.03947164207262839
0.4669131702593904 -0.030917721744520673 -0.03947164207262839
0.43419325643602763 -0.04539758202063758 -0.03947164207262839
0.43659271678307415 -0.004804114331208123 -0.03947164207262839
0.6457093215741677 -0.008585082150796638 -0.03947164207262839
0.5580718888987029 0.05328152316093348 -0.03947164207262839
0.5569812251045909 0.04290463620552411 -0.03947164207262839
0.594822065123166 0.018795772718531875 -0.03812129642277533
0.6031630463295662 -0.07408723344290066 -0.03812129642277533
0.3941918633776876 -0.12681303743254846 -0.03812129642277533
0.2027855611481286 0.042208688832138214 -0.03812129642277533
0.409461156495257 0.10561261072985502 -0.03739418722670059
0.6579663051651417 -0.031291663616787695 -0.03739418722670059
0.5455032870808395 -0.008242302101218684 -0.03739418722670059
0.4782976228150749 -0.008959024023063658 -0.03739418722670059
0.4598082746863173 0.01929436188155457 -0.03739418722670059
0.5579056925110287 -0.027780764927169757 -0.03739418722670059
0.4806139849682845 -0.15955372580437077 -0.03739418722670059
0.39042128283232863 0.039539159355121076 -0.03739418722670059
0.35987230932296 -0.04333051444893943 -0.03739418722670059
0.3751416024405295 0.0040354560382147055 -0.03739418722670059
0.20352305761843295 0.025443628225500878 -0.03739418722670059
0.6168430864900005 -0.12111042388047669 -0.03604384157684752
0.45267221729055546 0.11409901377547021 -0.03604384157684752
0.26114126777024077 0.03036719621034983 -0.03604384157684752
0.5656026627151911 0.05139103925113915 -0.035316732380772785
0.5283850591503945 0.05838167480768625 -0.035316732380772785
0.6348650072784244 -0.014620088478216962 -0.035316732380772785
0.46224928413028266 -0.0372435717503708 -0.035316732380772785
0.49307871404385123 -0.10322353765703815 -0.035316732380772785
0.4502623696692792 -0.0885359318963285 -0.035316732380772785
0.40025803152779654 -0.1795284541479667 -0.035316732380772785
0.42979943943689025 -0.16512130479145734 -0.035316732380772785
0.37315763306266847 0.04287347438283519 -0.035316732380772785
0.357628658089358 0.001781417530383043 -0.035316732380772785
0.20849856197443006 -0.10487511425955082 -0.035316732380772785
0.4561935032544031 -0.18688264430255114 -0.033966386730919715
0.44549461079787483 0.11322648274018049 -0.033966386730919715
0.23378118744937149 -0.03639181526354047 -0.033966386730919715
0.5660493155070657 0.04949016806711527 -0.03323927753484498
0.4323443216231519 0.11032843323011124 -0.03323927753484498
0.6472050890632356 0.0033914450359771088 -0.03323927753484498
0.5466458872461 -0.029930930692704975 -0.03323927753484498
0.5691135614048091 -0.0015632847715607622 -0.03323927753484498
0.5814744177380798 -0.02679397387535391 -0.03323927753484498
0.5670776556557998 -0.12230496041688513 -0.03323927753484498
0.5957569198038335 -0.11697628873708024 -0.03323927753484498
0.3542527939647253 0.04648824581474957 -0.03323927753484498
0.349453873270632 -9.815974147008545E-4 -0.03323927753484498
0.45267221729055546 0.1109516696838896 -0.03271991382336302
0.2819054289552892 0.03200838553863267 -0.031888931884991874
0.6168430864900005 0.05937885313373164 -0.031888931884991874
0.44373916145306574 -0.1906116757509915 -0.031888931884991874
0.3997386678163148 0.11954194547180108 -0.031161822688917137
0.6474959327416656 0.006009038141846103 -0.031161822688917137
0.4706629762562903 -0.011857073533133066 -0.031161822688917137
0.44618017089703105 -0.06914289090959248 -0.031161822688917137
0.4301941558576164 -0.02679397387535391 -0.031161822688917137
0.4316587615239957 -0.17809501030427646 -0.031161822688917137
0.5719492872695008 -0.10812633109342787 -0.031161822688917137
0.3943892215880505 -0.115979110411035 -0.031161822688917137
0.36130575316665026 0.003547254149421701 -0.031161822688917137
0.22142033111610104 0.026129188324657084 -0.031161822688917137
0.4893081334984923 0.10041897361503549 -0.02981147703906407
0.4698735434148378 -0.18688264430255114 -0.02981147703906407
0.26114126777024077 0.0183283453781981 -0.02981147703906407
0.4126085005868376 0.10456349603266149 -0.029084367842989334
0.5811108631400422 0.0523258939318067 -0.029084367842989334
0.6688210067351146 -0.056106861751395364 -0.029084367842989334
0.5312207850150859 -0.0752817699793091 -0.029084367842989334
0.5693109196151723 -0.06087462062279972 -0.029084367842989334
0.5544363429183293 -0.09509030193523074 -0.029084367842989334
0.5727179455624939 -0.12065338381437246 -0.029084367842989334
0.4504597278796424 -0.17893637951687727 -0.029084367842989334
0.3713502473467112 -0.11967698003678645 -0.029084367842989334
0.3497966533202101 -0.08255286194005647 -0.029084367842989334
0.23721937521938205 -0.1121773680429871 -0.029084367842989334
0.22624002635865356 0.004648305217763384 -0.028565004131507372
0.4754826714988428 0.11409901377547021 -0.028565004131507372
0.6031630463295662 -0.06375189558440975 -0.028565004131507372
0.4073213780039512 0.10128111737609552 -0.02700691299706153
0.648690469278074 -0.007899522051640582 -0.02700691299706153
0.5269412280324748 -0.08225163098739698 -0.02700691299706153
0.5729464655955459 -0.025547500967797322 -0.02700691299706153
0.5766547224955271 -0.04969791355170816 -0.02700691299706153
0.44896396039057435 -0.06761596159783548 -0.02700691299706153
0.55613985589199 -0.12246076953032972 -0.02700691299706153
0.37139179644362963 -0.11152296976651982 -0.02700691299706153
0.3712152127817258 -0.06323253187292782 -0.02700691299706153
0.22110871288921186 0.029982867063853124 -0.02700691299706153
0.4701020634478898 -0.18314322557988108 -0.02648754928557957
0.5894830061691314 0.004648305217763384 -0.02648754928557957
0.2819054289552892 0.0183283453781981 -0.02648754928557957
0.3998113787359223 0.10669288724973762 -0.024929458151133725
0.5668699101712072 0.060646100589747606 -0.024929458151133725
0.6744405220933493 -0.021662660405912217 -0.024929458151133725
0.5508631205833335 -0.030294485290742305 -0.024929458151133725
0.572977627418235 -0.009769231412975535 -0.024929458151133725
0.5820041687237913 -0.03526998964673941 -0.024929458151133725
0.5717103799622189 -0.1194692345521937 -0.024929458151133725
0.554841446613285 -0.11877328717880781 -0.024929458151133725
0.36142001318317624 -0.013789106539845856 -0.024929458151133725
0.3757440643458485 -0.011545455306243882 -0.024929458151133725
0.23986813014793998 0.04287347438283519 -0.024929458151133725
0.5829182488559995 0.05937885313373164 -0.024410094439651767
0.425312136969686 -0.11847205622614831 -0.024410094439651767
0.23320988736674128 0.045688425699067385 -0.024410094439651767
0.475420347853465 0.09690807492541756 -0.022852003305205922
0.6746898166748606 -0.03846927010946831 -0.022852003305205922
0.46349575703783935 -0.05976318228022835 -0.022852003305205922
0.5466874363430184 -0.04607275484556409 -0.022852003305205922
0.5193689051190677 -0.10728496188082708 -0.022852003305205922
0.44549461079787483 -0.060240996894791815 -0.022852003305205922
0.5477781001371307 -0.127259690224423 -0.022852003305205922
0.39190666304716704 -0.10801207107690174 -0.022852003305205922
0.35784679084818044 -0.07473124444513826 -0.022852003305205922
0.21159396969486252 0.02254557871543162 -0.022852003305205922
0.5130742169359066 -0.16509014296876842 -0.02233263959372396
0.5894830061691314 0.06200683351383032 -0.02233263959372396
0.425312136969686 0.004648305217763384 -0.02233263959372396
0.4149975736596545 0.10399219595003127 -0.02077454845927808
0.4297786648884309 0.11357965006398814 -0.02077454845927808
0.6445563341346776 0.00662188732139493 -0.02077454845927808
0.4825771797976862 -3.8952278361155325E-4 -0.02077454845927808
0.4425446249166574 -0.06141475888274102 -0.02077454845927808
0.4319911542993439 -0.017393490697530697 -0.02077454845927808
0.48326273989684243 -0.16188047523180996 -0.02077454845927808
0.5838427162624373 -0.10194590292679263 -0.02077454845927808
0.3950540071387476 -0.11667505778442075 -0.02077454845927808
0.35947759290223374 -0.07078408023787547 -0.02077454845927808
0.21243533890746316 -0.09946334438590886 -0.02077454845927808
0.5677320539322673 -0.1458425238212473 -0.020255184747796157
0.562870809592796 0.07044130018829721 -0.020255184747796157
0.425312136969686 0.07305889329416636 -0.020255184747796157
0.4784845937512084 0.0879957936363872 -0.018697093613350275
0.4167426357302339 0.09586934750245371 -0.018697093613350275
0.6438811613097511 0.007722938389736613 -0.018697093613350275
0.4923412175735469 0.0042432015228075935 -0.018697093613350275
0.4382962297567348 -0.044878218309155504 -0.018697093613350275
0.43902333895280954 3.791355093818646E-4 -0.018697093613350275
0.42316197120415083 -0.17914412500147 -0.018697093613350275
0.5992262693965328 -0.1162699540894648 -0.018697093613350275
0.36050593305096806 -0.11534548668302694 -0.018697093613350275
0.37097630547444416 -0.04766200780269878 -0.018697093613350275
0.2120613970351963 0.025713697355471455 -0.018697093613350275
0.5380556114581885 0.08673893345460093 -0.018177729901868316
0.6989337147268383 -0.050071855423975034 -0.018177729901868316
0.5238146584893533 -0.17320260414211658 -0.018177729901868316
0.34066623927235745 0.02254557871543162 -0.018177729901868316
0.5057096395070925 0.08017417614146899 -0.016619638767422472
0.48125799597052193 0.10078252821307282 -0.016619638767422472
0.678013744428345 -0.029546601546208265 -0.016619638767422472
0.5150374117653083 0.00607136178722394 -0.016619638767422472
0.4398958699880992 -0.019419009172310243 -0.016619638767422472
0.4572426179515966 0.022389769601987027 -0.016619638767422472
0.4666223265809606 -0.16423838648193806 -0.016619638767422472
0.5862317893352545 -0.10075136639038405 -0.016619638767422472
0.396165445481319 -0.11170994070265333 -0.016619638767422472
0.3634455316579559 -0.002695497662591364 -0.016619638767422472
0.20298291935849166 -0.09328291621927363 -0.016619638767422472
0.6151291862421102 -0.11847205622614831 -0.01610027505594051
0.5332047543929469 0.08510813140054763 -0.015269293117569404
0.6201358524207962 -0.06540347218692243 -0.015269293117569404
0.5347628455273928 -0.17320260414211658 -0.015269293117569404
0.23378118744937149 0.004648305217763384 -0.015269293117569404
0.2115524205979439 0.024674969932507607 -0.014542183921494667
0.23622219689333668 -0.11246821172141691 -0.014542183921494667
0.3824126944012768 -0.11231240260797232 -0.014542183921494667
0.47207564555152115 -0.16712604871777764 -0.014542183921494667
0.5958815670945892 -0.11762029973931784 -0.014542183921494667
0.5150374117653083 -0.0817426545501446 -0.014542183921494667
0.5496374222242358 -0.08842167187980252 -0.014542183921494667
0.5201271761378315 -0.11124251336231955 -0.014542183921494667
0.6416478973503786 0.011514293483554816 -0.014542183921494667
0.5138428752288997 0.07770200487481489 -0.014542183921494667
0.5347524582531632 0.05679242185055156 -0.014542183921494667
0.6097589654653869 -0.06375189558440975 -0.014022820210012707
0.5990081366377105 0.019959147432251394 -0.0131918382716416
0.6419802901257272 -0.1047920160657136 -0.0131918382716416
0.3448107616899833 -0.03639181526354047 -0.0131918382716416
0.1947561981686175 -0.07743193574484432 -0.0131918382716416
0.23923450641993207 0.04075447043998889 -0.012464729075566863
0.35867777278655155 -0.04669599129934246 -0.012464729075566863
0.3531517428963836 0.04418227093576976 -0.012464729075566863
0.5754601859591187 -0.11967698003678645 -0.012464729075566863
0.5270970371459193 -0.15522223245061129 -0.012464729075566863
0.5082752962418131 -0.08240744010084157 -0.012464729075566863
0.545430576161232 -0.09156901597138312 -0.012464729075566863
0.5106228202177115 -0.11243704989872799 -0.012464729075566863
0.6368489766562856 -0.005562385349971705 -0.012464729075566863
0.5235134275366937 0.07340167334374431 -0.012464729075566863
0.6052716629981829 0.04320586715818361 -0.012464729075566863
0.6103302655480171 -0.09795718962261124 -0.011945365364084902
0.6090734053662307 0.004648305217763384 -0.011114383425713758
0.5451501197570319 -0.15952256398168185 -0.011114383425713758
0.2176705251192013 -0.0422294633805976 -0.011114383425713758
0.5301197339467442 0.07329780060144801 -0.010387274229639021
0.663970149669873 -0.04655056946012741 -0.010387274229639021
0.6427489484187207 0.012085593566185035 -0.010387274229639021
0.5515486806824897 -0.038417333738320014 -0.010387274229639021
0.5743175857938583 -0.01388259200791261 -0.010387274229639021
0.5817964232391984 -0.040785632262677805 -0.010387274229639021
0.5754913477818075 -0.12054951107207616 -0.010387274229639021
0.5783374609207287 -0.12814260853394224 -0.010387274229639021
0.3850406747813756 -0.10241333026712626 -0.010387274229639021
0.21956100902899564 -0.0991828879817086 -0.010387274229639021
0.5614165912006467 0.07154235125663905 -0.009867910518157098
0.5790957319394924 -0.1458425238212473 -0.009036928579785955
0.2819054289552892 0.03200838553863267 -0.009036928579785955
0.19991867346074813 -0.04305005804473916 -0.009036928579785955
0.21760820147382345 0.029608925191586102 -0.008309819383711217
0.20115475909407515 -0.06436474476395843 -0.008309819383711217
0.392020923063693 0.03444939498259784 -0.008309819383711217
0.572281680044849 0.049936820858989824 -0.008309819383711217
0.6783253626552342 -0.03651646255429614 -0.008309819383711217
0.5358638965957345 -0.14455450181677196 -0.008309819383711217
0.6428112720640982 0.016531346936470525 -0.008309819383711217
0.46126249307846695 -0.054881163392298 -0.008309819383711217
0.5466874363430184 -0.04607275484556409 -0.008309819383711217
0.5103735256362002 -0.10841717477185768 -0.008309819383711217
0.4533370028412523 0.0017918048046127316 -0.008309819383711217
0.6989337147268383 -0.009031734942671184 -0.00695947373385815
0.2270086846516468 -0.006912730999824883 -0.00695947373385815
0.17906102680763294 -0.11847205622614831 -0.00695947373385815
0.21110576780606935 0.022701387828876065 -0.006232364537783413
0.23661691331406293 -0.11273828085138748 -0.006232364537783413
0.3853522930082648 0.039850777582010256 -0.006232364537783413
0.6431644393879061 -0.004731403411600599 -0.006232364537783413
0.6460624888979754 -0.00163599569116814 -0.006232364537783413
0.6825010468955494 -0.03385732035150854 -0.006232364537783413
0.6403079389747554 0.018650350879316973 -0.006232364537783413
0.5150374117653083 -0.0817426545501446 -0.006232364537783413
0.572281680044849 -0.050611993683916334 -0.006232364537783413
0.5614165912006467 -0.0885359318963285 -0.006232364537783413
0.5678463139487933 0.07305889329416636 -0.005713000826301453
0.5703392597639068 0.07236294592078046 -0.004882018887930346
0.4060541305479354 -0.12419544432667946 -0.004882018887930346
0.22754882291158812 -0.025474790048189797 -0.004882018887930346
0.21167706788869958 -0.09887126975481941 -0.004154909691855608
0.3933297196166276 -0.10960132403403657 -0.004154909691855608
0.3578052417512618 0.0468518004127869 -0.004154909691855608
0.602155480729291 -0.10490627608223974 -0.004154909691855608
0.4876150077990613 -0.1534563958315726 -0.004154909691855608
0.5656753736347987 -0.13925699195965613 -0.004154909691855608
0.5084414926294876 0.010870282481317219 -0.004154909691855608
0.4377560914967937 -0.03635026616662186 -0.004154909691855608
0.4441546524222512 0.008460434860040965 -0.004154909691855608
0.5828974743075404 -0.1458425238212473 -0.003635545980373648
0.6481918801150512 0.01638592509725562 -0.0028045640420025415
0.2939442797874409 -0.09111197590527903 -0.0028045640420025415
0.19690636393415287 0.03200838553863267 -0.0028045640420025415
0.21729658324693427 -0.10267301212286731 -0.002077454845927804
0.39463851616956186 0.029099948754333867 -0.002077454845927804
0.6675433720048688 -0.029692023385423316 -0.002077454845927804
0.5708897852980775 0.05265828670715511 -0.002077454845927804
0.5155879372994792 0.08360197663725001 -0.002077454845927804
0.4973998201233811 0.00991465325219044 -0.002077454845927804
0.4669131702593904 -0.030917721744520673 -0.002077454845927804
0.4336219563533974 -0.03635026616662186 -0.002077454845927804
0.4838755890763911 0.024612646287129773 -0.002077454845927804
0.6133321878003826 0.042094428815612234 -7.271091960747002E-4
0.24021091019751808 -0.11847205622614831 -7.271091960747002E-4
0.1966155202557229 -0.015741914095018024 -7.271091960747002E-4
0.20253626656661725 0.022701387828876065 3.6903011241090617E-17
0.3939321815219466 -0.10092795005228787 3.6903011241090617E-17
0.49641302907156537 -0.08546129872435541 3.6903011241090617E-17
0.5468640200049223 -0.030689201711468557 3.6903011241090617E-17
0.5642523170653381 -0.07879266866892704 3.6903011241090617E-17
0.45650512148129224 -0.02578640827507898 3.6903011241090617E-17
0.5115576748983791 -0.15298896849123883 3.6903011241090617E-17
0.6213200016829751 -0.09666916761813589 3.6903011241090617E-17
0.582648179726029 0.058298576613849185 3.6903011241090617E-17
0.22794353933231437 -0.007525580179373562 0.0013503456498531042
0.6168430864900005 0.04899157890409258 0.0013503456498531042
0.6168430864900005 -0.12177520943117352 0.0013503456498531042
0.2364091678294702 -0.11294602633598037 0.002077454845927841
0.3621055732823324 -0.1159271740398867 0.002077454845927841
0.46224928413028266 -0.0372435717503708 0.002077454845927841
0.49307871404385123 -0.10322353765703815 0.002077454845927841
0.4502623696692792 -0.0885359318963285 0.002077454845927841
0.5874263258716628 0.044743183744170294 0.002077454845927841
0.6729966909754294 -0.02658622839076117 0.002077454845927841
0.5128976332740027 0.08724790989185331 0.002077454845927841
0.6258696277955572 -0.11211504439760928 0.0025968185574098013
0.41199565140728894 0.015492619513506677 0.0034278004957809085
0.645813194316464 0.02444644989945549 0.0034278004957809085
0.2065042053223393 -0.09840384241448563 0.004154909691855646
0.3539515630120658 0.0450340274226001 0.004154909691855646
0.48518438562932564 -0.08134793812941835 0.004154909691855646
0.5405901063702204 -0.060573389670140226 0.004154909691855646
0.5518706861836082 -0.09199489421479828 0.004154909691855646
0.5166058901739838 0.01311393371491934 0.004154909691855646
0.5308987795139672 -0.14054501396413133 0.004154909691855646
0.6727058472969996 -0.05292835583712584 0.004154909691855646
0.5499074913542066 0.0495109426155745 0.004154909691855646
0.6204994070188335 0.045688425699067385 0.005505255341708713
0.22902381585219683 -3.999100578410943E-4 0.005505255341708713
0.22923156133678957 0.03153057092406935 0.0062323645377834495
0.35653799429524585 0.0502068899889604 0.0062323645377834495
0.5207088634946911 0.008782440361159837 0.0062323645377834495
0.473114372974485 -0.060407193282465944 0.0062323645377834495
0.4598082746863173 0.01929436188155457 0.0062323645377834495
0.5279591809069792 -0.09725085497499565 0.0062323645377834495
0.6569899013875556 -0.010330144221376066 0.0062323645377834495
0.6459793907041382 -0.01712342156755997 0.0062323645377834495
0.6305231266504353 -0.1068175345404933 0.006751728249265411
0.36314430070529624 0.05397747053431937 0.007582710187636517
0.3021813882515446 0.07305889329416636 0.007582710187636517
0.20730402543802148 -0.10594500350520358 0.008309819383711255
0.35428395578741423 0.04516906198758546 0.008309819383711255
0.5331632052960285 -0.07891731595968271 0.008309819383711255
0.5313869814027603 -0.005572772624201394 0.008309819383711255
0.5779946808711507 -0.03551928422825076 0.008309819383711255
0.4533370028412523 0.0017918048046127316 0.008309819383711255
0.6425308156598981 -0.07552067728659076 0.008309819383711255
0.588111885970819 0.02789502494369559 0.008309819383711255
0.637731894965805 -0.10386754865927574 0.009660165033564358
0.17906102680763294 -0.13216248366081257 0.009660165033564358
0.17906102680763294 0.045688425699067385 0.009660165033564358
0.24187287407426028 0.038947084724031626 0.010387274229639096
0.3945138688788062 -0.10670327452396731 0.010387274229639096
0.5249988077515322 -0.07860569773279352 0.010387274229639096
0.5717727036075967 -0.019419009172310243 0.010387274229639096
0.5796774192963523 -0.05530704163571317 0.010387274229639096
0.6192944832081956 0.017486976165597305 0.010387274229639096
0.5601389564704012 -0.1214428166558251 0.010387274229639096
0.5529717372519503 0.048825382516418304 0.010387274229639096
0.39677829466086767 0.01219985358271102 0.011737619879492163
0.22620886453596464 -0.06901824361883681 0.011737619879492163
0.2109084095957063 0.024394513528307342 0.012464729075566899
0.3935270778269905 -0.10824059110995385 0.012464729075566899
0.4816111632943299 -0.0746377589770715 0.012464729075566899
0.5657376972801765 -0.06864430174656978 0.012464729075566899
0.5466874363430184 -0.10072020456769513 0.012464729075566899
0.5878937532119968 0.038053779140282684 0.012464729075566899
0.6493864166514598 -0.014256533880179632 0.012464729075566899
0.6384901659845684 0.022639064183498373 0.012464729075566899
0.3880737588564302 0.014755123043202326 0.013815074725419967
0.23378118744937149 -0.009031734942671184 0.013815074725419967
0.6100082600468982 -0.10299501762398618 0.014542183921494704
0.5790126337456551 0.03336911846271539 0.014542183921494704
0.4585202526818421 -0.0426137925270943 0.014542183921494704
0.5443814614640385 -0.053561979565133894 0.014542183921494704
0.5013054352337254 -0.10841717477185768 0.014542183921494704
0.45495741762107605 -0.03689040442656316 0.014542183921494704
0.4000295114947446 0.031997998264403124 0.014542183921494704
0.2159981739682294 -0.09792602779992232 0.014542183921494704
0.6742016147860677 0.004648305217763384 0.01589252957134777
0.22801625025192174 0.004648305217763384 0.01589252957134777
0.5897219134764131 -0.10980906951862932 0.01661963876742251
0.6122830731031891 0.011451969838176979 0.01661963876742251
0.5455032870808395 -0.008242302101218684 0.01661963876742251
0.4902014390822414 -8.673373981748696E-4 0.01661963876742251
0.4923100557508581 0.0345844295475832 0.01661963876742251
0.4476240020149507 -0.06688885240176082 0.01661963876742251
0.4549885794437648 -0.03880166288481672 0.01661963876742251
0.5301405084952036 0.0248307790459522 0.01661963876742251
0.38719084054691083 0.02120562033980813 0.01661963876742251
0.21854305615449102 -0.09411389815764473 0.01661963876742251
0.351957206359975 -0.11847205622614831 0.01713900247890447
0.2225421567329021 0.045688425699067385 0.01713900247890447
0.6432786994044322 0.006268719997587139 0.018697093613350313
0.6774632188941743 -0.017248068858315646 0.018697093613350313
0.459216200055228 -0.04809827332034364 0.018697093613350313
0.5355107292719269 -0.06671226873985685 0.018697093613350313
0.4835224217525835 -0.10503092337299541 0.018697093613350313
0.5021571917205557 0.02902723783472634 0.018697093613350313
0.49368117594917027 -0.10009696811391677 0.018697093613350313
0.39525136534911054 -0.10686947091164145 0.018697093613350313
0.2379153225927678 0.0325692983470332 0.018697093613350313
0.6956928851671907 -0.06375189558440975 0.01921645732483227
0.34063507744966853 0.03200838553863267 0.01921645732483227
0.6615083656774486 -0.053042615853651824 0.020774548459278154
0.6494902893937561 0.007380158340158511 0.020774548459278154
0.5155463882025606 0.010163947833701786 0.020774548459278154
0.46624838470869356 -0.037638288171097205 0.020774548459278154
0.43583444576431046 -0.0187230617989245 0.020774548459278154
0.44421697606762905 -0.056979392786685075 0.020774548459278154
0.48700215861951235 0.010163947833701786 0.020774548459278154
0.5532210318334613 0.00814881663315178 0.020774548459278154
0.4041428720896818 0.033732673060752866 0.020774548459278154
0.20038610080108188 -0.09594205842206123 0.020774548459278154
0.425312136969686 0.03200838553863267 0.02247806143293894
0.23583786774683996 -0.11345500277323262 0.022852003305205957
0.4031664683120955 0.02794696131484389 0.022852003305205957
0.5552569375824709 -0.04284231256014627 0.022852003305205957
0.4902014390822414 -8.673373981748696E-4 0.022852003305205957
0.5518706861836082 0.01929436188155457 0.022852003305205957
0.48637892216573425 0.026690101133057465 0.022852003305205957
0.5474664819102416 -0.08611569700082271 0.022852003305205957
0.6190140268039952 -0.09543308198480885 0.022852003305205957
0.6108704038079582 -0.08669738435768247 0.022852003305205957
0.6816285158602596 -0.0305957162434018 0.022852003305205957
0.3933089450681682 0.037212409927681885 0.024929458151133763
0.40735253982664027 -0.10429342690269106 0.024929458151133763
0.473114372974485 -0.060407193282465944 0.024929458151133763
0.4533162282927929 -0.08566904420894816 0.024929458151133763
0.4350969492940061 -0.06435435748972874 0.024929458151133763
0.55153829340826 -0.06368957193903191 0.024929458151133763
0.6662968990973124 -0.048389116998773594 0.024929458151133763
0.668260093926714 -0.020353863852977792 0.024929458151133763
0.4141250426243648 0.03200838553863267 0.025739665541045603
0.6755000240647725 -0.05006146814974549 0.027006912997061566
0.6730901764434962 -0.02697055753725788 0.027006912997061566
0.40349886108744404 -0.10245487936404488 0.027006912997061566
0.21561384482173285 0.025329368208974745 0.027006912997061566
0.4116320968092516 -0.050071855423975034 0.029084367842989373
0.6441096813428031 -0.07445078804093799 0.029084367842989373
0.35640295973026065 0.04548068021447464 0.029084367842989373
0.21548919753097717 -0.10307811581782324 0.029084367842989373
0.6698285723353897 -0.046000043925956566 0.031161822688917214
0.39574995451213324 0.035612769696317506 0.031161822688917214
0.40785112898966297 -0.10428303962846137 0.031161822688917214
0.22001804909509973 0.02365701705800299 0.031161822688917214
0.3579610508647064 -0.1262313500756887 0.03225248648302928
0.6596698181388025 -0.02671087568151684 0.03323927753484502
0.3963731909659116 -0.10738883462312337 0.03323927753484502
0.21593585032285156 0.025848731920456818 0.03323927753484502
0.4147898281750616 0.03656839892544429 0.03531673238077282
0.6739211583818673 -0.060095575055576764 0.03531673238077282
0.39267532134016014 -0.09794680234838155 0.03531673238077282
0.21403497913882769 0.016365150548796243 0.03531673238077282
0.40545166864261606 0.033732673060752866 0.037394187226700626
0.20148715186942373 -0.09758324775034422 0.037394187226700626
0.23378118744937149 -0.03639181526354047 0.038775694699242615
0.6892943242417332 -0.037388993589585855 0.03947164207262843
0.40434023030004473 -0.11378739554858103 0.03947164207262843
0.20139366640135697 0.02447761172214441 0.03947164207262843
0.39159504482027785 -0.10786664923768684 0.04154909691855627
0.25095135175096495 0.034366296788760776 0.04154909691855627
0.425312136969686 -0.07743193574484432 0.04203729880734928
0.4059398705314094 0.033732673060752866 0.04362655176448407
0.2359521277633661 -0.11398475375894422 0.04362655176448407
0.23378118744937149 -0.03639181526354047 0.04529890291545594
0.38427201648838216 0.004648305217763384 0.04529890291545594
0.39512671805835486 -0.12214915130344053 0.04570400661041188
0.25191736825432126 0.034542880450664594 0.04570400661041188
0.38734664966035526 -0.11011030047128881 0.047781461456339686
0.20372041582879602 0.01923203823617673 0.047781461456339686
0.26206573517667864 0.02498658815939679 0.048560507023562606
0.39228060491943373 0.040785632262677805 0.04985891630226749
0.3898084336527797 -0.09392692722151123 0.04985891630226749
0.21952984720630672 0.02412444439833662 0.04985891630226749
0.4160986247279962 0.03656839892544429 0.05193637114819533
0.40450642668771913 0.03001402888654204 0.05193637114819533
0.21493867199680633 -0.1036182540777644 0.05193637114819533
0.3982221257787873 0.03347299120501183 0.05401382599412313
0.39012005187966886 -0.10267301212286731 0.05401382599412313
0.2297613123225012 0.03688001715233347 0.05401382599412313
0.26114126777024077 0.020135731094155215 0.05507332796554632
0.39277919408245643 0.04095182865035194 0.05609128084005094
0.40438177939696346 -0.12249193135301864 0.05609128084005094
0.2042190049918187 0.01718574521293781 0.05609128084005094
0.21188481337329232 0.045688425699067385 0.058168735685978745
0.3524765700714571 0.04041169039041079 0.058168735685978745
0.40758105985969223 -0.10587229258559605 0.058168735685978745
0.2578173400167562 0.026482355648464725 0.058168735685978745
0.39895962224909165 -0.10504131064722495 0.060246190531906545
0.21214449522903336 0.030169837999986633 0.060246190531906545
0.425312136969686 -0.06375189558440975 0.06159653618175965
0.23378118744937149 -0.0227117751031059 0.06159653618175965
0.3378097388592067 0.03554005877670998 0.062323645377834386
0.20250510474392833 -0.11089973331274146 0.062323645377834386
0.19274106696806764 -0.06451016660317334 0.06367399102768745
0.2702612945438639 0.050850900991197996 0.06367399102768745
0.3889047407948012 -0.08588717696777058 0.06367399102768745
0.3992400786532921 -0.11052579144047443 0.06440110022376219
0.25611382704309554 -0.10304695399513432 0.06440110022376219
0.22527400985529708 -0.06854042900427335 0.06492046393524416
0.278114073861471 0.0183283453781981 0.06575144587361526
0.2254713680656603 -0.07072175659249763 0.06575144587361526
0.17906102680763294 -0.050071855423975034 0.06575144587361526
0.3970379765166087 -0.11028688413319278 0.06647855506969
0.22319655500936925 -0.11322648274018064 0.06647855506969
0.2701678090757971 0.053302297709392855 0.06699791878117196
0.19473542362015828 -0.016136630515744273 0.06782890071954306
0.3180739178228924 0.05937885313373164 0.06782890071954306
0.4174074212809307 -0.10118763190802892 0.06782890071954306
0.3990115586202401 0.03537386238903585 0.0685560099156178
0.4077264816989073 -0.11415095014661851 0.0685560099156178
0.2131520608293083 -0.0023734921614724917 0.0685560099156178
0.2660025121097119 0.020707031176785438 0.06907537362709976
0.38427201648838216 -0.079083512347357 0.06990635556547087
0.425312136969686 0.045688425699067385 0.06990635556547087
0.23378118744937149 -0.06375189558440975 0.06990635556547087
0.33644900593512395 0.04281115073745735 0.07063346476154561
0.40694743613168416 -0.09794680234838155 0.07063346476154561
0.20989045672120168 0.026939395714568812 0.07063346476154561
0.2015598627890311 -0.05255441396485882 0.07115282847302756
0.19162962862549612 0.010766409739020924 0.07198381041139872
0.2676333141637652 0.02085245301600034 0.07198381041139872
0.4116320968092516 -0.03639181526354047 0.07198381041139872
0.3184270851467002 -0.09653413305315069 0.07198381041139872
0.40015415878550026 -0.1126655699317801 0.07271091960747345
0.2503385025714161 -0.11548052124801231 0.07271091960747345
0.31586142841197934 -0.1047920160657136 0.07323028331895537
0.3295518558466436 0.05937885313373164 0.07323028331895537
0.2928640032675585 0.0183283453781981 0.07406126525732651
0.3349844002687448 -0.1458425238212473 0.07406126525732651
0.3911172302057142 0.04208404154138269 0.07478837445340125
0.39107568110879576 -0.10629817082901137 0.07478837445340125
0.2130066389900934 0.02278448602271328 0.07478837445340125
0.22010114728893693 -0.04191784515370841 0.07530773816488322
0.2928640032675585 0.0183283453781981 0.07613872010325431
0.314344886374452 -0.09111197590527903 0.07613872010325431
0.32482564607215786 0.04127383415147081 0.07686582929932906
0.40645923424289115 -0.10279765941362298 0.07686582929932906
0.21794059424917187 0.032465425604736906 0.07686582929932906
0.2874937824908351 -0.10447001056459487 0.07738519301081101
0.2821235617141116 -0.11847205622614831 0.07821617494918212
0.3979520566488169 0.004648305217763384 0.07821617494918212
0.22124374745419723 -0.10550873798755872 0.07894328414525686
0.40450642668771913 -0.10737844734889383 0.07894328414525686
0.4116217095350219 0.027936574040614198 0.07894328414525686
0.27482130793067533 -0.11847205622614831 0.08029362979510993
0.3979520566488169 -0.08747642992490542 0.08029362979510993
0.39159504482027785 0.04225023792905682 0.08102073899118467
0.20282711024504707 -0.06920521455497032 0.08102073899118467
0.1922528650792745 -0.0227117751031059 0.08237108464103776
0.3021813882515446 0.06200683351383032 0.08237108464103776
0.41195410231037016 -0.09392692722151123 0.0830981938371125
0.39013043915389856 0.038396559189860784 0.0830981938371125
0.2821235617141116 -0.11847205622614831 0.08361755754859443
0.319382714375827 -0.12133894391352866 0.08444853948696557
0.4013279207734495 0.029951705241164205 0.08517564868304031
0.2625331625170124 -0.10421032870885384 0.08517564868304031
0.4121099114238149 -0.09392692722151123 0.08517564868304031
0.41555848646805504 -0.11847205622614831 0.08652599433289337
0.2455499691515525 -0.10727457460659738 0.08725310352896812
0.27338786408698523 0.04368368177274707 0.08725310352896812
0.41227610781148905 0.027936574040614198 0.08725310352896812
0.19208666869160035 -0.050071855423975034 0.08860344917882122
0.20389699949069998 0.045688425699067385 0.08860344917882122
0.20888289112092662 -0.09614980390665397 0.08933055837489595
0.31200774967278333 -0.10724341278390846 0.08933055837489595
0.314344886374452 -0.12433047889166468 0.08984992208637788
0.425312136969686 -0.009031734942671184 0.09068090402474899
0.2083739146836744 -0.023137653346521066 0.09140801322082372
0.22097367832422649 0.036059422488191904 0.09140801322082372
0.407009759777062 -0.12352027150175295 0.09140801322082372
0.425312136969686 -0.03639181526354047 0.09275835887067682
0.20932954391280117 -0.09866352427022668 0.09348546806675156
0.21493867199680633 0.035623156970547194 0.09348546806675156
0.3781539119671248 -0.12259580409531508 0.09348546806675156
0.4116320968092516 -0.03639181526354047 0.0948358137166046
0.39090948472112164 -0.1152935503118788 0.09556292291267933
0.23125707981156926 -0.10317160128589 0.09556292291267933
0.2767533409373883 0.0514845247192059 0.09691326856253243
0.38635985860853955 -0.09111197590527903 0.09691326856253243
0.23012486692053852 0.029982867063853124 0.09764037775860718
0.35800259996162503 0.04920971166291501 0.09764037775860718
0.17906102680763294 0.03200838553863267 0.09899072340846028
0.39178201575641136 0.004648305217763384 0.09899072340846028
0.21511525565871015 0.02810277042828848 0.09971783260453501
0.39317391050318284 0.03428319859492371 0.09971783260453501
0.402034255421065 0.034729851386798107 0.10179528745046278
0.21176016608253664 0.024758068126344675 0.10179528745046278
0.29661380926445824 0.05674048547940327 0.10217961659695941
0.3935374651012202 -0.10711876549315279 0.10387274229639062
0.24067833753785184 -0.10770045285001255 0.10387274229639062
0.17906102680763294 -0.11847205622614831 0.10535812251122902
0.39654977462781543 0.037264346298830034 0.10595019714231839
0.4025120700356284 -0.10559183618139593 0.10595019714231839
0.3968302310320158 -0.10995449135784421 0.10802765198824624
0.40408054844430397 0.030523005323794275 0.10802765198824624
0.19587802378541858 -0.11847205622614831 0.10854701569972816
0.21316244810353796 -0.09643026031085423 0.11010510683417407
0.4026574918748434 -0.10250681573519302 0.11010510683417407
0.24617320560533087 -0.12388382609979028 0.110624470545656
0.4206897999374967 -0.1047920160657136 0.110624470545656
0.2044059759279522 0.023719340703380828 0.11218256168010184
0.21909358168866186 0.039372962967446794 0.11218256168010184
0.42085599632517084 -0.009031734942671184 0.11270192539158384
0.21707845048811186 -0.09653413305315069 0.11426001652602968
0.23580670592415104 0.0357685788097621 0.11426001652602968
0.4113620276792809 -0.10729534915505662 0.11426001652602968
0.27138312016066496 -0.13216248366081257 0.11477938023751161
0.2129962517158637 0.023812826171447584 0.11633747137195745
0.2137960718315459 -0.10525944340604738 0.11633747137195745
0.2908073229700899 -0.1108477969415933 0.11633747137195745
0.27052097639960493 0.04590655845788981 0.11633747137195745
0.2498918497795417 -0.13008502881488473 0.11685683508343944
0.21293392807048586 0.02389592436528465 0.11841492621788528
0.21144854785564746 -0.10344167041586057 0.11841492621788528
0.3773333173029832 -0.11902258176031916 0.11841492621788528
0.2022142610654984 -0.11281099177099502 0.11841492621788528
0.27138312016066496 -0.13137305081936007 0.1189342899293672
0.3036044448210052 0.05937885313373164 0.11976527186773839
0.28896877543144384 -0.11040114414971876 0.12049238106381313
0.3931427486804941 -0.11870057625920044 0.12049238106381313
0.2496944915691785 0.04269689072093137 0.12049238106381313
0.33582576948134557 0.057706501982759735 0.12184272671366617
0.37388474225874313 -0.13545524959160823 0.12184272671366617
0.3131918989349621 0.041232285054552203 0.1225698359097409
0.3438343579123973 -0.11413017559815912 0.1225698359097409
0.41198526413305925 -0.08787114634563167 0.1225698359097409
0.4217700764573793 0.05934769131104272 0.12308919962122289
0.4194017779330215 -0.11847205622614831 0.123920181559594
0.21418040097804258 0.03301595113890774 0.12464729075566874
0.40421558300928906 -0.11617646862139805 0.12464729075566874
0.327006973660382 -0.1245589989247168 0.12464729075566874
0.3519468190857455 -0.13200667454736797 0.12516665446715067
0.39465929071802125 -0.11260324628640228 0.1267247456015965
0.39639396551437095 0.044171883661540075 0.1267247456015965
0.3512820335350485 0.05284525764328862 0.1267247456015965
0.346576598309022 -0.13780277356750664 0.1272441093130785
0.346576598309022 0.07305889329416636 0.1272441093130785
0.3728356275615496 0.054112505099304584 0.12880220044752436
0.3516352008588563 0.04637398579822359 0.12880220044752436
0.19671939299801935 0.03889514835288348 0.1308796552934522
0.19989789891228887 -0.08027804888376543 0.1308796552934522
0.402979497375962 0.038677015594061046 0.1308796552934522
0.38427201648838216 -0.14054501396413133 0.13139901900493411
0.3353895039637007 -0.12089229112165427 0.13295711013937997
0.404454490316571 -0.05457993243963851 0.13295711013937997
0.32706929730575984 -0.11852399259729647 0.13295711013937997
0.4036442829266591 -0.1353409895750821 0.1350345649853078
0.2872341006350941 -0.09942179528899026 0.1350345649853078
0.3725136220604307 -0.11882522354995612 0.1350345649853078
0.41669069935908576 -0.1295448905549436 0.13711201983123555
0.2120406224867369 -0.10096949914920648 0.13711201983123555
0.2003133898814745 -0.11625956681523511 0.13918947467716342
0.22229286215139077 0.030304872564971996 0.13918947467716342
0.20402164678145565 -0.03972613029125458 0.13918947467716342
0.19878646056971752 0.04741271322118743 0.14126692952309125
0.19816322411593915 0.04066098497192214 0.14126692952309125
0.4189343505926876 0.05162994655842095 0.14334438436901903
0.3067517889125859 -0.04369406904697676 0.14334438436901903
0.22266680402365777 0.023999797107580944 0.14334438436901903
0.2397434828571843 -0.06076036060627374 0.14334438436901903
0.21025401131923901 0.030533392598023963 0.14542183921494686
0.24789749312745094 -0.0029551795183323996 0.14542183921494686
