0.18873500810026042 0.31589619407714836 -0.14961193502987377
0.16477918089847113 0.35372024136434166 -0.14961193502987377
0.5530893432897793 0.2734673243584967 -0.14961193502987377
0.49832420803004174 0.4282305685286206 -0.14961193502987377
-0.07156288245620547 0.1785309366033128 -0.14961193502987377
-0.07882846804358444 0.10312472958855545 -0.14961193502987377
0.44216150020355793 0.16979610806114956 -0.14961193502987377
0.37209473709765134 0.1106680379295826 -0.14961193502987377
0.44423994145666756 0.16573777233848289 -0.14961193502987377
0.3968568561648711 0.3674630382706785 -0.14961193502987377
0.4210635297247944 0.5871686128019733 -0.14961193502987377
0.3825586137512376 0.5757192683128609 -0.14961193502987377
0.5888439081223679 0.27134408911286323 -0.14916399510463466
0.21638186028602044 0.4106713234592463 -0.14844729122425201
0.6367197273319274 0.3539352525284563 -0.14844729122425201
0.3835172051912494 0.1001056144924436 -0.1478201753289172
0.37273081179149087 0.15456615060301868 -0.1478201753289172
0.5535283244165138 0.39934740214920067 -0.1478201753289172
0.49833316682854656 0.25965285706412167 -0.1478201753289172
-0.1885558321301648 0.4141204608835876 -0.1478201753289172
-0.008107712646828498 0.2821125649156122 -0.1478201753289172
0.1717849613292113 0.3681797421510611 -0.1478201753289172
0.552032205066215 0.27594891154432155 -0.1478201753289172
0.565559990808437 0.28181692456495433 -0.1478201753289172
0.31393421720460096 0.2821125649156122 -0.1478201753289172
0.41707686439016606 0.5131868547494765 -0.1478201753289172
0.38714551858568647 0.5781471027076569 -0.1478201753289172
0.3956384595682207 0.5172362316736382 -0.1478201753289172
-0.1311747277070306 0.5220291888736973 -0.1478201753289172
-0.04540319082223951 0.5231221622912807 -0.1478201753289172
-0.0414165254876112 0.10206759136499112 -0.1478201753289172
-0.08891607515996985 0.16795059556916425 -0.1478201753289172
0.613426851219492 0.38933146542085345 -0.14737223540367805
0.25210058992458967 0.2955418038742818 -0.14665553152329544
0.5984835753135141 0.4247366371117553 -0.14665553152329544
0.3613710552874262 0.11985976519548978 -0.14602841562796065
0.3711361456576396 0.11908034972557378 -0.14602841562796065
-0.18153213410241506 0.27942492536417735 -0.14602841562796065
0.5488518315970171 0.25982307423571244 -0.14602841562796065
-0.0842574999374828 0.2821125649156122 -0.14602841562796065
0.08400665357934883 0.38551501725781595 -0.14602841562796065
0.5736229094627416 0.39473362091923747 -0.14602841562796065
0.588001781062918 0.38233464378861803 -0.14602841562796065
0.3127785321974839 0.3024759139169836 -0.14602841562796065
0.32118188519497026 0.391866805397707 -0.14602841562796065
0.37159304438138335 0.5145933861147274 -0.14602841562796065
0.39347043033006307 0.517245190472143 -0.14602841562796065
-0.100795441977312 0.5883690918016143 -0.14602841562796065
-0.12069293345643463 0.5276194791406817 -0.14602841562796065
-0.12892606928233016 0.10995133404919999 -0.14602841562796065
-0.09226666580075872 0.10413707381959592 -0.14602841562796065
0.62732194770041 0.3640228596448419 -0.14486377182233887
-0.12098857380709248 0.5269834044468422 -0.14423665592700408
-0.045582366792335134 0.5741604373730287 -0.14423665592700408
-0.1740784137464357 0.42364366369417183 -0.14423665592700408
0.4974372869780683 0.2553884689758449 -0.14423665592700408
0.522450252403422 0.4381121232793961 -0.14423665592700408
0.07169726443377722 0.40216046487970253 -0.14423665592700408
0.1717849613292113 0.3681797421510611 -0.14423665592700408
0.5284616062001313 0.2606920776906764 -0.14423665592700408
-0.12098857380709248 0.11487867322683054 -0.14423665592700408
-0.06439584365237921 0.1669920041291525 -0.14423665592700408
0.4156703330249151 0.09861845394064968 -0.14423665592700408
0.4280334749615154 0.10795352198263343 -0.14423665592700408
0.35017255715644763 0.39134719508442956 -0.14423665592700408
0.4698262699863276 0.31508990221171784 -0.14423665592700408
0.39961616610434414 0.5849826659668064 -0.14423665592700408
0.38289008929591467 0.5666529642260206 -0.14423665592700408
0.6180585500464647 0.4011302030516524 -0.14307201212138232
-0.07119557171750941 0.5811214238112448 -0.1424448962260475
-0.10301722400649806 0.562926104048031 -0.1424448962260475
-0.17271667637370872 0.2546269711029384 -0.1424448962260475
-0.17513555197000016 0.4328891437511077 -0.1424448962260475
0.5854216470935407 0.276137046312922 -0.1424448962260475
0.16348911391378235 0.31442695112236396 -0.1424448962260475
-0.17896991773004722 0.3742269311417895 -0.1424448962260475
0.562057100593067 0.41055485907868405 -0.1424448962260475
0.5954644602174024 0.383741175153869 -0.1424448962260475
-0.06253241356338439 0.09676398265015967 -0.1424448962260475
-0.0462632354786987 0.11559537710721315 -0.1424448962260475
0.40667569932611314 0.1760314318204784 -0.1424448962260475
0.4457091844114521 0.11980601240446122 -0.1424448962260475
0.4700054459564231 0.2841103769821788 -0.1424448962260475
0.38121479397552027 0.5754684219547268 -0.1424448962260475
0.3939810818448358 0.5728882879853495 -0.1424448962260475
0.6180585500464647 0.38953751778646345 -0.14199695630080836
0.22089709473243094 0.38933146542085345 -0.14128025242042572
0.456647877385792 0.5741873137685428 -0.14065313652509093
0.41446089522676943 0.5743664897386386 -0.14065313652509093
0.3698998314639795 0.11409925775691453 -0.14065313652509093
0.4217891924036817 0.16176006580235927 -0.14065313652509093
0.35249288596918643 0.38846246196588957 -0.14065313652509093
0.19038342702514058 0.4119255552499159 -0.14065313652509093
0.5279599134838634 0.2524679006632857 -0.14065313652509093
0.5618779246229713 0.2597066098551503 -0.14065313652509093
0.5364707720634072 0.25714439348278245 -0.14065313652509093
0.6045845170952714 0.3103327802056782 -0.14065313652509093
-0.05813364349753601 0.13827009612281863 -0.14065313652509093
-0.04724870331422481 0.11801425270350462 -0.14065313652509093
-0.07297837261996118 0.5258904310292586 -0.14065313652509093
-0.04712328013515788 0.566097518718724 -0.14065313652509093
0.6456785258367103 0.3657339901592554 -0.13948849271946914
0.41316186944357586 0.1670457569201812 -0.13886137682413435
0.38590920439202636 0.11379465860775186 -0.13886137682413435
0.5424552494646022 0.4183669313748547 -0.13886137682413435
-0.18077959502801333 0.44119394996504147 -0.13886137682413435
0.6272413185138672 0.32161190752319985 -0.13886137682413435
0.5453847765756662 0.26074583048170513 -0.13886137682413435
0.3504592387086007 0.29089218745029943 -0.13886137682413435
0.20106231484284168 0.3974570956646915 -0.13886137682413435
0.39830818152264597 0.5113055070634722 -0.13886137682413435
0.440136811741477 0.5284347298046168 -0.13886137682413435
-0.03639063952642795 0.5540479347297911 -0.13886137682413435
-0.09063616447288822 0.5301548191175351 -0.13886137682413435
-0.12050479868783417 0.1406620953235956 -0.13886137682413435
-0.04971237290304015 0.1193670312777268 -0.13886137682413435
0.6270621425437715 0.29612412577709263 -0.1376967330185126
0.21638186028602044 0.3303377772668584 -0.1376967330185126
0.41428171925667373 0.16583631912203547 -0.13706961712317778
0.3890268662716909 0.11912514371809765 -0.13706961712317778
0.5236148962090438 0.2609877180413342 -0.13706961712317778
0.6038319780208696 0.3726949765974717 -0.13706961712317778
0.5828235955271538 0.4042120297372978 -0.13706961712317778
0.6142779370774464 0.3193453315014898 -0.13706961712317778
0.3348709293102785 0.28715636847380493 -0.13706961712317778
0.4460137835606146 0.5320988783930732 -0.13706961712317778
0.42649256161869276 0.5318838672289584 -0.13706961712317778
-0.0635716341899392 0.5199149124265684 -0.13706961712317778
-0.10737120007982257 0.5314359273037191 -0.13706961712317778
-0.045671954777383006 0.15968162454924967 -0.13706961712317778
-0.05928932850465292 0.15172621147700244 -0.13706961712317778
0.6167326478677568 0.27937117257314864 -0.13590497331755602
0.18684470161575126 0.2670528246290722 -0.13590497331755602
0.42251485508256925 0.5828235955271538 -0.1352778574222212
0.3803009965280324 0.15840947516157053 -0.1352778574222212
0.34175128656195175 0.3995176193207916 -0.1352778574222212
0.1764704129472127 0.2791561614090339 -0.1352778574222212
0.6061971008261321 0.3493393888955028 -0.1352778574222212
0.5936816593149505 0.2913042921815194 -0.1352778574222212
0.6048891162444339 0.3023056967453928 -0.1352778574222212
-0.07845219850638355 0.10806102756469083 -0.1352778574222212
-0.05085909911165235 0.5672173685318219 -0.1352778574222212
-0.05296441676027632 0.5620481417945622 -0.1352778574222212
0.25469864149097676 0.2949415643744613 -0.13411321361659945
-0.05506077561039546 0.15402862269273168 -0.13348609772126466
0.5943804455983236 0.2938665085538873 -0.13348609772126466
0.5627290104809256 0.4270569659244941 -0.13348609772126466
-0.1850887771088139 0.23549097749672224 -0.13348609772126466
0.6014310200215878 0.39213556935285054 -0.13348609772126466
-0.061564863324867804 0.5174422840392484 -0.13348609772126466
0.4409520624054123 0.5738737558208755 -0.13348609772126466
0.15635791030397528 0.3779000385287506 -0.13348609772126466
0.35249288596918643 0.29581056782942516 -0.13348609772126466
0.41428171925667373 0.16932129174039595 -0.13348609772126466
0.6456158142471767 0.32508792134305553 -0.13232145391564284
0.15079449643250503 0.30674030200526037 -0.13232145391564284
-0.08776934895135764 0.5677996904346327 -0.13169433802030805
-0.06257720755590826 0.1355376625788598 -0.13169433802030805
0.430201504199673 0.15259521493196646 -0.13169433802030805
0.574142519776019 0.2608981300562864 -0.13169433802030805
0.6336020654522628 0.361792118817151 -0.13169433802030805
0.6103629421308562 0.3000212031266732 -0.13169433802030805
0.30417808563289245 0.38674237265297123 -0.13169433802030805
0.19076865536084617 0.2821125649156122 -0.13169433802030805
0.656536589624507 0.3539352525284563 -0.13124639809506894
0.2916984793157299 0.2831428267436623 -0.1305296942146863
-0.0604718899072843 0.1576300596916544 -0.12990257831935148
-0.08828000046613028 0.5635173847493468 -0.12990257831935148
0.4137352325478819 0.5581600232434865 -0.12990257831935148
0.34612318023228583 0.3849058189594907 -0.12990257831935148
0.5425179610541355 0.25605142006519893 -0.12990257831935148
0.5889514137044253 0.41696935880810854 -0.12990257831935148
0.48544145578016407 0.4510217519247882 -0.12990257831935148
0.4213591700754521 0.1556770416176117 -0.12990257831935148
0.6692760010983082 0.31853903963605934 -0.12873793451372972
0.15010466894763677 0.3303377772668584 -0.12873793451372972
0.20735139139319925 0.2910982398159094 -0.12811081861839493
0.3448599896431114 0.28839268266746504 -0.12811081861839493
0.4860148188844701 0.4413104143456036 -0.12811081861839493
0.5098452229071925 0.44174043667383317 -0.12811081861839493
0.6202803320756508 0.40188274212605424 -0.12811081861839493
0.40629047099040744 0.11524598396552674 -0.12811081861839493
0.12650719368603872 0.4011302030516524 -0.12694617481277315
0.5630156920330788 0.4235630345076288 -0.12631905891743836
-0.17271667637370872 0.44663194065744466 -0.12631905891743836
0.6439226013297729 0.3215850311276855 -0.12631905891743836
0.3349784348923359 0.28389536581806396 -0.12631905891743836
0.34430454413581485 0.37875112438670494 -0.12631905891743836
0.6491634984550708 0.30674030200526037 -0.1251544151118166
0.37428964273132304 0.4129289406824515 -0.1251544151118166
0.5035023935658063 0.2354730598997126 -0.1245272992164818
-0.17610310220851663 0.23713939642160228 -0.1245272992164818
0.5974443546869592 0.4134754273912432 -0.1245272992164818
0.18448853760899345 0.40133625541726253 -0.1245272992164818
0.25938409310897814 0.3850491597355673 -0.1245272992164818
0.2986146717614222 0.27134408911286323 -0.12407935929124264
0.5710786106873834 0.264795207405867 -0.1227355395155252
0.5831550710718305 0.42125166449339485 -0.1227355395155252
0.6276355056480775 0.4019185773200734 -0.1227355395155252
0.329486691408904 0.40315489151373346 -0.1227355395155252
0.20735139139319925 0.40845850022856495 -0.1227355395155252
0.2538206792375079 0.38845350316738475 -0.12228759959028608
0.5761134554470713 0.2617223395187264 -0.12094377981456864
0.6041455359685369 0.41522239309967596 -0.12094377981456864
0.6191515234640481 0.4084853766240793 -0.12094377981456864
0.6127639001301379 0.2821573589081362 -0.12094377981456864
0.33117990432630795 0.2847822868700375 -0.12094377981456864
0.6692760010983082 0.3303377772668584 -0.12049583988932948
0.3262525651486774 0.41702311159913724 -0.12049583988932948
0.5620481417945622 0.24522023267291643 -0.11915202011361206
-0.1850887771088139 0.2269263661261498 -0.11915202011361206
0.6443705412550118 0.3332045927883889 -0.11915202011361206
0.3476730523736131 0.28635007660837447 -0.11915202011361206
0.17982100358800157 0.2740138110672885 -0.11915202011361206
0.21638186028602044 0.26894313111358137 -0.11870408018837292
0.6273040301034004 0.3143552807343257 -0.1173602604126555
0.609870208213093 0.40775971394519184 -0.1173602604126555
0.5047476665579711 0.4596221984893798 -0.1173602604126555
0.3340467198478385 0.2791561614090339 -0.1173602604126555
0.18089605940857542 0.27731960771555336 -0.1173602604126555
0.15010466894763677 0.3421365148976574 -0.11592685265189025
0.1855456758325578 0.27620871670096037 -0.11556850071169893
0.3050739654833707 0.38228089099758933 -0.11556850071169893
0.5955271718069357 0.2721145457842745 -0.11556850071169893
0.5066558906394898 0.4534764627150987 -0.11556850071169893
0.47743228991688813 0.22174818059038529 -0.11556850071169893
0.600347005402509 0.26923877146423925 -0.11377674101074234
-0.17742004558871977 0.23105637223685468 -0.11377674101074234
0.6063404416022088 0.42148459325451915 -0.11377674101074234
0.6105062829069327 0.4278453401929149 -0.11377674101074234
0.20735139139319925 0.2758145295667498 -0.11377674101074234
0.2628511481303291 0.38158210471421633 -0.11377674101074234
0.12650719368603872 0.25953639268355944 -0.11314962511540753
-0.17271667637370872 0.45163990902161827 -0.11198498130978576
0.5947925503295436 0.4253637530070902 -0.11198498130978576
0.5081699275867982 0.45353917430463225 -0.11198498130978576
0.6435911257850958 0.3727487293885004 -0.11198498130978576
0.3296300321849805 0.4069534220797614 -0.11198498130978576
0.20735139139319925 0.2758145295667498 -0.11198498130978576
0.1525145857454234 0.2949415643744613 -0.11037239757892486
0.17035155356844608 0.4054393851324531 -0.1101932216088292
0.3356234683846802 0.27605641712637896 -0.1101932216088292
0.6417366544946058 0.34201109171859045 -0.1101932216088292
0.5694570681580176 0.24522023267291643 -0.1101932216088292
0.5278344903047966 0.2276878639990563 -0.1101932216088292
0.649566644387786 0.35969575996703174 -0.1101932216088292
-0.1781009142750832 0.4551338404384836 -0.10840146190787264
0.6372124612496906 0.2840566241911501 -0.10840146190787264
0.557640412930209 0.22945274730449855 -0.10840146190787264
0.17239415962753651 0.4026263224019512 -0.10840146190787264
0.3503069391340194 0.38273778972133327 -0.10840146190787264
0.33857091309275383 0.27134408911286323 -0.10759517004244218
0.5833432058404311 0.43192159351259124 -0.10660970220691607
0.5422402383004874 0.44931062141037464 -0.10660970220691607
0.5311402869530614 0.45251787127508697 -0.10660970220691607
0.6425608639570457 0.29290791711387554 -0.10660970220691607
0.17982100358800157 0.2740138110672885 -0.10660970220691607
0.3401655792266052 0.4054393851324531 -0.10660970220691607
0.15079449643250503 0.37753272779005437 -0.10481794250595948
0.6475598735227147 0.3326670648781019 -0.10481794250595948
0.6326434740122511 0.2819513065425261 -0.10481794250595948
0.49616513759038916 0.22194527415749055 -0.10481794250595948
0.6440211481133254 0.29280937033032295 -0.10481794250595948
0.3036763929166246 0.2986594657539462 -0.10481794250595948
0.18448853760899345 0.2829367743780522 -0.10481794250595948
0.34417912095674796 0.39018255127880785 -0.1030261828050029
0.5231669562838045 0.23278542034827776 -0.1030261828050029
0.6085443060343853 0.4251308242459657 -0.1030261828050029
-0.17465177685074187 0.46006117961611426 -0.1030261828050029
0.18398684489272563 0.41697831760661336 -0.10204071496947681
0.22089709473243094 0.27359274753756374 -0.10204071496947681
-0.1801076851401546 0.23086823746825424 -0.10123442310404634
0.5474453002317662 0.4522222309244291 -0.10123442310404634
0.588001781062918 0.23516846075055006 -0.10123442310404634
0.3541681812895808 0.3779000385287506 -0.10123442310404634
0.20106231484284168 0.3974570956646915 -0.10123442310404634
0.22089709473243094 0.38933146542085345 -0.09944266340308978
0.5362826372948066 0.44750094411240854 -0.09944266340308978
0.5721715841049668 0.44842370035840123 -0.09944266340308978
0.5326991178928937 0.220234143643077 -0.09944266340308978
0.1679774719646786 0.38697530141409553 -0.09944266340308978
0.34440309091936744 0.3447076900685301 -0.09944266340308978
-0.17926555808070505 0.22852999105850597 -0.09765090370213321
-0.17926555808070505 0.22852999105850597 -0.09765090370213321
0.54069036615916 0.4634655230479317 -0.09765090370213321
0.34713552446332624 0.36993566665799854 -0.09765090370213321
0.2986146717614222 0.41532989868173337 -0.09648625989651143
0.2916984793157299 0.2936604561882773 -0.09648625989651143
0.6514031980812666 0.39139198907695355 -0.09585914400117662
0.4922232662482847 0.46151250497388885 -0.09585914400117662
0.17239415962753651 0.4026263224019512 -0.09585914400117662
0.350692167469725 0.3073942942961094 -0.09585914400117662
0.5347596415489937 0.45362876228967997 -0.09406738430022005
0.5723059660825387 0.4487193407090591 -0.09406738430022005
0.6514838272678095 0.4087630993777275 -0.09406738430022005
0.16005789408645055 0.29089218745029943 -0.09406738430022005
0.3537381589613512 0.3832842764301251 -0.09406738430022005
0.12650719368603872 0.3539352525284563 -0.09370903236002874
0.6186677483447898 0.26493854818194346 -0.09227562459926349
0.6229500540300761 0.4295833471028428 -0.09227562459926349
0.6267844197901231 0.2487052052912769 -0.09227562459926349
0.3504592387086007 0.3933808423450153 -0.09227562459926349
0.1664544762188655 0.38175232188580716 -0.09227562459926349
0.2538206792375079 0.37753272779005437 -0.09093180482354607
0.5807182778785297 0.23570598866083706 -0.09048386489830693
0.5732466399255408 0.44652443507538725 -0.09048386489830693
0.5513513363798516 0.4644330732864483 -0.09048386489830693
0.3276770141109378 0.2833309615122627 -0.09048386489830693
0.5750473584250021 0.24102751497267802 -0.08869210519735035
0.669078907531203 0.38388451592994544 -0.08869210519735035
-0.17271667637370872 0.22402371541060018 -0.08869210519735035
0.17239415962753651 0.4026263224019512 -0.08869210519735035
0.350692167469725 0.3073942942961094 -0.08869210519735035
0.3522241220140429 0.2831428267436623 -0.08815457728706337
0.6420143772482542 0.4042120297372978 -0.08690034549639376
0.5883422154060999 0.44716946856773165 -0.08690034549639376
0.6509194229620083 0.41722916396474735 -0.08690034549639376
0.16630217664428423 0.2823006996842126 -0.08690034549639376
0.3504592387086007 0.3933808423450153 -0.08690034549639376
0.15079449643250503 0.3657339901592554 -0.08537734975058069
0.610040425384684 0.43823754645846313 -0.08510858579543719
0.5836657225866033 0.45060068839506345 -0.08510858579543719
0.6351340199965809 0.2486872876942674 -0.08510858579543719
0.1679774719646786 0.38697530141409553 -0.08510858579543719
0.34440309091936744 0.3447076900685301 -0.08510858579543719
0.5966918156125577 0.447975760433162 -0.08331682609448063
0.6552644402368278 0.28589317788463053 -0.08331682609448063
0.16338160833172496 0.3066507140202125 -0.08331682609448063
0.2628511481303291 0.3026909250810984 -0.08331682609448063
0.3597226363625462 0.37753272779005437 -0.08260012221409802
0.1637399602719163 0.302090685581278 -0.08152506639352407
0.30593401013982985 0.30136502290239053 -0.08152506639352407
0.6545477363564454 0.39605952309794545 -0.08152506639352407
0.4754523954473311 0.21863051871072087 -0.08152506639352407
0.5205241107248937 0.4674701059795697 -0.08152506639352407
0.12650719368603872 0.2949415643744613 -0.0797333066925675
0.6500772959025585 0.2646518666297904 -0.0797333066925675
0.673414966007518 0.31301146095860827 -0.0797333066925675
-0.1753684807311245 0.22727575926783636 -0.0797333066925675
0.1580242468258648 0.29581056782942516 -0.0797333066925675
0.3541681812895808 0.3779000385287506 -0.0797333066925675
0.6679142637255813 0.40266215759597035 -0.0779415469916109
0.6410737034052517 0.25154514441729314 -0.0779415469916109
-0.1742217545225123 0.47342770698525016 -0.0779415469916109
0.34612318023228583 0.3849058189594907 -0.0779415469916109
0.32028600534449203 0.417488969121386 -0.07704566714113263
0.268092045255627 0.2845583169074179 -0.07704566714113263
0.566303571084334 0.2255108759623941 -0.07614978729065433
-0.17376485579876835 0.4577766859973944 -0.07614978729065433
0.1764704129472127 0.40511686838628086 -0.07614978729065433
0.3503069391340194 0.30153524007398147 -0.07614978729065433
0.35548512466978394 0.28849122945101763 -0.07435802758969777
0.5771437172751214 0.4569972705274784 -0.07435802758969777
0.5383789961449259 0.21679396501724038 -0.07435802758969777
0.5387642244806317 0.47092820220241577 -0.07435802758969777
0.19038342702514058 0.2723474745453988 -0.07435802758969777
0.3201337057699106 0.4119255552499159 -0.07435802758969777
0.6341485521610547 0.24754952028415989 -0.07256626788874121
0.6857781079441183 0.3909350903532096 -0.07256626788874121
0.17573579146982057 0.28377890143750184 -0.07256626788874121
0.3076451406542434 0.2975306571423435 -0.07256626788874121
0.37428964273132304 0.3539352525284563 -0.07149121206816725
0.18078855382651815 0.281216685065134 -0.07077450818778463
0.3249804157609983 0.27620871670096037 -0.07077450818778463
0.5974264370899498 0.23166557053517992 -0.07077450818778463
0.6784856459612252 0.38056976048317587 -0.07077450818778463
0.6505252358277978 0.24866041129875305 -0.07077450818778463
0.6311473546619524 0.24370619572560814 -0.06898274848682805
0.7015724697080505 0.33250580650501577 -0.06898274848682805
0.16338160833172496 0.37762231577510225 -0.06898274848682805
0.26640779113672786 0.30678509599778425 -0.06898274848682805
0.35925677884029744 0.3840099391090125 -0.06871398453168458
0.5222352412393073 0.4661442038008618 -0.06719098878587147
0.6258347871486162 0.441749395472338 -0.06719098878587147
0.6625837786152355 0.28001620606549305 -0.06719098878587147
0.16005789408645055 0.29089218745029943 -0.06719098878587147
0.3537381589613512 0.3832842764301251 -0.06719098878587147
0.12650719368603872 0.3539352525284563 -0.06593675699520186
0.6942352137326332 0.3603228758623666 -0.06539922908491491
0.6084726356463471 0.23779338871245137 -0.06539922908491491
0.7081930218030851 0.332335589333425 -0.06539922908491491
0.19614393446371597 0.29173431450974896 -0.06539922908491491
0.3417333689649421 0.38893727828664304 -0.06539922908491491
0.6903560539800623 0.2952282459266143 -0.06360746938395835
0.6652624593681656 0.425327917813071 -0.06360746938395835
0.1712832686129435 0.2872817916528719 -0.06360746938395835
0.3073047063110617 0.29937616963432884 -0.06360746938395835
0.3597226363625462 0.3539352525284563 -0.0631595294587192
0.5782456494912095 0.22351306389582754 -0.06181570968300178
0.3425307020318678 0.46779262272574185 -0.06181570968300178
0.6755471600516564 0.2669094838529957 -0.06181570968300178
0.6926674239942964 0.2821931941021552 -0.06181570968300178
0.19076865536084617 0.2821125649156122 -0.06181570968300178
0.3348709293102785 0.28715636847380493 -0.06181570968300178
0.2538206792375079 0.3657339901592554 -0.06038230192223652
0.20106231484284168 0.3974570956646915 -0.06002394998204518
0.33975347449538523 0.3921714045468696 -0.06002394998204518
0.6421935532183496 0.2448887571282394 -0.06002394998204518
0.2976919155154296 0.21281625848111677 -0.06002394998204518
0.7048155547667819 0.30134710530538106 -0.06002394998204518
0.15982496532532622 0.3065073732441359 -0.058232190281088614
0.3296300321849805 0.4069534220797614 -0.058232190281088614
0.6862260478693576 0.4028502923645708 -0.058232190281088614
0.696600336537896 0.3597315951610509 -0.058232190281088614
0.6271517305288192 0.4380135764958435 -0.058232190281088614
0.3597226363625462 0.3421365148976574 -0.05760507438575381
0.6445138820310885 0.24530982065796417 -0.05644043058013205
0.3497335760297132 0.46818680985995215 -0.05644043058013205
0.38426078546714637 0.47117008976204483 -0.05644043058013205
0.3054054410280477 0.3785271544240853 -0.05644043058013205
0.343184694322717 0.3854343880712729 -0.05644043058013205
0.37428964273132304 0.4365353747425544 -0.05482784684927114
0.5287393289537796 0.2170806465693934 -0.054648670879175486
0.5874642531526313 0.460813718690516 -0.054648670879175486
0.6304933623711033 0.4517922085961995 -0.054648670879175486
0.3774073046109875 0.46293695393614953 -0.054648670879175486
0.26914022468068666 0.3313859566919179 -0.054648670879175486
0.6360478174440686 0.23909241449564497 -0.05285691117821892
0.37560658611152614 0.4700144047549279 -0.05285691117821892
0.37239037744830905 0.4677657463302274 -0.05285691117821892
0.3112017836606421 0.27937117257314864 -0.05285691117821892
0.1712832686129435 0.39699123814244286 -0.05285691117821892
0.37428964273132304 0.3657339901592554 -0.05205061931278846
0.6440032305163157 0.24224591156932843 -0.05106515147726232
0.40645172936349355 0.4661979565918905 -0.05106515147726232
0.4237063752837052 0.4607689246979919 -0.05106515147726232
0.3452541767773218 0.29667957128438915 -0.05106515147726232
0.16532566760726283 0.29653623050831257 -0.05106515147726232
0.37428964273132304 0.3303377772668584 -0.049273391776305756
0.6552465226398182 0.24636695888152862 -0.049273391776305756
0.5176304188078488 0.46394929816719 -0.049273391776305756
0.5730405875599308 0.45724811688561223 -0.049273391776305756
0.34417912095674796 0.39018255127880785 -0.049273391776305756
0.16338160833172496 0.3066507140202125 -0.049273391776305756
0.7118840467870554 0.3136296180554383 -0.047481632075349195
0.683887801459609 0.40619192420685485 -0.047481632075349195
0.7024504319615191 0.3593822020193643 -0.047481632075349195
0.302296737946888 0.3026909250810984 -0.047481632075349195
0.1764704129472127 0.40511686838628086 -0.047481632075349195
0.3007647834025702 0.26678406067392874 -0.046496164239823085
0.7100295754965654 0.30428559121494986 -0.04568987237439263
0.6784139755731868 0.41414733727910197 -0.04568987237439263
0.6955073631203124 0.38419807387761284 -0.04568987237439263
0.2628511481303291 0.38158210471421633 -0.04568987237439263
0.20735139139319925 0.40845850022856495 -0.04568987237439263
0.33857091309275383 0.27134408911286323 -0.04389811267343606
0.16158088983226365 0.387987645645136 -0.04389811267343606
0.34175128656195175 0.3995176193207916 -0.04389811267343606
0.7070910895869966 0.38932250662234863 -0.04389811267343606
0.7106835677874147 0.3418319157484947 -0.04389811267343606
0.6696074766429851 0.2650460537640008 -0.04389811267343606
0.6902216720024907 0.4150432171295803 -0.042106352972479465
0.70159038730506 0.29853404257487914 -0.042106352972479465
0.6788708742969306 0.27232955694838934 -0.042106352972479465
0.3448599896431114 0.28839268266746504 -0.042106352972479465
0.1609000211459001 0.29868634214946055 -0.042106352972479465
0.12650719368603872 0.27134408911286323 -0.0409417091668577
0.7219089423139075 0.3430682299421548 -0.0403145932715229
0.712977020204639 0.35106843700692586 -0.0403145932715229
0.699933009581675 0.3000301619251779 -0.0403145932715229
0.3242547530821108 0.27614600511142684 -0.0403145932715229
0.1669382513381238 0.39733167248562457 -0.0403145932715229
0.19023112745055917 0.26678406067392874 -0.039149949465901134
0.706419179699138 0.2861798594367837 -0.03852283357056633
0.6475777911197241 0.44157021950224234 -0.03852283357056633
0.6915923681737224 0.4004403755667842 -0.03852283357056633
0.3074390882886333 0.38531792369071066 -0.03852283357056633
0.16338160833172496 0.30744804708713813 -0.03852283357056633
0.3597226363625462 0.3421365148976574 -0.03735818976494457
0.6538758264685864 0.24023914070425717 -0.03673107386960977
0.47334707779870727 0.46721925962143557 -0.03673107386960977
0.49551114529953993 0.4607689246979919 -0.03673107386960977
0.32746200294682315 0.2804910223862465 -0.03673107386960977
0.2898350492267351 0.3377556624288185 -0.03673107386960977
0.32028600534449203 0.417488969121386 -0.035566430063988005
0.23963890120443665 0.2831428267436623 -0.035566430063988005
0.6739076999252811 0.4325845446019451 -0.0349393141686532
0.7297030970130686 0.33533678683252716 -0.0349393141686532
0.7330088936613335 0.35249288596918643 -0.0349393141686532
0.3506473734772011 0.39291498482276666 -0.0349393141686532
0.1849991891237661 0.411504491720191 -0.0349393141686532
0.3007647834025702 0.26678406067392874 -0.03377467036303141
0.6780466648344907 0.2517691143799126 -0.033147554467696606
0.5483411800822444 0.47117008976204483 -0.033147554467696606
0.6402136587487925 0.46010597360863814 -0.033147554467696606
0.34175128656195175 0.28475541047452313 -0.033147554467696606
0.20735139139319925 0.40845850022856495 -0.033147554467696606
0.268092045255627 0.27361066513457327 -0.03198291066207484
0.12650719368603872 0.402554652013913 -0.03198291066207484
0.6544312719758831 0.4451268625086411 -0.03135579476674004
0.7190242091953674 0.3335987799225993 -0.03135579476674004
0.6946294008668438 0.28168254258738257 -0.03135579476674004
0.3476730523736131 0.397931911985445 -0.03135579476674004
0.17982100358800157 0.41025921872802623 -0.03135579476674004
0.12650719368603872 0.24773765505276032 -0.030191150961118275
0.27120970713529147 0.3369762469589025 -0.030191150961118275
0.6508029585814461 0.23800839987656616 -0.029564035065783475
0.570845681926259 0.21351504476448988 -0.029564035065783475
0.6558646797366484 0.22927357133440293 -0.029564035065783475
0.3081826685645304 0.40845850022856495 -0.029564035065783475
0.16565714315193986 0.3958803471278497 -0.029564035065783475
0.3597226363625462 0.30674030200526037 -0.02839939126016171
0.21638186028602044 0.3539352525284563 -0.02839939126016171
0.6244820085743938 0.22590506309660452 -0.027772275364826907
0.7351948404965005 0.33422589581793416 -0.027772275364826907
0.7263256299767656 0.2915909737336725 -0.027772275364826907
0.7100474930935751 0.3980304587689977 -0.027772275364826907
0.2753397132459963 0.3416616985769039 -0.027772275364826907
0.17489366441037102 0.4082166126689358 -0.027772275364826907
0.25629330762482805 0.37753272779005437 -0.026607631559205144
0.37428964273132304 0.3303377772668584 -0.026607631559205144
0.6149319293682953 0.22380870424648538 -0.025980515663870343
0.7369149298094189 0.34254861962887745 -0.025980515663870343
0.7322653133854365 0.30132918770837136 -0.025980515663870343
0.7213893320006302 0.3830334300719911 -0.025980515663870343
0.34421495615076697 0.4019723301111021 -0.025980515663870343
0.18089605940857542 0.27731960771555336 -0.025980515663870343
0.37428964273132304 0.37753272779005437 -0.02481587185824855
0.268092045255627 0.3687710228523768 -0.02481587185824855
0.6121099078392888 0.22375495145545668 -0.024188755962913745
0.7206815869187522 0.28403870659414054 -0.024188755962913745
0.7166232511960858 0.27237435094091317 -0.024188755962913745
0.6875698676450748 0.4276661642228193 -0.024188755962913745
0.35249288596918643 0.29581056782942516 -0.024188755962913745
0.18089605940857542 0.4069534220797614 -0.024188755962913745
0.3597226363625462 0.37753272779005437 -0.02302411215729198
0.2711290779487484 0.3500471339773806 -0.02302411215729198
0.662521067025702 0.24327617339737856 -0.02239699626195718
0.6362001170186501 0.22310095916460745 -0.02239699626195718
0.6834219439373603 0.24102751497267802 -0.02239699626195718
0.6941097905535665 0.4184654781584073 -0.02239699626195718
0.3340467198478385 0.40511686838628086 -0.02239699626195718
0.17573579146982057 0.4004941283578129 -0.02239699626195718
0.2711290779487484 0.33407359624335276 -0.021232352456335417
0.21638186028602044 0.26894313111358137 -0.021232352456335417
0.6195098754042396 0.4615483401679082 -0.020605236561000613
0.7113465188767685 0.38288113049740985 -0.020605236561000613
0.6992342232983022 0.2867890577351089 -0.020605236561000613
0.7130128553986581 0.289342315308972 -0.020605236561000613
0.30638195006506896 0.3759470204547079 -0.020605236561000613
0.15635791030397528 0.3779000385287506 -0.020605236561000613
0.2916984793157299 0.2926929059497607 -0.019440592755378818
0.6315684181916771 0.22434623215677238 -0.018813476860044018
0.6385114870328839 0.2264425910068915 -0.018813476860044018
0.6071736098631535 0.4680972218749044 -0.018813476860044018
0.724820551827962 0.36585941333832234 -0.018813476860044018
0.3340467198478385 0.2791561614090339 -0.018813476860044018
0.2693283594492871 0.3417244101664373 -0.018813476860044018
0.27384359389569757 0.3657339901592554 -0.0183655369348049
0.24971754952231737 0.3309559343636883 -0.017648833054422285
0.7243457355072086 0.36391535406278447 -0.017021717159087485
0.6669556722855695 0.2332244014750122 -0.017021717159087485
0.6061791832291227 0.4722451455826188 -0.017021717159087485
0.7023339675809569 0.2701077749192031 -0.017021717159087485
0.3112197012576518 0.35257351515572943 -0.017021717159087485
0.1628530392199428 0.3979408707839498 -0.017021717159087485
0.12650719368603872 0.2831428267436623 -0.01585707335346569
0.2784752927226704 0.31853903963605934 -0.01585707335346569
0.26419496790604646 0.33788108560788555 -0.015229957458130886
0.3417154513679326 0.29531783391166216 -0.015229957458130886
0.2518228671709413 0.3324251773184727 -0.014065313652509156
0.20379474838680053 0.2920120372633973 -0.013438197757174352
0.3467861313216397 0.3821644266170272 -0.013438197757174352
0.3597226363625462 0.37753272779005437 -0.012273553951552559
0.29236143040508383 0.37753272779005437 -0.012273553951552559
0.20106231484284168 0.33038257125938225 -0.011646438056217755
0.34440309091936744 0.33956533972678465 -0.011646438056217755
0.14674511950834318 0.4011302030516524 -0.01048179425059596
0.16876584623309945 0.28475541047452313 -0.009854678355261158
0.3381229731675147 0.4026263224019512 -0.009854678355261158
0.12650719368603872 0.2831428267436623 -0.00940673843002204
0.17573579146982057 0.28377890143750184 -0.008062918654304625
0.3076451406542434 0.2758145295667498 -0.008062918654304625
0.3597226363625462 0.31853903963605934 -0.006898274848682829
0.2986146717614222 0.31853903963605934 -0.006898274848682829
0.2761728815069412 0.32902083388665526 -0.006271158953348027
0.12650719368603872 0.4365353747425544 -0.005106515147726296
0.27555472441011114 0.3678393078078794 -0.005106515147726296
0.18448853760899345 0.40133625541726253 -0.004479399252391493
0.343184694322717 0.3854343880712729 -0.004479399252391493
0.25629330762482805 0.4011302030516524 -0.0033147554467696985
0.1580242468258648 0.29581056782942516 -0.002687639551434896
0.35249288596918643 0.38846246196588957 -0.002687639551434896
0.15248770934990905 0.38933146542085345 -0.0015229957458131012
0.18089605940857542 0.4069534220797614 -8.958798504782986E-4
0.3201337057699106 0.2723474745453988 -8.958798504782986E-4
0.2741033990523364 0.3208772860458076 2.687639551434323E-4
0.20379474838680053 0.4049018572221661 8.95879850478235E-4
0.32824141841673915 0.27702396736489554 8.95879850478235E-4
0.2986146717614222 0.3421365148976574 0.0020605236561000296
0.37428964273132304 0.3539352525284563 0.0020605236561000296
0.1664544762188655 0.3025207079095076 0.002687639551434832
0.28453144051190365 0.3539800465209803 0.0038522833570565633
0.37428964273132304 0.25953639268355944 0.0038522833570565633
0.15635791030397528 0.3779000385287506 0.004479399252391366
0.34440309091936744 0.33956533972678465 0.004479399252391366
0.3467861313216397 0.38213755022151286 0.006271158953347963
0.37428964273132304 0.31853903963605934 0.0066115932965296826
0.2986146717614222 0.3303377772668584 0.0066115932965296826
0.3454691879414366 0.29733356357523827 0.00806291865430456
0.37428964273132304 0.31853903963605934 0.009379862034507627
0.1637399602719163 0.302090685581278 0.009854678355261094
0.3448599896431114 0.3958803471278497 0.009854678355261094
0.17489366441037102 0.27605641712637896 0.011646438056217692
0.12650719368603872 0.402554652013913 0.012139171973980746
0.2916984793157299 0.4011302030516524 0.012139171973980746
0.3112017836606421 0.27937117257314864 0.013438197757174225
0.3597226363625462 0.3657339901592554 0.014898481913453865
0.17573579146982057 0.4004941283578129 0.015229957458130822
0.34881081978372064 0.2961599609711117 0.015229957458130822
0.15635791030397528 0.30637299126656414 0.01702171715908742
0.343390746688327 0.29956430440292925 0.01702171715908742
0.22089709473243094 0.38933146542085345 0.017666750651431747
0.18448853760899345 0.40133625541726253 0.018813476860043952
0.37428964273132304 0.38933146542085345 0.020426060590904866
0.20379474838680053 0.2920120372633973 0.02060523656100055
0.3327208176691306 0.27860967470024217 0.02060523656100055
0.16284408042143808 0.39792295318694026 0.022396996261957083
0.31393421720460096 0.3090964660120182 0.022396996261957083
0.25629330762482805 0.3657339901592554 0.023185370530377985
0.1661140418756838 0.37751481019304484 0.024188755962913682
0.37428964273132304 0.4365353747425544 0.025980515663870277
0.268092045255627 0.2831428267436623 0.025980515663870277
0.3076451406542434 0.40845850022856495 0.025980515663870277
0.1849991891237661 0.411504491720191 0.027772275364826814
0.3348709293102785 0.3971166613215098 0.027772275364826814
0.25629330762482805 0.3303377772668584 0.028712949207829047
0.1679774719646786 0.2972977283812192 0.02956403506578341
0.33857091309275383 0.4129289406824515 0.03135579476673994
0.2986146717614222 0.30674030200526037 0.03135579476673994
0.3334016863554941 0.40134521421576724 0.03135579476673994
0.20681386348291225 0.2758145295667498 0.033147554467696544
0.30417808563289245 0.3841711974820985 0.033147554467696544
0.21638186028602044 0.30674030200526037 0.03424052788528005
0.20106231484284168 0.2821125649156122 0.03493931416865314
0.1637399602719163 0.38218234421403674 0.03673107386960967
0.3503248567310289 0.3826392429377807 0.03673107386960967
0.12650719368603872 0.2727595792766189 0.03699983782475317
0.17239415962753651 0.28164670739336356 0.03852283357056627
0.3307050880055545 0.41025921872802623 0.03852283357056627
0.22089709473243094 0.2831428267436623 0.03975914776422629
0.21082740521305504 0.2723474745453988 0.0403145932715228
0.18078855382651815 0.40305634473018076 0.0421063529724794
0.34735949442594577 0.29246893598714124 0.0421063529724794
0.12650719368603872 0.27134408911286323 0.042527416502204166
0.16021019366103184 0.30153524007398147 0.043898112673436
0.3504592387086007 0.3933808423450153 0.043898112673436
0.17073678190415167 0.4121943192050593 0.045286726441677284
0.17489366441037102 0.27605641712637896 0.04568987237439253
0.20379474838680053 0.27937117257314864 0.047481632075349126
0.3296300321849805 0.27731960771555336 0.047481632075349126
0.2142317486448725 0.26678406067392874 0.0480460363811504
0.16315763836910546 0.3918040938081735 0.04927339177630566
0.35376503535686554 0.3011141765442567 0.04927339177630566
0.15127827155176332 0.38415327988508896 0.05081430511912835
0.15677897383370004 0.30098875336518965 0.05106515147726226
0.34430454413581485 0.3055219054086098 0.05106515147726226
0.32441601145519694 0.4045435052819747 0.052856911178218856
0.33255955929604447 0.2687639551434858 0.05357361505860147
0.20735139139319925 0.40845850022856495 0.05464867087917539
0.3255179436712851 0.27276853807512375 0.05464867087917539
0.15010466894763677 0.3421365148976574 0.056440430580131984
0.17035155356844608 0.4054393851324531 0.056440430580131984
0.34317573552421216 0.298829682925537 0.056440430580131984
0.1920408047485253 0.3192019907254132 0.058232190281088524
0.3348709293102785 0.28715636847380493 0.058232190281088524
0.21638186028602044 0.3303377772668584 0.05910119373605247
0.1703694711654556 0.3174998190095045 0.06002394998204512
0.3476730523736131 0.28635007660837447 0.06002394998204512
0.3597226363625462 0.3303377772668584 0.061815709683001714
0.16338160833172496 0.37762231577510225 0.061815709683001714
0.19647541000839286 0.3645693463536337 0.061815709683001714
0.31490176744311754 0.3168816619126745 0.061815709683001714
0.20106231484284168 0.40216046487970253 0.06360746938395825
0.34175128656195175 0.3995176193207916 0.06360746938395825
0.21638186028602044 0.4129289406824515 0.0646198136149987
0.268092045255627 0.3539352525284563 0.0646198136149987
0.16593486590558817 0.36445288197307146 0.06539922908491484
0.33608036710842415 0.37028505979968507 0.06539922908491484
0.350692167469725 0.32401286552248165 0.06719098878587138
0.20735139139319925 0.40845850022856495 0.06719098878587138
0.1582930107810083 0.2831428267436623 0.06738808235297665
0.31393421720460096 0.37116302205315377 0.06898274848682798
0.20106231484284168 0.28681593413062323 0.06898274848682798
0.3597226363625462 0.30674030200526037 0.07014739229244978
0.268092045255627 0.3657339901592554 0.07014739229244978
0.20735139139319925 0.31545721295041407 0.07077450818778458
0.329486691408904 0.40315489151373346 0.07077450818778458
0.15481699696115264 0.35257351515572943 0.07193915199340631
0.22089709473243094 0.4011302030516524 0.07193915199340631
0.30163378685753406 0.3345394537656015 0.07193915199340631
0.16456416973435634 0.29863258935843184 0.07256626788874111
0.3401207852340813 0.3293971034238562 0.0737309116943629
0.3540158817149995 0.35257351515572943 0.0737309116943629
0.20909835710163197 0.3303377772668584 0.0737309116943629
0.12650719368603872 0.2727595792766189 0.0737309116943629
0.3438834806060901 0.38094603002037664 0.0743580275896977
0.17195517850080222 0.3975646012467489 0.0743580275896977
0.22089709473243094 0.4011302030516524 0.07552267139531943
0.3076899346467673 0.358817797713563 0.07552267139531943
0.29764712152290573 0.31853903963605934 0.07552267139531943
0.3296300321849805 0.4069534220797614 0.07614978729065423
0.17489366441037102 0.27605641712637896 0.07614978729065423
0.1529535668721577 0.3189153091732602 0.07731443109627603
0.15944869578812534 0.364470799570081 0.07731443109627603
0.2142317486448725 0.417488969121386 0.07731443109627603
0.16565714315193986 0.28839268266746504 0.07794154699161084
0.15481699696115264 0.3170339614872557 0.07910619079723263
0.29764712152290573 0.3657339901592554 0.07910619079723263
0.3526631031407772 0.2965899832993413 0.07973330669256744
0.22089709473243094 0.2831428267436623 0.08089795049818917
0.2916984793157299 0.38933146542085345 0.08089795049818917
0.35405171690901854 0.3059519277368394 0.08152506639352397
0.2986146717614222 0.41532989868173337 0.08268971019914576
0.37428964273132304 0.3303377772668584 0.08268971019914576
0.20735139139319925 0.3958893059263545 0.08331682609448056
0.2173494105245369 0.371279486433716 0.0844814699001023
0.3199993237923389 0.40845850022856495 0.08510858579543709
0.20325722047651354 0.38805931603317434 0.08510858579543709
0.268092045255627 0.30674030200526037 0.08627322960105889
0.3474849176050128 0.2927735351363038 0.0869003454963937
0.3007647834025702 0.417488969121386 0.08806498930201549
0.20909835710163197 0.3525197623647008 0.08806498930201549
0.16630217664428423 0.2823006996842126 0.0886921051973503
0.268092045255627 0.3657339901592554 0.08985674900297203
0.20106231484284168 0.3974570956646915 0.09048386489830683
0.3525555975587198 0.3881936980107461 0.09048386489830683
0.12650719368603872 0.24773765505276032 0.09164850870392863
0.16876584623309945 0.28475541047452313 0.09227562459926342
0.268092045255627 0.37753272779005437 0.09344026840488516
0.33331209837044623 0.3955578303816775 0.09406738430021996
0.3595703367879648 0.378580907215114 0.09523202810584175
0.1518516346560695 0.30674030200526037 0.09523202810584175
0.15750463651258748 0.2978262974930014 0.09585914400117655
0.33156513266201365 0.2743721630074799 0.09765090370213315
0.15247875055140422 0.38933146542085345 0.0979286264557814
0.16284408042143808 0.28635007660837447 0.09944266340308969
0.21082740521305504 0.4119255552499159 0.09944266340308969
0.21638186028602044 0.41532989868173337 0.100625224805721
0.30417808563289245 0.38785326366756423 0.10123442310404629
0.30417808563289245 0.2723474745453988 0.10302618280500282
0.3007647834025702 0.26678406067392874 0.1033307819541655
0.16322034995863885 0.3919115993902309 0.10481794250595941
0.22089709473243094 0.27359274753756374 0.10602738030410508
0.3007647834025702 0.417488969121386 0.10602738030410508
0.17489366441037102 0.4082166126689358 0.10660970220691601
0.20735139139319925 0.29211954284545466 0.10840146190787255
0.268092045255627 0.30674030200526037 0.10872397865404473
0.3476730523736131 0.39792295318694026 0.11019322160882915
0.12650719368603872 0.3303377772668584 0.1114205770039844
0.3397803508908996 0.4121943192050593 0.1114205770039844
0.20627633557262537 0.4119255552499159 0.11198498130978568
0.16578256633100677 0.3960236879039263 0.11377674101074227
0.37428964273132304 0.3303377772668584 0.11411717535392399
0.32405765951500554 0.2797026481178257 0.11556850071169887
0.12650719368603872 0.2831428267436623 0.11681377370386364
0.35693645002755864 0.38228984979609415 0.11681377370386364
0.21082740521305504 0.29559555666531045 0.1173602604126554
0.20380370718530522 0.2888227049956946 0.119152020113612
0.350692167469725 0.3023594495364215 0.11951933085230806
0.3356234683846802 0.4082166126689358 0.12094377981456854
0.15774652407221662 0.38746803533185864 0.12094377981456854
0.18398684489272563 0.41697831760661336 0.12221592920224773
0.1861011213398543 0.27972952451334004 0.12273553951552513
0.1623692641006845 0.29438611886716476 0.12452729921648173
0.12650719368603872 0.3303377772668584 0.12491252755218739
0.37428964273132304 0.4011302030516524 0.12491252755218739
0.16005789408645055 0.29089218745029943 0.12631905891743828
0.268092045255627 0.30815579216901595 0.12760912590212697
0.3364476778471203 0.2765581098426469 0.12811081861839485
0.3356234683846802 0.4082166126689358 0.1299025783193514
0.21223393657830592 0.4119255552499159 0.1299025783193514
0.12650719368603872 0.30674030200526037 0.13030572425206663
0.3474670000080032 0.29271978234527507 0.131694338020308
0.29771879191094397 0.37549012173096397 0.13300232260200628
0.32976441416255226 0.3920011873752788 0.1334860977212646
0.16244093448872285 0.39726000209758633 0.1334860977212646
0.19051780900271234 0.2758145295667498 0.13527785742222112
0.268092045255627 0.4011302030516524 0.1357078797504507
0.3504592387086007 0.3933808423450153 0.13706961712317772
0.1855456758325578 0.40806431309435437 0.13706961712317772
0.358038382243647 0.2949415643744613 0.13840447810039036
0.34735949442594577 0.3918040938081735 0.13886137682413424
0.20571193126682405 0.2821663177066409 0.13886137682413424
0.3349246821013072 0.27969368931932087 0.14065313652509084
0.18193528003513024 0.4072042684378953 0.14065313652509084
0.3597226363625462 0.31268894421243604 0.14110107645032996
0.23553577148924612 0.38037266691607063 0.14110107645032996
0.35394421132696113 0.3029865654317562 0.14244489622604745
0.21338962158542293 0.3785092368270758 0.14244489622604745
0.2196786981357805 0.36748095586768803 0.14289283615128656
0.32028600534449203 0.417488969121386 0.14289283615128656
0.3506652910742106 0.3078691106168629 0.144236655927004
0.21512762849535083 0.40845850022856495 0.144236655927004
0.12650719368603872 0.4365353747425544 0.14468459585224316
0.19023112745055917 0.26678406067392874 0.14468459585224316
0.22894209578972602 0.30674030200526037 0.14468459585224316
0.34709968926930707 0.3058623397517915 0.14602841562796057
0.18714930076491393 0.40462413446851775 0.14602841562796057
0.22679198414857807 0.38933146542085345 0.14647635555319968
0.1582930107810083 0.2831428267436623 0.14647635555319968
0.21040634168333028 0.3216298251202094 0.14647635555319968
0.30074686580556054 0.27991765928194046 0.1478201753289171
0.17322732788848136 0.28922585092840974 0.1478201753289171
