0.2878141301687732 -0.08339606157983447 -0.09827258235991443
0.21254990899877102 0.035554453103489723 -0.09827258235991443
0.3385533618389172 0.035554453103489723 -0.09827258235991443
0.668278220670344 0.019315432906751123 -0.09827258235991443
0.9108647683929234 -0.045640647880203625 -0.09827258235991443
0.2450032887693225 -0.04787243425500215 -0.09740946055750614
0.3590093485559936 -0.08744040373969045 -0.09740946055750614
0.47421144855457337 -0.04837797702498411 -0.09740946055750614
0.4777132570100583 0.07916676474803401 -0.09740946055750614
0.6083898978946722 -0.1090431094228234 -0.09740946055750614
0.7493376882279449 0.10692229585119184 -0.09740946055750614
0.6375510845046093 -0.18716796285223591 -0.09740946055750614
0.8500146813231395 -0.047884764566465184 -0.09740946055750614
0.40015559790794275 -0.05344573503626704 -0.09679294498435737
0.24634729271878678 0.06318668109201774 -0.09679294498435737
0.6809907717886718 -0.013162607486726251 -0.09580652006731934
0.6926552464326466 -0.1393633453102801 -0.09580652006731934
0.48862558265479167 0.035554453103489723 -0.09580652006731934
0.33579137207121085 -0.11984446226438997 -0.09580652006731934
0.23359775066607005 0.06361824199322201 -0.09580652006731934
0.23137829460273457 0.047884764566465184 -0.09580652006731934
0.3238433002635875 -0.12180498178700314 -0.09494339826491105
0.4104390776680643 -0.03942617090286393 -0.09494339826491105
0.3684913580710218 -0.09634288861595866 -0.09494339826491105
0.3087633293443685 -0.04802039799255786 -0.09494339826491105
0.454261004607479 0.06416077569759289 -0.09494339826491105
0.6032481580146116 0.08030115340262774 -0.09494339826491105
0.6076747398298198 -0.1920507661915742 -0.09494339826491105
0.6122862763169725 0.16551593592325137 -0.09494339826491105
0.7252812505636799 0.1278098434694723 -0.09494339826491105
0.7702498964691513 -0.008501749753721524 -0.09494339826491105
0.37494011096615787 -0.078118688273681 -0.09432688269176227
0.2973577912411163 0.06666382892457694 -0.09432688269176227
0.3006499844017307 0.04556666601142594 -0.09334045777472422
0.32923164637290775 0.06989437052787652 -0.09334045777472422
0.2450279493922484 -0.09435770847041959 -0.09334045777472422
0.5857884369830383 0.06803249349696709 -0.09334045777472422
0.8134306472124915 -0.1299676479754928 -0.09334045777472422
0.3197373065464167 -0.12662613356902644 -0.09247733597231593
0.3799215567971999 -0.0431745855876085 -0.09247733597231593
0.34015630232910415 -0.04102911139305086 -0.09247733597231593
0.2525987606305154 -0.05506100583791683 -0.09247733597231593
0.47382920889922103 -0.029771537027354127 -0.09247733597231593
0.4508455083322349 -0.08397558621859427 -0.09247733597231593
0.6560588820105355 -0.10699627771996952 -0.09247733597231593
0.7866368804034457 -0.10635510152389488 -0.09247733597231593
0.7246400743676049 0.11418484930288436 -0.09247733597231593
0.6529393132104025 -0.16831491662534648 -0.09247733597231593
0.7589553311690658 -0.10316155085498424 -0.09247733597231593
0.2654716057978617 0.07327287586873181 -0.0918608203991672
0.2937450099824644 -0.15932611956883738 -0.09087439548212912
0.2635234165867116 0.07793373360173654 -0.09087439548212912
0.41549450536788424 0.06412378476320396 -0.09087439548212912
0.5373426432450076 0.051793473300228494 -0.09087439548212912
0.7322232159173349 0.15235949359225645 -0.09087439548212912
0.31354749019200306 0.05554188798497306 -0.09001127367972085
0.34316489832607017 -0.03691078736441702 -0.09001127367972085
0.3111800703911117 -0.04747786428818698 -0.09001127367972085
0.3217348170034188 0.06264414738764684 -0.09001127367972085
0.358799733261123 -0.04580094192922237 -0.09001127367972085
0.4815603141865068 -0.031793708107282125 -0.09001127367972085
0.4870842937219197 -0.08776099183772777 -0.09001127367972085
0.5981187484460138 -0.10758813267019236 -0.09001127367972085
0.7340850929482443 -0.1432967146669693 -0.09001127367972085
0.6293760880046566 0.1532965972634425 -0.09001127367972085
0.7386842991239341 -0.12132409963994709 -0.09001127367972085
0.7747874510875262 -0.1057755768851349 -0.09001127367972085
0.20110737996112982 -0.11266822099293815 -0.08840833318953405
0.2521055481719963 -0.08400024684152034 -0.08840833318953405
0.3993664579743122 0.07871054322390385 -0.08840833318953405
0.5048646028515302 -0.078118688273681 -0.08840833318953405
0.6997451755238577 -0.1949360590739106 -0.08840833318953405
0.3546567486095633 0.021017015888641803 -0.08754521138712576
0.2799967127012468 0.06552944026998321 -0.08754521138712576
0.3435594682928853 0.010351296473167914 -0.08754521138712576
0.31122939163696367 0.04287865811249725 -0.08754521138712576
0.3364572088902115 -0.08571416013487387 -0.08754521138712576
0.21631065399497862 -0.04502413230705488 -0.08754521138712576
0.4260369216687283 -0.045369381028018095 -0.08754521138712576
0.44509958319048826 -0.09074492721176788 -0.08754521138712576
0.6120026791533242 0.023717354099033354 -0.08754521138712576
0.6612129522020593 -0.10813066637456324 -0.08754521138712576
0.7570564632037676 -0.115282247023089 -0.08754521138712576
0.7662425452436841 -0.1302635754506042 -0.08754521138712576
0.870889898629957 -0.02056079436451146 -0.08754521138712576
0.47238656245805305 0.04064687173769872 -0.08692869581397698
0.8621477078027074 -0.05202774921802492 -0.08594227089693897
0.4503769564966417 0.10052286420190751 -0.08594227089693897
0.6692523152759192 0.051793473300228494 -0.08594227089693897
0.2873455783331802 -0.11879638579003696 -0.08594227089693897
0.31326389302835467 -0.10154628005333445 -0.08507914909453068
0.30850439280364605 0.058575144604864966 -0.08507914909453068
0.3838919170882781 0.0493397413190964 -0.08507914909453068
0.3223883235109565 0.009808762768797032 -0.08507914909453068
0.38492766325116806 0.057699692490993736 -0.08507914909453068
0.34733254360055577 -0.07207683565682309 -0.08507914909453068
0.28738256926756917 -0.04659008186285271 -0.08507914909453068
0.3171972623850437 0.006911139574997805 -0.08507914909453068
0.44824381261354695 -0.07901880101047812 -0.08507914909453068
0.6065156905523001 0.023298123509292116 -0.08507914909453068
0.6760586472034816 -0.17226061629349873 -0.08507914909453068
0.7525805601427075 0.10644141370413578 -0.08507914909453068
0.626626428548413 0.17108923670451623 -0.08507914909453068
0.8031471674523699 -0.05072073620294959 -0.08507914909453068
0.4074304816710983 0.10052286420190751 -0.08446263352138189
0.1967054587688476 -0.09915419962951717 -0.08347620860434388
0.41549450536788424 0.05499935428060218 -0.08347620860434388
0.5535816634417464 0.11676188439864628 -0.08347620860434388
0.9108647683929234 -0.045640647880203625 -0.08347620860434388
0.3390465742974363 0.019475726955769868 -0.08261308680193559
0.24391822136058056 -0.07481416480160356 -0.08261308680193559
0.34050155105006735 -0.036244950545416314 -0.08261308680193559
0.3116609525381678 -0.049006822909595876 -0.08261308680193559
0.39135175552337825 0.0636675632390738 -0.08261308680193559
0.27252454395468373 -0.06127548281525652 -0.08261308680193559
0.2183204947634436 0.019475726955769868 -0.08261308680193559
0.35655561657486146 -0.09951177866194343 -0.08261308680193559
0.4432870274054308 0.05485139054304647 -0.08261308680193559
0.6042099223087236 0.08068339305798004 -0.08261308680193559
0.6227670410605017 -0.18935042798118265 -0.08261308680193559
0.6249741668123744 0.16123731784559878 -0.08261308680193559
0.6799673559372449 0.1503373225123283 -0.08261308680193559
0.840150432152759 0.020129233463307535 -0.08261308680193559
0.4312403131061039 0.11676188439864628 -0.08199657122878681
0.13134247770361465 -0.09435770847041959 -0.08101014631174876
0.4260122610458022 0.0728659755904536 -0.08101014631174876
0.6997451755238577 0.06803249349696709 -0.08101014631174876
0.9108647683929234 0.019315432906751123 -0.08101014631174876
0.37844191942164285 0.05720648003247464 -0.08014702450934047
0.27671684985209527 -0.09055997253982324 -0.08014702450934047
0.31409002389637397 0.06555410089290911 -0.08014702450934047
0.31894816661278635 -0.041633296654736564 -0.08014702450934047
0.2795528214885797 0.0485012801396141 -0.08014702450934047
0.346703697715944 -0.08922829890182185 -0.08014702450934047
0.27224094679103517 -0.04580094192922237 -0.08014702450934047
0.32354737278847606 -0.10403700296885547 -0.08014702450934047
0.4823124631857482 -0.030757961944392318 -0.08014702450934047
0.47617196807718637 0.05314980756115579 -0.08014702450934047
0.61053537208923 -0.09975838489120288 -0.08014702450934047
0.6205599153086291 -0.05777367435977141 -0.08014702450934047
0.7772535133801212 0.08416054089053909 -0.08014702450934047
0.8667839049127862 -0.0030640823985493143 -0.08014702450934047
0.7524819176510036 0.1207569053126503 -0.08014702450934047
0.4121160000270289 0.11676188439864628 -0.07953050893619172
0.8335783761429932 -0.10864853945600823 -0.07854408401915366
0.7486718514089442 0.13300090459538488 -0.07854408401915366
0.6997451755238577 0.10052286420190751 -0.07854408401915366
0.27750598978572577 -0.15932611956883738 -0.07854408401915366
0.23643372230255447 -0.07552932286645622 -0.07768096221674538
0.29917034702617373 -0.12313665542500436 -0.07768096221674538
0.34307858614582926 0.05799561996610516 -0.07768096221674538
0.31558199158339395 -0.03650388708613881 -0.07768096221674538
0.3832630712036663 0.02179382551080911 -0.07768096221674538
0.3102306364084626 0.07001767364250616 -0.07768096221674538
0.4429294483730045 -0.08506065362733621 -0.07768096221674538
0.4822754722513593 0.06062197630771885 -0.07768096221674538
0.2747686606409453 0.020807400593771095 -0.07768096221674538
0.40830593378496954 0.0770829421107912 -0.07768096221674538
0.6095242865492662 -0.06263181707618382 -0.07768096221674538
0.6198077663093875 -0.19168085684768493 -0.07768096221674538
0.771828176336412 0.095294812141606 -0.07768096221674538
0.6661327464757862 0.15556537457262995 -0.07768096221674538
0.7938871035436752 -0.09100386375249038 -0.07768096221674538
0.8456620813767091 0.05485139054304647 -0.0770644466435966
0.9108647683929234 0.019315432906751123 -0.07607802172655859
0.6997451755238577 -0.02940162768346485 -0.07607802172655859
0.33443503781028355 -0.09398779912653049 -0.07607802172655859
0.13134247770361465 0.019315432906751123 -0.07607802172655859
0.7893495489253003 -0.1064660743270615 -0.0752148999241503
0.8450455658035605 0.031460789697781946 -0.0752148999241503
0.6533092225542919 0.1644555291374353 -0.0752148999241503
0.6080939704195608 -0.10010363361216626 -0.0752148999241503
0.6233095747648727 -0.0631250295347029 -0.0752148999241503
0.36658015979426056 -0.09819243533540506 -0.0752148999241503
0.35277021095572797 0.014703896419598359 -0.0752148999241503
0.3610438499473846 0.07454289794941821 -0.0752148999241503
0.47593769215938997 0.05905602675192103 -0.0752148999241503
0.46992050016545794 0.07333452742604663 -0.0752148999241503
0.2865687687110127 0.021534888970086614 -0.0752148999241503
0.39110514929411866 0.07184255973902666 -0.0752148999241503
0.29379433122831633 -0.114308152417514 -0.0752148999241503
0.2386161874315012 -0.06723102325187372 -0.0752148999241503
0.7753299847918972 -0.1430870993720988 -0.0736119594339635
0.6008684079022573 0.0030764127100123486 -0.0736119594339635
0.4152232385156987 0.054234874969897554 -0.0736119594339635
0.2872839267758654 -0.1430870993720988 -0.0736119594339635
0.24467037035982214 -0.08501133238148426 -0.07274883763155521
0.2934244218844271 -0.11116392299445514 -0.07274883763155521
0.3795886383876996 -0.0767623540127537 -0.07274883763155521
0.37847891035603176 -0.04580094192922237 -0.07274883763155521
0.4484780885313435 -0.09112716686712002 -0.07274883763155521
0.30925654180288764 0.06797084193965228 -0.07274883763155521
0.24592806212904553 0.06113984938916384 -0.07274883763155521
0.431684204318771 0.11231064196051209 -0.07274883763155521
0.47484029443918513 0.06832842097207852 -0.07274883763155521
0.6045305104067611 -0.10840193322674878 -0.07274883763155521
0.7065021862055679 -0.1618168424843584 -0.07274883763155521
0.6185870654745531 0.17009048147601502 -0.07274883763155521
0.6719896444206999 0.13859886599957583 -0.07274883763155521
0.850236626929473 -0.036849135807102196 -0.07274883763155521
0.858423953740889 0.051793473300228494 -0.07213232205840643
0.09886443731013728 -0.17556513976557617 -0.07114589714136842
0.4074304816710983 -0.09435770847041959 -0.07114589714136842
0.6997451755238577 -0.12684807917536 -0.07114589714136842
0.8115071186242672 -0.11477670425310704 -0.07114589714136842
0.26550859673225063 -0.08921596859035899 -0.07028277533896013
0.3439663685711635 -0.10025159734972197 -0.07028277533896013
0.44288012712715275 -0.04943838381079998 -0.07028277533896013
0.47238656245805305 0.0876623493460242 -0.07028277533896013
0.47924221563146735 0.06111518876623795 -0.07028277533896013
0.22912184760500998 -0.03857537941191877 -0.07028277533896013
0.43633273174031273 0.09344526542215961 -0.07028277533896013
0.42101848490329713 0.012398128176021801 -0.07028277533896013
0.26073676619607916 0.0031997158246421663 -0.07028277533896013
0.6577974559268149 -0.10767444485043325 -0.07028277533896013
0.7594238830046587 -0.1326556558744215 -0.07028277533896013
0.6916071699582936 0.13668766772281463 -0.07028277533896013
0.6897206323044585 0.13229807684199524 -0.07028277533896013
0.8523821011240308 -0.01869891733360221 -0.07028277533896013
0.21254990899877102 0.08427151369370588 -0.06867983484877328
0.2937450099824644 -0.1430870993720988 -0.06867983484877328
0.6997451755238577 -0.013162607486726251 -0.06867983484877328
0.8946257481961847 -0.045640647880203625 -0.06867983484877328
0.2707613094154782 -0.10539333722978277 -0.067816713046365
0.36649384761401965 -0.10949933094695358 -0.067816713046365
0.4463326143367857 -0.08752671591993134 -0.067816713046365
0.28437397327060315 0.004864307872143917 -0.067816713046365
0.47842841507491096 0.07490047698184446 -0.067816713046365
0.23368406284631096 -0.03607232618493471 -0.067816713046365
0.44267051183228207 0.09582501553451385 -0.067816713046365
0.4660981036119355 -0.024025611885607638 -0.067816713046365
0.38862675669006064 -0.031411468451929984 -0.067816713046365
0.4186387347909429 -0.037909542592918066 -0.067816713046365
0.617156749344848 0.061744034650849725 -0.067816713046365
0.6207818609149627 0.035221534693989545 -0.067816713046365
0.8149349452109743 0.06150975873305312 -0.067816713046365
0.7229878126315663 0.12259412172063366 -0.067816713046365
0.6969092038873731 0.12956074769721476 -0.067816713046365
0.8453291629672088 0.002496888071252538 -0.067816713046365
0.8242443303655207 0.08292750974424161 -0.0662137725561782
0.6697208671115125 -0.11404921587679151 -0.0662137725561782
0.25909683477150347 -0.11805656710225858 -0.0662137725561782
0.21254990899877102 -0.12684807917536 -0.0662137725561782
0.26061346308144934 -0.10069548856238911 -0.06535065075376992
0.3591573122935493 -0.10036257015288876 -0.06535065075376992
0.4752965159633151 -0.09273010735730695 -0.06535065075376992
0.40163523528349965 0.08113961458211004 -0.06535065075376992
0.48144934138334 0.06361824199322201 -0.06535065075376992
0.40276962393809357 0.01342154402744892 -0.06535065075376992
0.4366779804612761 0.11653993879231271 -0.06535065075376992
0.379946217420126 -0.041090762950365685 -0.06535065075376992
0.3797612627481814 0.001078902253010423 -0.06535065075376992
0.28993494374040496 -0.01740423462998974 -0.06535065075376992
0.6173540343282554 0.04713261556722377 -0.06535065075376992
0.6495238169351586 0.010585572390964516 -0.06535065075376992
0.8310506622930831 -0.05919166017801371 -0.06535065075376992
0.781384167720218 -0.12420939252228327 -0.06535065075376992
0.6458617144306549 -0.17327170183346263 -0.06535065075376992
0.8398421743661848 -0.043569155554423665 -0.06535065075376992
0.8194848301408122 -0.11427116148312508 -0.06374771026358313
0.6611143097103555 0.09411110224116032 -0.06374771026358313
0.24959016463354938 -0.10642908339267257 -0.06374771026358313
0.21254990899877102 0.06803249349696709 -0.06374771026358313
0.6334327604759755 0.17408550239001921 -0.06288458846117484
0.8257239677410778 -0.058427180867309254 -0.06288458846117484
0.7430615596932902 -0.13840158101616798 -0.06288458846117484
0.6184267714255344 -0.06019041540651458 -0.06288458846117484
0.6103134264828964 -0.09053531191689736 -0.06288458846117484
0.3974799203204771 0.0674283082352814 -0.06288458846117484
0.4761226468313346 0.055480236427658064 -0.06288458846117484
0.49139990273396106 0.057601049999289985 -0.06288458846117484
0.38172178227079434 0.07425930078576982 -0.06288458846117484
0.3426593555560882 -0.039746759000901424 -0.06288458846117484
0.3422771159007359 0.01819337456362043 -0.06288458846117484
0.3900077515739138 0.002435236513937717 -0.06288458846117484
0.34992190900778075 -0.10560295252465329 -0.06288458846117484
0.3086153656068128 -0.12679875792950804 -0.06288458846117484
0.2476543057338621 -0.07989425312434953 -0.06288458846117484
0.813948520293936 0.08847614990258043 -0.061281647970988035
0.43873714247559287 0.08525793861074389 -0.061281647970988035
0.4121160000270289 -0.05642967041030716 -0.061281647970988035
0.2863961443505311 -0.09908021776073932 -0.061281647970988035
0.6361577593092931 0.15923980738859667 -0.060418526168579754
0.840175092775685 0.029290654880298243 -0.060418526168579754
0.6321257474609001 -0.18634183198421664 -0.060418526168579754
0.8139238596710103 -0.10391369985422565 -0.060418526168579754
0.6097708927785256 0.08446879867711354 -0.060418526168579754
0.4425841996520413 -0.07967230751801596 -0.060418526168579754
0.4668502526111769 0.06638023176092837 -0.060418526168579754
0.4661104339233985 0.08969685073741504 -0.060418526168579754
0.4089594402925072 0.01032663585024202 -0.060418526168579754
0.37879949845406924 -0.03631893241419417 -0.060418526168579754
0.33908356523182526 -0.02781101750474113 -0.060418526168579754
0.26987352699014394 0.004999941298236593 -0.060418526168579754
0.345261051274776 -0.08838983772233953 -0.060418526168579754
0.3143489604370964 -0.12762488879752748 -0.060418526168579754
0.24701312953778748 -0.08333441002251964 -0.060418526168579754
0.13134247770361465 -0.045640647880203625 -0.058815585678392956
0.3483559594519827 -0.07449357670356625 -0.058815585678392956
0.5535816634417464 0.1036424330020403 -0.058815585678392956
0.8392873103503508 -0.08075737492675773 -0.058815585678392956
0.6607690609893923 0.18171796518560102 -0.058815585678392956
0.8216426346468331 0.0758992322103455 -0.05795246387598467
0.8505695453389736 -0.027638393144259525 -0.05795246387598467
0.6407816261079089 -0.19481275595928077 -0.05795246387598467
0.6538764168815886 -0.10287795369133568 -0.05795246387598467
0.66233501054519 0.08559085702024424 -0.05795246387598467
0.44438442512563575 0.05845184149023532 -0.05795246387598467
0.4701424457717915 0.07392638237626947 -0.05795246387598467
0.2778389081952261 -0.004309443856309825 -0.05795246387598467
0.2430057783123204 0.006048017772589606 -0.05795246387598467
0.23517603053333092 0.009821093080260065 -0.05795246387598467
0.23282094104390275 -0.04155931478595871 -0.05795246387598467
0.36379350940362815 -0.08242196697425948 -0.05795246387598467
0.37926805028966226 -0.10524537349222705 -0.05795246387598467
0.31385574797857735 -0.08621970290485584 -0.05795246387598467
0.6545299233891266 0.17328403214492585 -0.057335948302835886
0.13134247770361465 0.035554453103489723 -0.05634952338579782
0.4236695018678369 -0.078118688273681 -0.05634952338579782
0.497503406908134 -0.11059672866715838 -0.05634952338579782
0.8946257481961847 -0.045640647880203625 -0.05634952338579782
0.6568973431900177 0.17533086384777974 -0.05634952338579782
0.816537885701161 0.08126291769673986 -0.05548640158338954
0.8706063014663087 -0.028982397093723786 -0.05548640158338954
0.6911509484341638 -0.1752815426019276 -0.05548640158338954
0.609536616860729 0.07438260390039947 -0.05548640158338954
0.5969720294799571 0.06525817341779769 -0.05548640158338954
0.4740388241940916 0.08146020268014753 -0.05548640158338954
0.4528676794121627 0.055024014903528075 -0.05548640158338954
0.31024296671992563 -0.012410458487484661 -0.05548640158338954
0.24225362931307898 0.00598636621527461 -0.05548640158338954
0.24219197775576398 -0.02737945660353703 -0.05548640158338954
0.3478010954361488 -0.02218839547762428 -0.05548640158338954
0.36408943687873957 -0.07925307692827473 -0.05548640158338954
0.3202305190049358 -0.11072003178178819 -0.05548640158338954
0.37379339200010114 -0.10490012477126366 -0.05548640158338954
0.2432647148530429 -0.09104085468687931 -0.05548640158338954
0.2287889291955098 0.230435025775817 -0.053883461093202745
0.33654352107045227 -0.078118688273681 -0.053883461093202745
0.6717800291258293 0.0030764127100123486 -0.053883461093202745
0.7971916270157526 0.051793473300228494 -0.053883461093202745
0.8555016699241634 -0.078118688273681 -0.053883461093202745
0.7335795501782624 0.11877172516711124 -0.05302033929079446
0.8669441989618046 -0.02499970649118262 -0.05302033929079446
0.8581650172001662 -0.010412948030482734 -0.05302033929079446
0.8003481867502744 -0.11737839997179485 -0.05302033929079446
0.6091050559595249 0.07982027125557167 -0.05302033929079446
0.6254180580250414 -0.06704606857992908 -0.05302033929079446
0.43400230287381025 0.0733838486718986 -0.05302033929079446
0.4042122703792616 -0.03376655794135833 -0.05302033929079446
0.3854948575784648 0.010166341801223274 -0.05302033929079446
0.42432300837537457 0.01672606749952635 -0.05302033929079446
0.35702416841045453 -0.07851325824049617 -0.05302033929079446
0.3091209083767948 -0.09704571636934829 -0.05302033929079446
0.33553243553048834 -0.10899378817697161 -0.05302033929079446
0.2525987606305154 -0.08969685073741487 -0.05302033929079446
0.17615082956006747 -0.2424817400751439 -0.05141739880060766
0.2450279493922484 -0.11059672866715838 -0.05141739880060766
0.40574122900067067 0.054049920297952914 -0.05141739880060766
0.6997451755238577 -0.12684807917536 -0.05141739880060766
0.8134306472124915 0.035554453103489723 -0.05141739880060766
0.735663372815505 0.12355588601474561 -0.05055427699819937
0.8496940932251019 0.025406606769461 -0.05055427699819937
0.6425695212700403 -0.17960948192543197 -0.05055427699819937
0.6544559415203488 -0.10311222960913227 -0.05055427699819937
0.6641229057073215 -0.10926505502915697 -0.05055427699819937
0.6355535740476073 -0.06612129522020589 -0.05055427699819937
0.45210320010145827 -0.07986959250142346 -0.05055427699819937
0.413533985845271 0.01032663585024202 -0.05055427699819937
0.37750481575045675 -0.04295263998127493 -0.05055427699819937
0.3253722588849966 -0.10425894857518904 -0.05055427699819937
0.3054341452493652 -0.10686064429387684 -0.05055427699819937
0.3116609525381678 -0.13001696922134476 -0.05055427699819937
0.2392820242505019 -0.07896947976462634 -0.05055427699819937
0.6510281149336414 -0.20804318015905351 -0.048951336508012575
0.9108647683929234 0.0030764127100123486 -0.048951336508012575
0.6997451755238577 -0.11059672866715838 -0.048951336508012575
0.4108583082578054 0.05403758998649006 -0.048951336508012575
0.21254990899877102 -0.09435770847041959 -0.048951336508012575
0.09886443731013728 0.16547894498886226 -0.048951336508012575
0.8103110784123585 0.07864889166658902 -0.04808821470560429
0.8371788270901821 0.026060113276998666 -0.04808821470560429
0.764294356032534 -0.1209541902960578 -0.04808821470560429
0.6148263204783455 -0.0023242637107707582 -0.04808821470560429
0.6253687367791896 -0.06660217736726194 -0.04808821470560429
0.44198001439035545 -0.09160804901417609 -0.04808821470560429
0.3970113684848839 -0.04084415672110622 -0.04808821470560429
0.3034366347923631 -0.1367863102145182 -0.04808821470560429
0.3237569880833468 -0.1071319111460622 -0.04808821470560429
0.3033996438579742 -0.11383960058192098 -0.04808821470560429
0.2635234165867116 -0.12758789786313857 -0.04808821470560429
0.6715704138309585 -0.20804318015905351 -0.047471699132455504
0.6926552464326466 -0.18853662742462624 -0.04648527421541749
0.7309531938366484 0.14610802568052783 -0.04648527421541749
0.5535816634417464 0.06608430428581713 -0.04648527421541749
0.4074304816710983 0.035554453103489723 -0.04648527421541749
0.0663863969166599 -0.24052122055253072 -0.04648527421541749
0.22084820861335352 0.230435025775817 -0.04648527421541749
0.3021542824002137 -0.13773574419716728 -0.0456221524130092
0.34161127908173516 -0.0858374632495037 -0.0456221524130092
0.3355570961534142 -0.10492478539418956 -0.0456221524130092
0.45153600577416153 -0.0918176643090468 -0.0456221524130092
0.6548505114871638 -0.10326019334668798 -0.0456221524130092
0.611040914859212 -3.0209263084276426E-4 -0.0456221524130092
0.6368605870626828 0.04487616856949918 -0.0456221524130092
0.705503430977067 -0.17016446334479288 -0.0456221524130092
0.8624313049663558 -0.009512835293685434 -0.0456221524130092
0.6489319619849357 0.17201401006423925 -0.0456221524130092
0.22084820861335352 0.21419600557907822 -0.045005636839860426
0.6672671351303802 -0.20200132754219544 -0.04401921192282236
0.7117795595117218 0.16547894498886226 -0.04401921192282236
0.5913000862069883 0.09443169033919763 -0.04401921192282236
0.2805639070285437 -0.12684807917536 -0.04401921192282236
0.13134247770361465 -0.02940162768346485 -0.04401921192282236
0.1634136178188138 -0.24593422728477704 -0.043156090120414076
0.296001456980189 -0.13445588134801592 -0.043156090120414076
0.3409577725741975 -0.08877207737769185 -0.043156090120414076
0.3576900052294552 -0.11059672866715838 -0.043156090120414076
0.4418567112757256 0.06543079777827929 -0.043156090120414076
0.6176499618033668 -0.06321134171494362 -0.043156090120414076
0.5967870748080125 -0.11353134279534653 -0.043156090120414076
0.6643078603792659 -0.18456626713354812 -0.043156090120414076
0.8715803960718835 -0.004593041019958388 -0.043156090120414076
0.6649120456409519 0.1632718192369896 -0.043156090120414076
0.3231528028216609 -0.12387647411278292 -0.04253957454726534
0.15991180936332872 0.09290273171778873 -0.04155314963022728
0.15991180936332872 -0.15932611956883738 -0.04155314963022728
0.6997451755238577 0.11676188439864628 -0.04155314963022728
0.8621477078027074 0.06803249349696709 -0.04155314963022728
0.8296696674092299 -0.045640647880203625 -0.04155314963022728
0.3170123077130991 -0.08379063154664963 -0.04069002782781899
0.27903494840713466 -0.10740317799824772 -0.04069002782781899
0.2937203493595385 -0.13940033624466905 -0.04069002782781899
0.37089576880630193 -0.10055985513629626 -0.04069002782781899
0.474914276307963 -0.10350679957594744 -0.04069002782781899
0.6133836740371773 -0.10105306759481535 -0.04069002782781899
0.7489554485725926 -0.1373411742303521 -0.04069002782781899
0.8802362747188922 -0.009549826228074362 -0.04069002782781899
0.7302380357717958 0.13272963774319935 -0.04069002782781899
0.18258725214374075 -0.11563982605551541 -0.040073512254670214
0.7117795595117218 -0.19180415996231476 -0.03908708733763219
0.7309038725907966 0.146440944090028 -0.03908708733763219
0.6997451755238577 0.10247105341305764 -0.03908708733763219
0.17296960920261986 0.18126174366147085 -0.03908708733763219
0.13326600629183888 -0.09915419962951717 -0.03908708733763219
0.17830863406608816 0.223382087618995 -0.03822396553522391
0.26898574456480967 -0.13449287228240484 -0.03822396553522391
0.31680269241822856 -0.07933938910851561 -0.03822396553522391
0.31836864197402637 -0.10425894857518904 -0.03822396553522391
0.4745813578984627 0.06707072920285514 -0.03822396553522391
0.6112751907770086 0.028489184635204865 -0.03822396553522391
0.6605841063174475 -0.11344503061510564 -0.03822396553522391
0.7496336157030563 -0.15419671000023963 -0.03822396553522391
0.6931114679567768 0.14362963307646984 -0.03822396553522391
0.7034442689627501 -0.19180415996231476 -0.03760744996207513
0.21254990899877102 0.21200121013866863 -0.03760744996207513
0.12521431290651583 0.230435025775817 -0.036621025045037114
0.1436727891665901 -0.17947384849933928 -0.036621025045037114
0.4074304816710983 -0.09435770847041959 -0.036621025045037114
0.6037783614075195 0.0065905514769604885 -0.036621025045037114
0.8459086876059686 -0.11059672866715838 -0.036621025045037114
0.2863098321702902 -0.13494909380653483 -0.03575790324262883
0.29090903834598014 -0.10364243300204012 -0.03575790324262883
0.32497768891818124 -0.11544254107210773 -0.03575790324262883
0.4483794460396398 -0.09017773288447094 -0.03575790324262883
0.6145057323803081 -0.06490059438537127 -0.03575790324262883
0.6605224547601326 0.0824589579086484 -0.03575790324262883
0.659363405482613 -0.17069466673770073 -0.03575790324262883
0.8395462468910734 0.026146425457239556 -0.03575790324262883
0.7127659844287596 0.1463916228441762 -0.03575790324262883
0.15071339701194908 0.1198321319529271 -0.035141387669480044
0.20968927673936072 0.06803249349696709 -0.03415496275244203
0.1436727891665901 0.019315432906751123 -0.03415496275244203
0.470857603836644 0.08819255273893205 -0.03415496275244203
0.5896724850938755 -0.11059672866715838 -0.03415496275244203
0.8184367536664592 0.06803249349696709 -0.03415496275244203
0.7098560309234975 0.13867284786835352 -0.03329184095003374
0.7137154184114086 0.15049761656134703 -0.03329184095003374
0.7660822511946657 -0.132852940857829 -0.03329184095003374
0.6518419154901978 -0.09946245741609146 -0.03329184095003374
0.6187596898350347 0.02864947868422361 -0.03329184095003374
0.4535828374770154 0.06106586752038599 -0.03329184095003374
0.35773932647530715 -0.10789639045676681 -0.03329184095003374
0.3188125331866935 -0.07932705879705258 -0.03329184095003374
0.3018336943021763 -0.129905996418178 -0.03329184095003374
0.19129245203660128 0.17529387291339063 -0.03329184095003374
0.17094743812269186 0.08141088143429558 -0.03329184095003374
0.7372786436171548 0.14923992479212347 -0.03267532537688496
0.14341385262586762 0.051793473300228494 -0.0316889004598469
0.41948952628188824 0.019315432906751123 -0.0316889004598469
0.5535816634417464 -0.1430870993720988 -0.0316889004598469
0.8799403472437808 -0.045640647880203625 -0.0316889004598469
0.7106451708571279 0.13660135554257374 -0.030825778657438612
0.869804831221215 -0.028661808995686468 -0.030825778657438612
0.7911127834645059 -0.10857455758723038 -0.030825778657438612
0.6141728139708078 0.07502378009647427 -0.030825778657438612
0.6128164797098805 0.024173575623163523 -0.030825778657438612
0.43183216805632674 -0.03423510977695136 -0.030825778657438612
0.3465310733554624 -0.07994357437020132 -0.030825778657438612
0.2795651518000427 -0.13096640320399386 -0.030825778657438612
0.17225445113776722 -0.16482543848132442 -0.030825778657438612
0.16576870730824217 0.12974570236915942 -0.030825778657438612
0.18833317728548724 0.17186604632668356 -0.030825778657438612
0.14758149790035324 -0.12216256081942939 -0.030209263084289877
0.13134247770361465 0.06999301301958027 -0.029222838167251814
0.4074304816710983 -0.06187966807694222 -0.029222838167251814
0.4967019366630406 -0.11292715753366064 -0.029222838167251814
0.8803102565876701 0.019315432906751123 -0.029222838167251814
0.7970066723438078 0.08406189839883534 -0.02835971636484353
0.8493488445041387 -0.04933974131909623 -0.02835971636484353
0.768314037569464 -0.13764943201692656 -0.02835971636484353
0.6119903488418611 0.0855785267087812 -0.02835971636484353
0.4383179118858518 -0.03324868485991334 -0.02835971636484353
0.42833035960084165 -0.022656947313217306 -0.02835971636484353
0.3231404725101979 -0.0812135964508879 -0.02835971636484353
0.16964042510761637 -0.14087997362022614 -0.02835971636484353
0.21359798547312386 -0.24941137511733608 -0.02835971636484353
0.17447390720110287 0.1917178477820742 -0.02835971636484353
0.11747087730776724 0.22434385191310713 -0.027743200791694747
0.7564029566962299 -0.15959738642102292 -0.027743200791694747
0.10607766951597784 -0.24052122055253072 -0.026756775874656732
0.6739131730089237 -0.06187966807694222 -0.026756775874656732
0.8419999788722053 0.06412378476320396 -0.026756775874656732
0.854280969089329 -0.08513463549611407 -0.026756775874656732
0.6707936042087912 0.1422856291270054 -0.025893654072248445
0.8585842477899073 0.03571474715250847 -0.025893654072248445
0.6524091098174946 0.0733838486718986 -0.025893654072248445
0.6132233799881588 -0.04638046656798218 -0.025893654072248445
0.4466901933692121 -0.0804861080745722 -0.025893654072248445
0.30839342000047926 -0.08809391024722811 -0.025893654072248445
0.25633484500379694 -0.09295205296364052 -0.025893654072248445
0.15992413967479174 0.08253293977742626 -0.025893654072248445
0.17518906526595535 -0.15904252240518899 -0.025893654072248445
0.1315890839328741 -0.23720436676899043 -0.025277138499099665
0.8329125393239925 0.0842838440051689 -0.025277138499099665
0.11119474877311274 -0.1878954512285516 -0.024290713582061647
0.4241873749492819 0.039734428689438564 -0.024290713582061647
0.6047401257016316 -0.025492918949701713 -0.024290713582061647
0.9108647683929234 -0.013162607486726251 -0.024290713582061647
0.7550342921238394 -0.1657132209066587 -0.024290713582061647
0.8757480413463691 -0.005665778117237119 -0.023427591779653364
0.6913482334175712 -0.16528166000545458 -0.023427591779653364
0.6144687414459192 -0.10654005619583935 -0.023427591779653364
0.4414991322432994 -0.08637999695387458 -0.023427591779653364
0.4335584116611433 0.07437027358893661 -0.023427591779653364
0.3150271275675602 -0.11095430769958461 -0.023427591779653364
0.15505366664691647 0.1867733928854209 -0.023427591779653364
0.14015865039964215 0.2185609358369717 -0.023427591779653364
0.1624271929017758 -0.22142156809638183 -0.023427591779653364
0.13796385495923255 -0.15817940060278063 -0.02281107620650458
0.8137882262449176 0.05504867552645397 -0.02281107620650458
0.11882721156869454 0.16129896940291358 -0.021824651289466566
0.4074304816710983 -0.06187966807694222 -0.021824651289466566
0.5535816634417464 -0.078118688273681 -0.021824651289466566
0.849817396339732 0.06803249349696709 -0.021824651289466566
0.8282763422139137 -0.08453045023442819 -0.021824651289466566
0.7550959436811543 0.12969638112330745 -0.02096152948705828
0.7471182321646093 -0.14882069420238223 -0.02096152948705828
0.6439011949080415 0.07693497837323549 -0.02096152948705828
0.6126808462837878 0.01625751566393315 -0.02096152948705828
0.43183216805632674 -0.09691008294325562 -0.02096152948705828
0.33699974259458243 -0.11737839997179485 -0.02096152948705828
0.1772605575917353 -0.24552732700649885 -0.02096152948705828
0.1946832876889196 0.06218792586351685 -0.02096152948705828
0.16919653389494924 -0.19383866135370578 -0.02096152948705828
0.11510345750687587 0.14923992479212347 -0.020345013913909495
0.8378939851550345 0.07646642653764246 -0.020345013913909495
0.1344497161922844 -0.02940162768346485 -0.019358588996871436
0.4074304816710983 0.08427151369370588 -0.019358588996871436
0.7755396000867678 0.13300090459538488 -0.019358588996871436
0.8051693385322977 -0.12684807917536 -0.019358588996871436
0.7599540863975667 0.10515906131198634 -0.018495467194463152
0.8434919465592254 0.024358530295108163 -0.018495467194463152
0.695454227134742 -0.16006593825661594 -0.018495467194463152
0.61306308593914 0.08575115106926298 -0.018495467194463152
0.4450502619446363 0.062434532092776315 -0.018495467194463152
0.31079783073575956 -0.07629380217716068 -0.018495467194463152
0.16920886420641226 -0.24553965731796187 -0.018495467194463152
0.1946586270659937 0.13582454592040624 -0.018495467194463152
0.16485626425998198 -0.1398565577687992 -0.018495467194463152
0.1315890839328741 -0.17751332897672611 -0.017878951621314414
0.7691524987489464 0.13300090459538488 -0.017878951621314414
0.1314164595723925 -0.1430870993720988 -0.016892526704276354
0.5934332300900831 0.09527015151867993 -0.016892526704276354
0.8279927450502653 0.08599775729852244 -0.016892526704276354
0.13977641074428984 0.08239730635133359 -0.016029404901868067
0.2188753587792775 0.22238333239049413 -0.016029404901868067
0.17983759268749705 -0.22127360435882612 -0.016029404901868067
0.19469561800038263 0.0805230990089613 -0.016029404901868067
0.2769018045240399 -0.1317925340720131 -0.016029404901868067
0.4432870274054308 0.05951224827605119 -0.016029404901868067
0.6140001896103262 0.00799620698373957 -0.016029404901868067
0.6668479045406391 0.08395092559566855 -0.016029404901868067
0.8407299567915191 0.0559241276403252 -0.016029404901868067
0.7632956008040332 0.12083088718142816 -0.016029404901868067
0.8254650312003555 0.07788441235588457 -0.016029404901868067
0.12521431290651583 -0.15932611956883738 -0.015412889328719285
0.8621477078027074 0.052126391709728846 -0.014426464411681269
0.6997451755238577 -0.013162607486726251 -0.014426464411681269
0.11430198726178249 0.18583628921423487 -0.014426464411681269
0.13531283799469276 -0.22106398906395558 -0.013563342609272984
0.1052885295823475 0.22301217827510572 -0.013563342609272984
0.19407910242723372 0.00196668467834469 -0.013563342609272984
0.32706151155542423 -0.08522094767635478 -0.013563342609272984
0.44263352089789315 0.07566495629254891 -0.013563342609272984
0.6162443062965877 -0.03157176250094856 -0.013563342609272984
0.5991051733630517 0.08810624055869115 -0.013563342609272984
0.8422095941670759 0.04159630572034781 -0.013563342609272984
0.8214330193519626 -0.09673745858277401 -0.013563342609272984
0.880926772160819 0.0071454154927944056 -0.013563342609272984
0.11510345750687587 -0.1430870993720988 -0.012946827036124202
0.09332812746326132 0.22978151926827933 -0.011960402119086186
0.6876861309130676 -0.06187966807694222 -0.011960402119086186
0.8783867279994462 -0.078118688273681 -0.011960402119086186
0.1880372498103758 0.21911579985280544 -0.011097280316677898
0.1851766175509655 -0.23671115431047135 -0.011097280316677898
0.14606486959040738 0.14401187273182214 -0.011097280316677898
0.43729449603442483 0.03185535966459712 -0.011097280316677898
0.47387853014507303 -0.09407411130677121 -0.011097280316677898
0.6143577686427525 -0.006109669329904252 -0.011097280316677898
0.7788194629359191 -0.13065814541741938 -0.011097280316677898
0.7248990109083275 0.13928936344150242 -0.011097280316677898
0.8537137747620323 -0.03852605816606681 -0.011097280316677898
0.09970289848961958 0.14923992479212347 -0.010480764743529117
0.10607766951597784 -0.23705640303143471 -0.0094943398264911
0.6997451755238577 -0.12684807917536 -0.0094943398264911
0.8935036898530541 -0.02940162768346485 -0.0094943398264911
0.1991345301270538 -0.24293796159927405 -0.008631218024082815
0.14830898627666894 -0.14826583018654832 -0.008631218024082815
0.19220489508486144 0.21148333705722364 -0.008631218024082815
0.1530931471243033 -0.08618271197046691 -0.008631218024082815
0.3434115045553296 -0.09449334189651246 -0.008631218024082815
0.441264856325503 -0.08091766897577647 -0.008631218024082815
0.6052456684716135 0.07012864644567295 -0.008631218024082815
0.7659219571456469 -0.13889479347468708 -0.008631218024082815
0.8140964840314918 -0.10342048739570656 -0.008631218024082815
0.800052259275163 0.09539345463330975 -0.008631218024082815
0.08560935248743862 0.22463977938821855 -0.008014702450934033
0.5942100397122506 0.09556607899379135 -0.007028277533895974
0.5373426432450076 0.06608430428581713 -0.007028277533895974
0.8783867279994462 -0.0638401875995554 -0.007028277533895974
0.18602740904191084 -0.24055821148691967 -0.0061651557314876876
0.12961623409879808 0.08393859528420552 -0.0061651557314876876
0.18213103061961058 0.15376514909903571 -0.0061651557314876876
0.12893806696833435 -0.19608277803996715 -0.0061651557314876876
0.4412525260140399 0.05747774688466017 -0.0061651557314876876
0.44617232028776715 -0.08096699022162826 -0.0061651557314876876
0.6647270909690074 -0.09105318499834217 -0.0061651557314876876
0.7611501266094753 0.11507263172821863 -0.0061651557314876876
0.8060201300232432 0.0916203793256393 -0.0061651557314876876
0.820162997271276 -0.12684807917536 -0.005548640158338949
0.11739689543898939 0.1175140333978877 -0.0045622152413008895
0.45232514570779186 -0.03081961350170714 -0.0045622152413008895
0.6835061553271189 0.06803249349696709 -0.0045622152413008895
0.9108647683929234 -0.013162607486726251 -0.0045622152413008895
0.13760627592680613 0.06513487030316786 -0.0036990934388926038
0.15991180936332872 -0.2448244992531092 -0.0036990934388926038
0.1569648649236777 -0.18558968298497505 -0.0036990934388926038
0.1318480204735966 0.16102770255072824 -0.0036990934388926038
0.42768918340476697 0.023668032853181392 -0.0036990934388926038
0.6162936275424395 -0.10217512593794605 -0.0036990934388926038
0.6678096688347512 0.06980805834763563 -0.0036990934388926038
0.8083258982668194 0.0759855443905864 -0.0036990934388926038
0.7695840596501505 -0.11942523167464873 -0.0036990934388926038
0.07950584831326571 -0.2567602407492695 -0.0020961529487058058
0.4232009500322439 -0.03862470065777055 -0.0020961529487058058
0.6835061553271189 -0.02940162768346485 -0.0020961529487058058
0.8392873103503508 -0.11059672866715838 -0.0020961529487058058
0.1243881820384964 -0.16666265488930776 -0.00123303114629752
0.1593322847245689 -0.1748253210777976 -0.00123303114629752
0.12560888287333102 0.19926399839741513 -0.00123303114629752
0.4479725457613616 0.05963555139068084 -0.00123303114629752
0.43053748535271424 -0.07268102091850878 -0.00123303114629752
0.6159607091329392 -0.1119900538624746 -0.00123303114629752
0.8663770046345078 0.01266939502820733 -0.00123303114629752
0.7572660784986381 -0.12752624630582374 -0.00123303114629752
0.8946257481961847 -0.06187966807694222 3.699093438892779E-4
0.4556913207371841 0.015258760435432275 3.699093438892779E-4
0.11119474877311274 -0.10739084768678468 0.0012330311462975638
0.1379761852706954 0.1757500944375208 0.0012330311462975638
0.20999753452593517 0.21900482704963883 0.0012330311462975638
0.13047935590120627 -0.1971678454487091 0.0012330311462975638
0.4788353153531892 -0.0952578212072169 0.0012330311462975638
0.6585865958604453 0.07846393699464438 0.0012330311462975638
0.8192752148459417 -0.09841438094173861 0.0012330311462975638
0.8114947883128042 -0.11186675074784477 0.0012330311462975638
0.8621477078027074 -0.078118688273681 0.0018495467194463457
0.6182788076879786 -0.12367918912937526 0.002835971636484362
0.6214476977339634 0.09382750507751192 0.002835971636484362
0.124104584874848 -0.22301217827510572 0.0036990934388926476
0.21899866189390715 0.2210393284410297 0.0036990934388926476
0.48386608243008317 0.07737886958590262 0.0036990934388926476
0.43812062690244413 -0.05750240750758606 0.0036990934388926476
0.6707196223400133 -0.09380284445458585 0.0036990934388926476
0.8477582343254151 0.036479226463212916 0.0036990934388926476
0.8384858401052574 -0.08880906831208078 0.0036990934388926476
0.8636396754897272 0.04529539915924041 0.00530203392907949
0.5535816634417464 -0.1430870993720988 0.00530203392907949
0.12378399677681069 0.13365441110292253 0.006165155731487775
0.10865470461173975 0.19052180757016549 0.006165155731487775
0.11759418042239707 0.11561516543258951 0.006165155731487775
0.44585173218972984 -0.08128757831966575 0.006165155731487775
0.6675260716711025 -0.09051065129397129 0.006165155731487775
0.878867610146502 -0.005530144691144442 0.006165155731487775
0.8706063014663087 -0.015147787632265318 0.006165155731487775
0.9108647683929234 0.019315432906751123 0.007768096221674573
0.4669982163487326 -0.11169412638736317 0.007768096221674573
0.11793942914336028 0.12794547689556499 0.008631218024082859
0.08006071232909961 0.21888152393500884 0.008631218024082859
0.4477259395321021 -0.08621970290485584 0.008631218024082859
0.8342565432734569 -0.07760081519223601 0.008631218024082859
0.8789169313923538 -0.030930586304873924 0.008631218024082859
0.6662067283445641 0.06466631846757484 0.008631218024082859
0.8783867279994462 0.039463161837253034 0.010234158514269657
0.4074304816710983 -0.09435770847041959 0.010234158514269657
0.11121940939603862 -0.17403618114416708 0.011097280316677944
0.4346064881354961 0.05077005744880155 0.011097280316677944
0.655319063322757 -0.10084345229994482 0.011097280316677944
0.8335537155200671 0.05821756557243872 0.011097280316677944
0.8556989549075713 0.04990693564639318 0.011097280316677944
0.6726801418626263 0.05358136846235989 0.011097280316677944
0.6671438320157506 -0.059401275472884235 0.012700220806864742
0.6997451755238577 -0.11059672866715838 0.012700220806864742
0.11182359465772451 0.13173088251469847 0.013563342609273027
0.43570388585570097 0.055652860788139843 0.013563342609273027
0.6473043608718229 -0.10404933328031833 0.013563342609273027
0.6012506475576095 0.08894470173817363 0.013563342609273027
0.8484364014558787 0.02847685432374183 0.013563342609273027
0.8902978088726803 0.035554453103489723 0.014179858182421809
0.5860597038352238 -0.09435770847041959 0.015166283099459825
0.45614754226131426 0.0030764127100123486 0.015166283099459825
0.17142832026974794 0.22349306042216197 0.016029404901868112
0.4837057883810644 -0.10097908572603749 0.016029404901868112
0.6119780185303982 0.08369198905494606 0.016029404901868112
0.8683868454029731 0.01887154169408399 0.016029404901868112
0.8568703344965539 -0.07356880334384305 0.016029404901868112
0.6997451755238577 0.06803249349696709 0.01763234539205495
0.08088684319711907 -0.24973196321537358 0.01849546719446324
0.4842359917739725 0.06412378476320396 0.01849546719446324
0.6597086542035762 -0.0994501271046286 0.01849546719446324
0.6166635368863289 0.08660194256020814 0.01849546719446324
0.8564634342182755 0.018883872005547024 0.01849546719446324
0.4074304816710983 0.0030764127100123486 0.020098407684650037
0.5535816634417464 -0.078118688273681 0.020098407684650037
0.4456051259604702 0.05673792819688161 0.020961529487058324
0.6471933880686562 -0.10454254573883742 0.020961529487058324
0.6694372699478637 0.08639232726533762 0.020961529487058324
0.8859452089262502 -0.0297345460929652 0.020961529487058324
0.08223084714658332 0.2187952117547683 0.023427591779653405
0.47269482024462733 -0.09989401831729573 0.023427591779653405
0.6494991563122324 0.07831597325708867 0.023427591779653405
0.8609516675907987 0.024087263442922634 0.023427591779653405
0.45614754226131426 0.017367243695600984 0.023970125484024333
0.5048646028515302 -0.09435770847041959 0.023970125484024333
0.452300485084866 0.05776134404830856 0.02589365407224849
0.6690796909154374 -0.09023938444178593 0.02589365407224849
0.8702240618109564 -0.03665185082369452 0.02589365407224849
0.8580047231511475 -0.0692778549547276 0.02589365407224849
0.6835061553271189 0.0030764127100123486 0.027854173594861618
0.47284278398218305 0.06872299093889386 0.028359716364843572
0.4877131396065315 -0.10933903689793482 0.028359716364843572
0.6155044876088093 0.08229866385962983 0.028359716364843572
0.8944531238357032 -0.022336359215179992 0.028359716364843572
0.488958501064292 0.0599191485543294 0.030825778657438702
0.6694619305707897 -0.09023938444178593 0.030825778657438702
0.8756617291661286 0.0037669101519391176 0.030825778657438702
0.5373426432450076 0.06608430428581713 0.03172589139423587
0.09477077390442949 0.2191034695413424 0.033291840950033784
0.45062356272590137 -0.08885838955793257 0.033291840950033784
0.6128658009557323 0.0853195901680587 0.033291840950033784
0.4189346622660543 -0.08921596859035899 0.03575790324262887
0.4074304816710983 -0.11059672866715838 0.03575790324262887
0.6180198711472562 0.08713214595311616 0.03575790324262887
0.43043884286101053 -0.09874729935123897 0.03575790324262887
0.6589688355157977 0.07946269222314543 0.038223965535223954
0.6044318679150571 -0.0928534104719366 0.038223965535223954
0.47524719471746335 0.07475251324428875 0.038223965535223954
0.6510281149336414 0.035554453103489723 0.039469326992984465
0.675010570729129 0.061965980257183285 0.04069002782781904
0.4454448319114516 -0.08476472615222479 0.04069002782781904
0.4074304816710983 -0.06187966807694222 0.043156090120414166
0.5953197677439184 0.0941357628640862 0.043156090120414166
0.6492155591485841 -0.10026392766118483 0.043156090120414166
0.4724975352612197 0.06909290028278314 0.043156090120414166
0.6675260716711025 0.08975850229472987 0.04562215241300925
0.43226372895753085 -0.08117660551649897 0.04562215241300925
0.45614754226131426 0.019315432906751123 0.04722509290319605
