0.35562603859654746 0.35553745443482015 -0.2185075989273298
0.17460922544913662 0.39091206301792025 -0.2185075989273298
0.6042522525111579 0.29741640165707767 -0.21801546469551147
0.18941262314223128 0.2665005292142514 -0.21801546469551147
0.4018276002796504 0.3065504129996255 -0.21653906200005654
0.4961205190960387 0.3381749587362702 -0.21653906200005654
0.5383850069245951 0.4238063150726562 -0.21653906200005654
0.1650027652440432 0.4177235359673818 -0.21653906200005654
0.4890141007885824 0.4545843899305733 -0.21653906200005654
0.26787850506334276 0.35193503185791014 -0.21653906200005654
0.1845601796165028 0.3607343919228216 -0.21653906200005654
0.31441471802408216 0.3540413663700925 -0.21653906200005654
0.4540528849602095 0.3697601337343692 -0.21653906200005654
0.6172150681772522 0.5153039114523165 -0.21604692776823825
0.5635625942244199 0.3856659121067372 -0.21604692776823825
0.05977462379665205 0.3856659121067372 -0.21604692776823825
0.5477158719598704 0.3981858069641949 -0.2145705250727833
0.3123182261965362 0.4954512165407658 -0.2145705250727833
0.500402086912858 0.4414640913102972 -0.2145705250727833
0.17122334193422656 0.4087962210021977 -0.2145705250727833
0.31361746056853645 0.4189735569162003 -0.2145705250727833
0.26438435201743277 0.37672875445691667 -0.2145705250727833
0.2774455945298907 0.41521365138510846 -0.2145705250727833
0.2980266481045325 0.377171675265553 -0.2145705250727833
0.37212237804709725 0.37745711312000774 -0.2145705250727833
0.341826594736362 0.3709806266292788 -0.2145705250727833
0.4259520203233841 0.4403617106310241 -0.2145705250727833
0.361689132332549 0.4446826491863889 -0.2145705250727833
0.3693565836642784 0.3702030545430057 -0.2145705250727833
0.22328130097596743 0.4188652873852003 -0.2145705250727833
0.2101708450403277 0.3672207210981868 -0.2145705250727833
0.1751702584734095 0.4738563664485783 -0.2145705250727833
0.49281337705821965 0.34491719771218105 -0.2145705250727833
0.6949919621738179 0.43751717477111424 -0.21407839084096497
0.5523911471621443 0.42455435910502 -0.21407839084096497
0.3190506224878107 0.268990728427252 -0.21407839084096497
0.34600973570681776 0.4960417776189478 -0.21260198814551007
0.20535777225314458 0.30819414133389866 -0.21260198814551007
0.10678328561993702 0.3991996034817407 -0.21260198814551007
0.5363475712048674 0.3875557075569194 -0.21260198814551007
0.10670454414284614 0.3789335158154626 -0.21260198814551007
0.5264655158299558 0.268990728427252 -0.21210985391369175
0.05977462379665205 0.5153039114523165 -0.21210985391369175
0.10383048022902719 0.4696043266856681 -0.21063345121823682
0.47392526524103296 0.31871597121017414 -0.21063345121823682
0.5030989825032224 0.35309646864500127 -0.21063345121823682
0.10581870252557314 0.3894651883763745 -0.21063345121823682
0.4697125962166682 0.32537946870899415 -0.21063345121823682
0.4875770688316729 0.541229542784505 -0.2101413169864185
0.5912894368450635 0.3727030964406428 -0.2101413169864185
0.05977462379665205 0.48937828012012785 -0.2101413169864185
0.33465127763645103 0.30354839418553387 -0.2086649142909636
0.561928708574783 0.4030087224360143 -0.2086649142909636
0.5211996795495 0.4291607355148394 -0.2086649142909636
0.44960399150457203 0.48233091792048965 -0.2086649142909636
0.33491703012163293 0.30713113139317105 -0.2086649142909636
0.6820291465077235 0.33381464944236 -0.20817278005914527
0.18941262314223128 0.25602791276115777 -0.20817278005914527
0.3489625410977276 0.4966815521203116 -0.20669637736369031
0.1754556963278641 0.311481598002445 -0.20669637736369031
0.4917602098021285 0.3207730922991747 -0.20669637736369031
0.5023804665247678 0.34047814694117984 -0.20669637736369031
0.29231789101544 0.30883391583526243 -0.20669637736369031
0.6690663308416295 0.3727030964406428 -0.20620424313187205
0.4875770688316729 0.2455651389927005 -0.20620424313187205
0.4206172852504736 0.30033967899407843 -0.2047278404364171
0.5633362124777834 0.4026051723659233 -0.2047278404364171
0.2867764595651659 0.500618625974858 -0.2047278404364171
0.2961171672850774 0.4901164814678553 -0.2047278404364171
0.502390309209404 0.3392970247848158 -0.2047278404364171
0.5783266211789692 0.5023410957862222 -0.20423570620459877
0.5964470035945194 0.35974028077454856 -0.20423570620459877
0.05977462379665205 0.3727030964406428 -0.20423570620459877
0.1036336265362999 0.31518244742571877 -0.20275930350914384
0.534457775754685 0.3483522946502728 -0.20275930350914384
0.5067899892418597 0.4575962514293013 -0.20275930350914384
0.17393992289386373 0.48131712140294386 -0.20275930350914384
0.16658743747049817 0.3211274289460839 -0.20275930350914384
0.6042522525111579 0.307879175425535 -0.20226716927732555
0.4875770688316729 0.2455651389927005 -0.20226716927732555
0.42545988609156565 0.29810538958162336 -0.20079076658187062
0.49980168315003975 0.4734921871170327 -0.20079076658187062
0.09032631690793275 0.470460640249032 -0.20079076658187062
0.4305780821024762 0.4942011955919472 -0.20079076658187062
0.38627615855419184 0.2978101090425324 -0.20079076658187062
0.5783266211789692 0.5153039114523165 -0.2002986323500523
0.5912894368450635 0.35974028077454856 -0.2002986323500523
0.07274728214738269 0.4504799904372086 -0.2002986323500523
0.20376325734205322 0.4893389093815823 -0.1988222296545974
0.437290793024478 0.29152063355989427 -0.1988222296545974
0.4964453276890388 0.46826572157512236 -0.1988222296545974
0.5112979388053156 0.34115729218108914 -0.1988222296545974
0.26971908709034326 0.3096410159754446 -0.1988222296545974
0.5135027001638615 0.5671551741166937 -0.19833009542277907
0.7079547778399122 0.42455435910502 -0.19833009542277907
0.389022267567738 0.2301022814289692 -0.19833009542277907
0.5741336375238772 0.3970637409156491 -0.19685369272732411
0.28856782816898446 0.5056679231933139 -0.19685369272732411
0.4614053703835751 0.48723257486939997 -0.19685369272732411
0.46226168394693895 0.3099461391991718 -0.19685369272732411
0.4290130952452939 0.5671551741166937 -0.19636155849550582
0.6042522525111579 0.35974028077454856 -0.19636155849550582
0.07274728214738269 0.3986287277728314 -0.19636155849550582
0.5625094269683286 0.41599122347138134 -0.1948851558000509
0.45794074539157426 0.49875835857858486 -0.1948851558000509
0.5687595317124214 0.4205188584041099 -0.1948851558000509
0.5219477235818637 0.3422990435989076 -0.1948851558000509
0.11846655228330369 0.41246754237156236 -0.1948851558000509
0.50819749314486 0.33905095766890675 -0.1948851558000509
0.5524009898467807 0.24306509709506344 -0.19439302156823257
0.05977462379665205 0.47640562176939716 -0.19439302156823257
0.5032466227727679 0.3231353366119026 -0.19291661887277764
0.5484737586768705 0.35494689335663815 -0.19291661887277764
0.29584157211525913 0.288203648837439 -0.19291661887277764
0.4549977826853007 0.4932661405514924 -0.19291661887277764
0.47761627197967027 0.31320406781380905 -0.19291661887277764
0.5783266211789692 0.5023410957862222 -0.19242448464095932
0.5964470035945194 0.35974028077454856 -0.19242448464095932
0.05977462379665205 0.35974028077454856 -0.19242448464095932
0.5680213303646938 0.4151152245387448 -0.19094808194550442
0.580629809383879 0.4023098918268323 -0.19094808194550442
0.4210011499512919 0.28229803805561915 -0.19094808194550442
0.5149594174900436 0.3336965372267236 -0.19094808194550442
0.3625651312651856 0.5053726426542229 -0.19094808194550442
0.5783266211789692 0.5023410957862222 -0.1904559477136861
0.5964470035945194 0.35974028077454856 -0.1904559477136861
0.07274728214738269 0.3727030964406428 -0.1904559477136861
0.09492285063311576 0.31436550460090024 -0.18897954501823114
0.08896802642811416 0.3184502187249923 -0.18897954501823114
0.5454717398627789 0.34183643742099845 -0.18897954501823114
0.518325615635681 0.46290145844830277 -0.18897954501823114
0.33258431386281423 0.2932332606866221 -0.18897954501823114
0.6561035151755351 0.47890566366703424 -0.18848741078641285
0.5948229606295191 0.40555797775683317 -0.18848741078641285
0.05977462379665205 0.33381464944236 -0.18848741078641285
0.10061192235293545 0.31020204899971743 -0.18701100809095794
0.08666483822320452 0.32847007168481307 -0.18701100809095794
0.43306828131547687 0.2817862184545282 -0.18701100809095794
0.43867861155820553 0.2946604499588951 -0.18701100809095794
0.3950066198266487 0.5089061664386784 -0.18701100809095794
0.1693827599072261 0.38966204206910177 -0.18701100809095794
0.4486886218333899 0.5671551741166937 -0.1865188738591396
0.5836416708826071 0.268990728427252 -0.1865188738591396
0.07274728214738269 0.4504799904372086 -0.1865188738591396
0.118446866914031 0.39278217309882996 -0.18504247116368466
0.12260047983057751 0.4117687117623802 -0.18504247116368466
0.08580852465984064 0.40549892164901497 -0.18504247116368466
0.0934956613608427 0.4702145731331228 -0.18504247116368466
0.5782774077557874 0.39183727537373875 -0.18504247116368466
0.2417363346691541 0.3431258291083624 -0.18504247116368466
0.2407520662055175 0.30357792223944297 -0.18504247116368466
0.6301778838433464 0.4504799904372086 -0.1845503369318664
0.5783266211789692 0.29491635975944064 -0.1845503369318664
0.12301387258530491 0.40092207329310475 -0.18307393423641144
0.416138863740927 0.284148462767256 -0.18307393423641144
0.08561167096711335 0.3629096252274584 -0.18307393423641144
0.08516875015847684 0.39508536130373956 -0.18307393423641144
0.0885743190426596 0.4929118039045832 -0.18307393423641144
0.19478672895368732 0.4142490682907446 -0.18307393423641144
0.28362680048152866 0.49887647079422126 -0.18307393423641144
0.5823621218798796 0.39508536130373956 -0.18307393423641144
0.3579390694860935 0.5566924003482363 -0.18258180000459312
0.6042522525111579 0.27946334488034574 -0.18258180000459312
0.05977462379665205 0.48937828012012785 -0.18258180000459312
0.09577916419647965 0.39036087267828373 -0.18110539730913822
0.3796717171631901 0.5163964494469531 -0.18110539730913822
0.2968455259481685 0.28453232746807433 -0.18110539730913822
0.08546403069756785 0.40637492058165164 -0.18110539730913822
0.4824293447668534 0.5042308912364044 -0.18110539730913822
0.1475812134376749 0.4875180127238547 -0.18110539730913822
0.2888827940773483 0.41050884812892535 -0.18110539730913822
0.11789567657439452 0.30846973650371695 -0.18110539730913822
0.4960319349343114 0.4794273259527616 -0.18110539730913822
0.6431406995094407 0.4504799904372086 -0.1806132630773199
0.5783266211789692 0.28445358599098347 -0.1806132630773199
0.11816142905957641 0.38874667239791966 -0.17913686038186494
0.2964715039319866 0.28735717795871135 -0.17913686038186494
0.11206880726966574 0.379642189109281 -0.17913686038186494
0.3673683613677323 0.5209043990104089 -0.17913686038186494
0.3216097204932659 0.2767664492899814 -0.17913686038186494
0.08058205911793026 0.39937677180519515 -0.17913686038186494
0.5473910633668705 0.45020439526739026 -0.17913686038186494
0.10005088932866256 0.48799046158640014 -0.17913686038186494
0.19458987526096003 0.41443607929883547 -0.17913686038186494
0.47461425316557854 0.5671551741166937 -0.17864472615004665
0.594448938613337 0.42455435910502 -0.17864472615004665
0.05977462379665205 0.33381464944236 -0.17864472615004665
0.11994295497875868 0.40503631547110575 -0.17716832345459174
0.4896932460284916 0.3016389133660788 -0.17716832345459174
0.0875408371558411 0.3531063113296377 -0.17716832345459174
0.0829836741692036 0.43205448479793107 -0.17716832345459174
0.5361113467735946 0.4763859364001245 -0.17716832345459174
0.07981432971629367 0.3372202183265426 -0.17716832345459174
0.5465938059113246 0.45231072977957265 -0.17716832345459174
0.5890748328018812 0.40142405020955946 -0.17716832345459174
0.5524009898467807 0.5437295846821419 -0.1766761892227734
0.6146165994332515 0.3986287277728314 -0.1766761892227734
0.0717728563683824 0.3467774651084542 -0.1766761892227734
0.28008343401243685 0.35497642141054725 -0.17519978652731846
0.09697012903747991 0.3795536049475537 -0.17519978652731846
0.08598569298329523 0.42340276500256513 -0.17519978652731846
0.39427826116355763 0.5240048446708642 -0.17519978652731846
0.09475552499429757 0.29682584057889566 -0.17519978652731846
0.10624193796493696 0.4217491939836557 -0.17519978652731846
0.5704721588391491 0.43188715915911285 -0.17519978652731846
0.19172565403177735 0.36968139225727836 -0.17519978652731846
0.6076775067646135 0.3856659121067372 -0.17470765229550017
0.6172150681772522 0.48937828012012785 -0.17470765229550017
0.20227701196196196 0.3471613298092725 -0.17323124960004524
0.11364363681148429 0.38603009143828265 -0.17323124960004524
0.5205500623634998 0.4815041324110349 -0.17323124960004524
0.08200924839020332 0.3322791906390868 -0.17323124960004524
0.08208798986729421 0.4090619734873796 -0.17323124960004524
0.3595237417125485 0.5278336489944107 -0.17323124960004524
0.2108007768570551 0.4980004718615847 -0.17323124960004524
0.09783628528548022 0.3063043458837164 -0.17323124960004524
0.4486886218333899 0.2301022814289692 -0.17273911536822692
0.6820291465077235 0.33381464944236 -0.17273911536822692
0.3190506224878107 0.5309833080780478 -0.17273911536822692
0.2850244616998926 0.35596068987418394 -0.171262712672772
0.11557280300021205 0.39993780482946806 -0.171262712672772
0.41533176360074486 0.5209142416950452 -0.171262712672772
0.5390936802184135 0.3220821693558114 -0.171262712672772
0.07630049130111094 0.368460899362369 -0.171262712672772
0.07632017667038363 0.4589151711705744 -0.171262712672772
0.4281469389972937 0.2819043306701646 -0.171262712672772
0.3792976951470082 0.5188374352367718 -0.171262712672772
0.6172150681772522 0.31037921732317203 -0.17077057844095367
0.5264655158299558 0.5282667271184106 -0.17077057844095367
0.05977462379665205 0.3467774651084542 -0.17077057844095367
0.09964733925857158 0.4148199439996538 -0.16929417574549874
0.08419432437947656 0.3276826569139038 -0.16929417574549874
0.08052300301011206 0.41164075686210755 -0.16929417574549874
0.08006039683220273 0.4534623238820275 -0.16929417574549874
0.366334879480914 0.530481331161593 -0.16929417574549874
0.5746749851788775 0.4327336300378403 -0.16929417574549874
0.08916488012084159 0.3077315351559895 -0.16929417574549874
0.28639259486434765 0.34609831986854495 -0.16929417574549874
0.389022267567738 0.2301022814289692 -0.1678177730500438
0.4486886218333899 0.5671551741166937 -0.1678177730500438
0.5783266211789692 0.25602791276115777 -0.1678177730500438
0.2042750769431443 0.44257631467420655 -0.16732563881822551
0.09740320716148 0.4185011080536548 -0.16732563881822551
0.20669637736369037 0.5076561454898598 -0.16732563881822551
0.5922933906779729 0.42559768367647477 -0.16732563881822551
0.44890516089539 0.272238814357253 -0.16732563881822551
0.10566121957139123 0.4946047456620383 -0.16732563881822551
0.24460055589833662 0.508384504152951 -0.16732563881822551
0.08667468090784093 0.4692401473541226 -0.16732563881822551
0.08651719795365903 0.44051919358520597 -0.16732563881822551
0.3511180890330917 0.28399097981307414 -0.16732563881822551
0.5821062120793339 0.371659771869188 -0.16732563881822551
0.2809102195218916 0.4415526754720245 -0.16535710189095226
0.0817927093282032 0.39100064717964755 -0.16535710189095226
0.08260965215302159 0.414475450037381 -0.16535710189095226
0.07959779065429355 0.49093342429267367 -0.16535710189095226
0.3793961219933719 0.5332372828597756 -0.16535710189095226
0.08480457082693124 0.33886394666081576 -0.16535710189095226
0.24442338757488202 0.2953100671448953 -0.16535710189095226
0.1654653714219524 0.501396198061131 -0.16535710189095226
0.28975879300998486 0.34946451801418216 -0.16535710189095226
0.45404304227557324 0.3565217228984567 -0.16535710189095226
0.4432456172294794 0.5161503823310439 -0.16535710189095226
0.5357373247574126 0.46785232882039496 -0.16535710189095226
0.06837713016883606 0.324031020913812 -0.16486496765913397
0.6431406995094407 0.4504799904372086 -0.16486496765913397
0.19864506133114282 0.44132629372538795 -0.163388564963679
0.11306291841793871 0.3999574901987409 -0.163388564963679
0.12066147095721334 0.39623695540619447 -0.163388564963679
0.07828871359765689 0.4697716523244863 -0.163388564963679
0.07444022390483765 0.4694173156775771 -0.163388564963679
0.11713778985739434 0.4147510452071993 -0.163388564963679
0.19313315793477773 0.2917667006758035 -0.163388564963679
0.3120229456574452 0.4161782344794724 -0.163388564963679
0.44923981217302655 0.4870750919152182 -0.163388564963679
0.4502043952673904 0.28270158812571017 -0.163388564963679
0.07274728214738269 0.27946334488034574 -0.16240429650004243
0.6690663308416295 0.32085183377626564 -0.16240429650004243
0.4875770688316729 0.541229542784505 -0.16240429650004243
0.10683249904311881 0.413077788819017 -0.1614200280364058
0.5420071148707779 0.47729146338667017 -0.1614200280364058
0.5174299313337716 0.49777409011494816 -0.1614200280364058
0.07377092134956477 0.48861055071849124 -0.1614200280364058
0.08449944760320396 0.4354797390513865 -0.1614200280364058
0.3099953526223537 0.35288977226763757 -0.1614200280364058
0.5956694315082465 0.41616839179483595 -0.1614200280364058
0.24906913472324696 0.45330484092784573 -0.1614200280364058
0.38192569194491804 0.5249595850805917 -0.1614200280364058
0.4494071378118447 0.4716319197207596 -0.1614200280364058
0.06690072747338122 0.3020424634361698 -0.15994362534095088
0.5264655158299558 0.5282667271184106 -0.15994362534095088
0.2850539897538017 0.3565315655830931 -0.1594514911091325
0.10744274549057363 0.41676879555765434 -0.1594514911091325
0.3538248273080925 0.266057608405615 -0.1594514911091325
0.5235323958083187 0.5000379075813124 -0.1594514911091325
0.34546838805181757 0.5158058883687711 -0.1594514911091325
0.5755903548500595 0.3532834796530923 -0.1594514911091325
0.48649437352167263 0.2960088977540773 -0.1594514911091325
0.4547517155693915 0.43721205154738696 -0.1594514911091325
0.2869634705732568 0.4505193611757541 -0.1594514911091325
0.2220115946578763 0.34413962562590805 -0.1594514911091325
0.0871176017164773 0.3788449316537353 -0.1594514911091325
0.08482425619620407 0.4899688411983098 -0.1594514911091325
0.6949919621738179 0.35974028077454856 -0.1574829541818593
0.12940177491430657 0.2760184052576176 -0.1574829541818593
0.09377125653066087 0.5282667271184106 -0.1574829541818593
0.08593647956011344 0.39517394546546686 -0.1574829541818593
0.09544451291884314 0.4197216009485642 -0.1574829541818593
0.09921426113457135 0.4191605679242913 -0.1574829541818593
0.09251139289720599 0.426542581401566 -0.1574829541818593
0.09053301328529645 0.37989809890982645 -0.1574829541818593
0.35065548285518255 0.26157918689606824 -0.1574829541818593
0.08460771713420395 0.3795634476321901 -0.1574829541818593
0.08322974128511268 0.48408291578576285 -0.1574829541818593
0.4543776935532096 0.31641278300526454 -0.1574829541818593
0.5856692639176985 0.4352927280432955 -0.1574829541818593
0.3647797353083681 0.27100847877770723 -0.1574829541818593
0.14337838709794662 0.29394193398044044 -0.1574829541818593
0.30977881356035364 0.34488766965827194 -0.1574829541818593
0.3210093167304475 0.46260617790921177 -0.1574829541818593
0.3030562599537156 0.3291492169247224 -0.1574829541818593
0.4082253452932885 0.27594950646516303 -0.15551441725458606
0.3679392370766416 0.27941413145716393 -0.15551441725458606
0.08770816279465929 0.4940535553224017 -0.15551441725458606
0.08489315498865854 0.3821520736915543 -0.15551441725458606
0.08695027607765911 0.5000674356352215 -0.15551441725458606
0.07179254173765523 0.40214256618801414 -0.15551441725458606
0.4571238025667558 0.33594066932381506 -0.15551441725458606
0.45755688069075595 0.5185618400669537 -0.15551441725458606
0.20326128042559866 0.35075390970154613 -0.15551441725458606
0.2870422120503478 0.35078343775545523 -0.15551441725458606
0.19538713271650557 0.44689725322957125 -0.15551441725458606
0.2973671882338959 0.38582339506091895 -0.15551441725458606
0.6431406995094407 0.4504799904372086 -0.15502228302276774
0.1446677787853106 0.5222134760670456 -0.15502228302276774
0.06167426193147071 0.2819535440933464 -0.15502228302276774
0.42917057819947585 0.25349834280961164 -0.15423486825185845
0.6690663308416295 0.47640562176939716 -0.15423486825185845
0.3597304380899122 0.4525371115262092 -0.15423486825185845
0.35333269307627424 0.31504464984080954 -0.15423486825185845
0.0629734963034711 0.3061173348756254 -0.15423486825185845
0.08626128815311354 0.4192491520860186 -0.1535458803273128
0.09007040710738727 0.4192097813474731 -0.1535458803273128
0.09916504771138956 0.38650254030082826 -0.1535458803273128
0.4517890674938454 0.2915895323523489 -0.1535458803273128
0.5830609524890615 0.34884442888209105 -0.1535458803273128
0.43110958707284 0.26461073376406913 -0.1535458803273128
0.41512506722338116 0.25892166204424943 -0.1535458803273128
0.450381563590845 0.27795741413098163 -0.1535458803273128
0.45806870029184693 0.482823052152308 -0.1535458803273128
0.34068484331854354 0.3332831444719962 -0.1535458803273128
0.34199392037518034 0.4632262670413028 -0.1535458803273128
0.2022081131695075 0.4549485692621188 -0.1535458803273128
0.06157583508510699 0.3043161235871705 -0.1530537460954945
0.4230287429863832 0.2929379801475311 -0.1522663313245852
0.18941262314223128 0.25602791276115777 -0.1522663313245852
0.6301778838433464 0.29491635975944064 -0.1522663313245852
0.5783266211789692 0.5307569263314115 -0.1522663313245852
0.3228006853342662 0.47746863171012477 -0.1522663313245852
0.1030036947195724 0.40925882718010687 -0.1515773434000396
0.39288059994519364 0.5256288876358645 -0.1515773434000396
0.1020292689405721 0.41369787795110813 -0.1515773434000396
0.42206415989201934 0.5308356678085022 -0.1515773434000396
0.45160205648575436 0.5140243624495888 -0.1515773434000396
0.17378243993968182 0.27788851533852715 -0.1515773434000396
0.0731114614789283 0.3935400598158301 -0.1515773434000396
0.18177469986441117 0.5237686202395914 -0.1515773434000396
0.45862973331611984 0.32034985685981093 -0.1515773434000396
0.4550174680545734 0.47235043569921425 -0.1515773434000396
0.31049732953880843 0.3365213877173606 -0.1515773434000396
0.34098012385763454 0.4634329634186665 -0.1515773434000396
0.3170820855605374 0.45601157920284635 -0.1515773434000396
0.2210076408249669 0.541229542784505 -0.15108520916822127
0.4379699382643871 0.2929379801475311 -0.15029779439731197
0.5783266211789692 0.541229542784505 -0.15029779439731197
0.3590906635885484 0.4618876619307571 -0.15029779439731197
0.3190506224878107 0.3053889762125343 -0.15029779439731197
0.3966503481609219 0.2707919397157071 -0.14960880647276634
0.44673977027538947 0.31533008769526427 -0.14960880647276634
0.4199479826952007 0.26505365457270563 -0.14960880647276634
0.07522763867574693 0.40488867520156024 -0.14960880647276634
0.3486278898200911 0.26940412118197943 -0.14960880647276634
0.5933760859879733 0.44677914101393484 -0.14960880647276634
0.4965142264814934 0.5203827367246814 -0.14960880647276634
0.4570844318282104 0.28562486546271104 -0.14960880647276634
0.4606671690358477 0.47815761963467035 -0.14960880647276634
0.20252307907787115 0.3507342243322734 -0.14960880647276634
0.2870422120503478 0.4464641751055712 -0.14960880647276634
0.2042750769431443 0.45120834910029967 -0.14960880647276634
0.29196355436853094 0.380419761195554 -0.14960880647276634
0.3579981255939117 0.3171509843529919 -0.14832925747003872
0.3242081892372666 0.5541923584505993 -0.14832925747003872
0.6042522525111579 0.268990728427252 -0.14832925747003872
0.10532656829375486 0.39112860207992034 -0.14764026954549309
0.09402716633120649 0.49807921333867555 -0.14764026954549309
0.08835777998065948 0.41659162723419974 -0.14764026954549309
0.4406176204315697 0.5300482530375931 -0.14764026954549309
0.44781262290075335 0.5232272725845911 -0.14764026954549309
0.07503078498301964 0.2913828359749852 -0.14764026954549309
0.07533590820674706 0.2862646399640748 -0.14764026954549309
0.0663790651876537 0.4948508127779474 -0.14764026954549309
0.5788778115186057 0.3436278060248171 -0.14764026954549309
0.4573304989441194 0.5167409434092259 -0.14764026954549309
0.250201043456429 0.44257631467420655 -0.14764026954549309
0.3405175176797253 0.46473219779066677 -0.14764026954549309
0.3428896046770896 0.326560590865358 -0.14764026954549309
0.2542365441573391 0.541229542784505 -0.14714813531367477
0.2801621754895277 0.2518447717907022 -0.14636072054276547
0.30920793785144446 0.5434933602508691 -0.14636072054276547
0.5523911471621443 0.25352787086352074 -0.14636072054276547
0.44546022127266194 0.3228597414420844 -0.14567173261821983
0.44971226103557216 0.318361634563265 -0.14567173261821983
0.2669336073382516 0.27198290455670737 -0.14567173261821983
0.10526751218593666 0.5084041895222238 -0.14567173261821983
0.45331468361248217 0.32528104186263046 -0.14567173261821983
0.4855593184812178 0.27463058672388996 -0.14567173261821983
0.48229154718194417 0.26921711017388855 -0.14567173261821983
0.44760592652338965 0.25978781829224973 -0.14567173261821983
0.45769467827566507 0.47292131140812355 -0.14567173261821983
0.2816484208696191 0.351797234273001 -0.14567173261821983
0.34046830425654356 0.3330764480946325 -0.14567173261821983
0.3030956306922611 0.46937794493903173 -0.14567173261821983
0.3221707535175387 0.2514609070898839 -0.14439218361549225
0.2801621754895277 0.47640562176939716 -0.14439218361549225
0.6949919621738179 0.43751717477111424 -0.14439218361549225
0.08239311309102161 0.4186192202692912 -0.1437031956909466
0.19618439017205128 0.5069376295114052 -0.1437031956909466
0.10698013931266431 0.3987763680423769 -0.1437031956909466
0.44244835977393376 0.5317608801643209 -0.1437031956909466
0.4524485273644819 0.5236898787625003 -0.1437031956909466
0.07451896538192854 0.3015700145736242 -0.1437031956909466
0.07013897071874564 0.40633554984310616 -0.1437031956909466
0.2791779070258911 0.5361113467735945 -0.1437031956909466
0.45814744176893796 0.46157269602239326 -0.1437031956909466
0.4882070006484002 0.28244567832516465 -0.1437031956909466
0.20299552794041675 0.35518311778791095 -0.1437031956909466
0.3427911778307259 0.47080513421130477 -0.1437031956909466
0.32107821552290217 0.3427025936689986 -0.1437031956909466
0.4157943697786541 0.2461852281247916 -0.142423646688219
0.30325311364644286 0.47640562176939716 -0.142423646688219
0.6820291465077235 0.4115915434389256 -0.142423646688219
0.07759972567311119 0.3934711610233755 -0.14173465876367336
0.07717649023374751 0.40323510418265085 -0.14173465876367336
0.09455867130157015 0.4144852927220174 -0.14173465876367336
0.453609964151573 0.3258420748869033 -0.14173465876367336
0.4011386123551049 0.25995514393106794 -0.14173465876367336
0.07407604457329219 0.46622828585539444 -0.14173465876367336
0.07270791140883717 0.294040360826804 -0.14173465876367336
0.0671271092200176 0.5003725588589489 -0.14173465876367336
0.6081991690503409 0.42650321066302044 -0.14173465876367336
0.28044761334398244 0.44680866906784394 -0.14173465876367336
0.2840008224977105 0.4483342851864807 -0.14173465876367336
0.3167868050214464 0.45627733168802825 -0.14173465876367336
0.3228006853342662 0.5541923584505993 -0.14124252453185507
0.6820291465077235 0.4504799904372086 -0.14045510976094575
0.2801621754895277 0.4634428061033028 -0.14045510976094575
0.3228006853342662 0.24306509709506344 -0.14045510976094575
0.4443184698548434 0.3222396523099933 -0.1397661218364001
0.4068867401827426 0.2707722543464344 -0.1397661218364001
0.08752115178656841 0.29274112645480377 -0.1397661218364001
0.4547123448308461 0.333519368903269 -0.1397661218364001
0.49813826944649375 0.2808610060987097 -0.1397661218364001
0.44478107603275263 0.3271708373128127 -0.1397661218364001
0.31101899182453585 0.2612642209877046 -0.1397661218364001
0.30024125214771485 0.2566086311547034 -0.1397661218364001
0.5830806378583341 0.34011396760963436 -0.1397661218364001
0.2827606442335285 0.4450369858332981 -0.1397661218364001
0.3083909950266261 0.4536394922054821 -0.1397661218364001
0.30548740305889804 0.3410293372808163 -0.1397661218364001
0.3320134381539049 0.24891165176906505 -0.13927398760458182
0.7079547778399122 0.3856659121067372 -0.13848657283367252
0.3190506224878107 0.29491635975944064 -0.13848657283367252
0.3580374963324572 0.4748504775968513 -0.13848657283367252
0.4502732940598449 0.3335882676957235 -0.13779758490912689
0.4540233569063004 0.27950271561889123 -0.13779758490912689
0.1442248579766741 0.5121148816301337 -0.13779758490912689
0.5267214256305012 0.5043194753981317 -0.13779758490912689
0.45166111259357256 0.32995631706490436 -0.13779758490912689
0.5806494947531518 0.3265802762346308 -0.13779758490912689
0.47002756212503194 0.26555563148916034 -0.13779758490912689
0.31666869280581 0.25386252214115723 -0.13779758490912689
0.489732616767037 0.5181287619429535 -0.13779758490912689
0.2793846034032548 0.4469661520220259 -0.13779758490912689
0.3042570674793523 0.4496532049277538 -0.13779758490912689
0.338411183167543 0.3285389704772677 -0.13779758490912689
0.3329780212482688 0.5541923584505993 -0.13730545067730857
0.6301778838433464 0.3467774651084542 -0.13651803590639927
0.3576634743162753 0.3168360184446282 -0.13651803590639927
0.09609413010484333 0.40981986020437977 -0.13582904798185363
0.08017850904783913 0.5080990662984963 -0.13582904798185363
0.2042750769431443 0.35024209010045515 -0.13582904798185363
0.30908982563580806 0.4574781392136649 -0.13582904798185363
0.30247554156017004 0.3439132438792717 -0.13582904798185363
0.19090871120695896 0.2799456364275276 -0.13582904798185363
0.4395447678062058 0.2649552277263419 -0.13582904798185363
0.5579325786124186 0.4857955429124905 -0.13582904798185363
0.18222746335768406 0.28432563109071063 -0.13582904798185363
0.18199123892641125 0.5200579281316814 -0.13582904798185363
0.43554863784384107 0.2532719610629752 -0.13582904798185363
0.4341411339408407 0.46095260689030215 -0.13582904798185363
0.46829524962903146 0.4816222446266713 -0.13582904798185363
0.4681968227826677 0.3206254520296292 -0.13582904798185363
0.5523911471621443 0.5282667271184106 -0.13454949897912605
0.3579390694860935 0.2399449660653354 -0.13454949897912605
0.40193586981065044 0.554851818321236 -0.13454949897912605
0.08621207472993161 0.4141309560751082 -0.1338605110545804
0.3136863593609911 0.4595943164104837 -0.1338605110545804
0.19515090828523277 0.34599989302218137 -0.1338605110545804
0.22817311524024145 0.2747486989395263 -0.1338605110545804
0.4613856850143024 0.324975918638903 -0.1338605110545804
0.6328058806412563 0.38992779455428367 -0.1338605110545804
0.4529505042809366 0.2709691080391617 -0.1338605110545804
0.26338039818452336 0.5319872619109572 -0.1338605110545804
0.4743878714189421 0.2614413893111592 -0.1338605110545804
0.4481275888091172 0.33642296087099705 -0.1338605110545804
0.4976658205839483 0.2848374506918016 -0.1338605110545804
0.4693287315158499 0.3219148437169932 -0.1338605110545804
0.6431406995094407 0.307879175425535 -0.1325809620518528
0.3635100289902768 0.5575191858576911 -0.1325809620518528
0.29312499115562207 0.33381464944236 -0.1325809620518528
0.2813432976458917 0.44630669215138924 -0.13189197412730716
0.2870422120503478 0.4464641751055712 -0.13189197412730716
0.34815544095754547 0.3278893532912675 -0.13189197412730716
0.28909933313934827 0.26570327175870584 -0.13189197412730716
0.2835283736351651 0.5306388141157751 -0.13189197412730716
0.34437585005718085 0.2617071417963411 -0.13189197412730716
0.5513773506445985 0.29952273616926 -0.13189197412730716
0.460755753197575 0.3161371878354462 -0.13189197412730716
0.3430569303159078 0.5484737586768704 -0.13189197412730716
0.4707263927342139 0.5162586518620439 -0.13189197412730716
0.4712086842813959 0.31533008769526427 -0.13189197412730716
0.4486886218333899 0.24306509709506344 -0.13061242512457955
0.6172150681772522 0.5153039114523165 -0.13061242512457955
0.44231056218902465 0.43751717477111424 -0.13061242512457955
0.07228467596947351 0.3978609983711948 -0.1299234372000339
0.3129383153286273 0.45806870029184693 -0.1299234372000339
0.3427518070921805 0.4723110649606689 -0.1299234372000339
0.3082039840185351 0.40059726470010465 -0.1299234372000339
0.35925798922736657 0.5425090917872326 -0.1299234372000339
0.45672025249666476 0.2660772937748877 -0.1299234372000339
0.4658050504160308 0.28212086973216455 -0.1299234372000339
0.25883307788252224 0.5303829043152294 -0.1299234372000339
0.5565546027633272 0.2971408064872594 -0.1299234372000339
0.4615726960223934 0.3174364222074466 -0.1299234372000339
0.5429323272265966 0.301215677926715 -0.1299234372000339
0.37090188515218786 0.5585034543213276 -0.12943130296821562
0.6301778838433464 0.4504799904372086 -0.12864388819730632
0.37213222073173363 0.2301022814289692 -0.12864388819730632
0.6690663308416295 0.43751717477111424 -0.12864388819730632
0.1993143638864157 0.35378545656954696 -0.12795490027276069
0.2793846034032548 0.4499484854668448 -0.12795490027276069
0.3163930976359918 0.4566513537042102 -0.12795490027276069
0.5379617714852314 0.29382382176480404 -0.12795490027276069
0.4649585795373033 0.527951761210047 -0.12795490027276069
0.31043827343099023 0.2631638591225232 -0.12795490027276069
0.6452962474448048 0.3985991997189223 -0.12795490027276069
0.2778097738614363 0.2751916197481628 -0.12795490027276069
0.4476551399465716 0.478767866082125 -0.12795490027276069
0.540068105997414 0.4989552122713121 -0.12795490027276069
0.39683735916901275 0.5671551741166937 -0.12746276604094237
0.5264655158299558 0.541229542784505 -0.12667535127003307
0.3940518794169212 0.23712011557469825 -0.12667535127003307
0.4227629905012013 0.4504799904372086 -0.12667535127003307
0.2850539897538017 0.3565315655830931 -0.12598636334548743
0.34148210077408925 0.3322890333237232 -0.12598636334548743
0.31938527376544706 0.3385785088063612 -0.12598636334548743
0.4356765927441139 0.2569334397477035 -0.12598636334548743
0.385203305928828 0.540264959690141 -0.12598636334548743
0.3220034278787205 0.2612346929337955 -0.12598636334548743
0.5604719912486009 0.30188498048198803 -0.12598636334548743
0.46520464665321254 0.28240630758661917 -0.12598636334548743
0.4443479979087525 0.5278927051022289 -0.12598636334548743
0.48283289483694436 0.2809791183143461 -0.12598636334548743
0.40931788328792507 0.2301022814289692 -0.12549422911366911
0.5135027001638615 0.5671551741166937 -0.12470681434275983
0.41440655124492654 0.2301022814289692 -0.12470681434275983
0.45350169462057305 0.5023410957862222 -0.12470681434275983
0.2002986323500524 0.3525157502514557 -0.1240178264182142
0.34142304466627105 0.3322398199005413 -0.1240178264182142
0.31641278300526454 0.34024192250990704 -0.1240178264182142
0.4610215056827568 0.2610968953488864 -0.1240178264182142
0.3874179099720103 0.5413279696308686 -0.1240178264182142
0.3344150532051783 0.25857716808197667 -0.1240178264182142
0.6222151519725261 0.35783079995509354 -0.1240178264182142
0.4667696335103947 0.28428626035216514 -0.1240178264182142
0.3016389133660788 0.5400287352588685 -0.1240178264182142
0.47690759868585186 0.5176366277111352 -0.1240178264182142
0.4772717780173975 0.3147296839324458 -0.1240178264182142
0.4296134990081123 0.48687823822249077 -0.12273827741548658
0.6690663308416295 0.3313146075447229 -0.12273827741548658
0.49691777655158437 0.541229542784505 -0.12273827741548658
0.10083830409957184 0.3891108517294653 -0.12204928949094096
0.29962116301562375 0.4501551818442085 -0.12204928949094096
0.1906626440910499 0.44621810798966194 -0.12204928949094096
0.35997650520582136 0.25362629770988443 -0.12204928949094096
0.34205297648299854 0.5393299046496862 -0.12204928949094096
0.4000362316758318 0.2556342053757031 -0.12204928949094096
0.420440116927019 0.2503388410413381 -0.12204928949094096
0.45323594213539115 0.337043050003088 -0.12204928949094096
0.48968340334385524 0.5365444248975947 -0.12204928949094096
0.4664448249173946 0.4634428061033028 -0.12204928949094096
0.4821931203355806 0.31462141440144586 -0.12204928949094096
0.4277630742964755 0.48470300491785395 -0.12076974048821335
0.6301778838433464 0.29491635975944064 -0.12076974048821335
0.6172150681772522 0.48937828012012785 -0.12076974048821335
0.09691107292966171 0.41133563363838016 -0.12008075256366771
0.28898122092371187 0.3469152626933633 -0.12008075256366771
0.3048181005036252 0.33950372116217953 -0.12008075256366771
0.39719169581592195 0.24920693230815602 -0.12008075256366771
0.3736381514810976 0.5418397892319599 -0.12008075256366771
0.3527618173673649 0.2564216201466125 -0.12008075256366771
0.5700587660844217 0.30532992010471616 -0.12008075256366771
0.4680491825131224 0.31716082703762827 -0.12008075256366771
0.3274365897979947 0.5305403872694112 -0.12008075256366771
0.48223249107412597 0.47717335117103377 -0.12008075256366771
0.4802836395161255 0.31447377413190036 -0.12008075256366771
0.43572580616729567 0.4115915434389256 -0.11880120356094011
0.47461425316557854 0.24306509709506344 -0.11880120356094011
0.4486886218333899 0.5671551741166937 -0.11880120356094011
0.2812350281148917 0.35768315968554804 -0.11811221563639447
0.2793846034032548 0.45041109164475396 -0.11811221563639447
0.3014617450426242 0.46195656072321156 -0.11811221563639447
0.45772420632957417 0.5388771411564135 -0.11811221563639447
0.4507457429223905 0.32636373717263073 -0.11811221563639447
0.432320237283113 0.25593932859943047 -0.11811221563639447
0.4806379761630347 0.2604275927936135 -0.11811221563639447
0.4485803523023899 0.33129492217545026 -0.11811221563639447
0.4158238978325632 0.556062468531509 -0.11811221563639447
0.4817994129501259 0.5052643731232229 -0.11811221563639447
0.480647818847671 0.2752605185406173 -0.11811221563639447
0.6172150681772522 0.5048312949992229 -0.11683266663366686
0.5030891398185859 0.25602791276115777 -0.11683266663366686
0.33514341186826946 0.48227186181267145 -0.11683266663366686
0.1963123450723241 0.3517381781651828 -0.11614367870912122
0.20257229250105294 0.346826678531636 -0.11614367870912122
0.30260349646044266 0.47032284266412294 -0.11614367870912122
0.4730787943623055 0.5354026734797761 -0.11614367870912122
0.4169558065657454 0.5434343041430509 -0.11614367870912122
0.37611850800946195 0.2508112899038837 -0.11614367870912122
0.47649420593112446 0.2801523328048913 -0.11614367870912122
0.44463343576320713 0.5353042466334125 -0.11614367870912122
0.6576685020327172 0.3989338509965588 -0.11614367870912122
0.4903723912684008 0.2921308800073491 -0.11614367870912122
0.48232107523585327 0.2753392600177083 -0.11614367870912122
0.43829474685738723 0.5671551741166937 -0.11486412970639362
0.6431406995094407 0.307879175425535 -0.11486412970639362
0.43572580616729567 0.35974028077454856 -0.11486412970639362
0.20242465223150743 0.450785113660936 -0.11417514178184798
0.3147001558785367 0.33603909617017874 -0.11417514178184798
0.3419545496366348 0.4715827062975778 -0.11417514178184798
0.3077512205252623 0.40105002819337743 -0.11417514178184798
0.4545056484534824 0.32955276699481334 -0.11417514178184798
0.376364575125371 0.5460229302024153 -0.11417514178184798
0.40327447492119634 0.24834077606015573 -0.11417514178184798
0.4765434193543064 0.539349590018959 -0.11417514178184798
0.4303123296172943 0.24309462514897254 -0.11417514178184798
0.44813743149375346 0.33493671549090565 -0.11417514178184798
0.6464773696011689 0.3947408673414668 -0.11417514178184798
0.6690663308416295 0.42455435910502 -0.11289559277912037
0.6301778838433464 0.33381464944236 -0.11289559277912037
0.43572580616729567 0.3856659121067372 -0.11289559277912037
0.48354156813076277 0.3147592119863549 -0.11220660485457475
0.4307454077412944 0.5425189344718689 -0.11220660485457475
0.3996129962364681 0.2526518719308842 -0.11220660485457475
0.6556704370515348 0.40108939893192297 -0.11220660485457475
0.3692876848718238 0.26067365990952257 -0.11220660485457475
0.4502634513752086 0.3367280840947243 -0.11220660485457475
0.4848703305566721 0.47527371303621513 -0.11220660485457475
0.2042750769431443 0.45067684412993586 -0.11220660485457475
0.31570410971144613 0.33359811038035986 -0.11220660485457475
0.3481160702190001 0.4607262251436658 -0.11220660485457475
0.3493365631139095 0.4569761622972103 -0.11220660485457475
0.6431406995094407 0.307879175425535 -0.11092705585184713
0.44399366126184336 0.3986287277728314 -0.11092705585184713
0.47708476700930647 0.2647190032950691 -0.1102380679273015
0.4367789734233869 0.5431488662885964 -0.1102380679273015
0.4706378085724866 0.2604177501089771 -0.1102380679273015
0.4036681823066509 0.5534147863643264 -0.1102380679273015
0.6615366770948091 0.39776257152483124 -0.1102380679273015
0.5567809845099636 0.49784298890740275 -0.1102380679273015
0.4863861039906726 0.2728982742278895 -0.1102380679273015
0.19332016894286874 0.35069485359372793 -0.1102380679273015
0.29929635442262364 0.34599989302218137 -0.1102380679273015
0.3147296839324458 0.4549682546313916 -0.1102380679273015
0.5523911471621443 0.5282667271184106 -0.10895851892457391
0.5145558674199526 0.25602791276115777 -0.10895851892457391
0.48398448893939927 0.5263966170375011 -0.10826953100002827
0.5117802303524973 0.5251761241425917 -0.10826953100002827
0.39558733822019426 0.251785715682884 -0.10826953100002827
0.4373793771862053 0.25817361801188565 -0.10826953100002827
0.4524485273644819 0.46493889416803047 -0.10826953100002827
0.4146821464147447 0.5581491176744184 -0.10826953100002827
0.49306928685876517 0.5174889874415897 -0.10826953100002827
0.2812350281148917 0.4407160472779333 -0.10826953100002827
0.20132227155223448 0.3471908578631816 -0.10826953100002827
0.1939599434442325 0.4407160472779333 -0.10826953100002827
0.18557397613404847 0.3483916653888183 -0.10826953100002827
0.6949919621738179 0.42705440100265707 -0.10698998199730066
0.3568268461221841 0.31605844635835534 -0.10698998199730066
0.4526552237418456 0.3277810837602675 -0.106300994072755
0.4044260690236511 0.5495564539868708 -0.106300994072755
0.44406256005429784 0.2539018928797028 -0.106300994072755
0.6495679725769881 0.37855949379928067 -0.106300994072755
0.39713263970810375 0.2415296382917904 -0.106300994072755
0.4501256537902994 0.4621238863620297 -0.106300994072755
0.4614939545453024 0.39470149660292125 -0.106300994072755
0.19333985431214143 0.4456964457039346 -0.106300994072755
0.30900124147408076 0.33345047011081436 -0.106300994072755
0.3409309104344527 0.4667105774025765 -0.106300994072755
0.35196455991181924 0.33996632734008886 -0.106300994072755
0.6431406995094407 0.3467774651084542 -0.10502144507002742
0.43572580616729567 0.3986287277728314 -0.10502144507002742
0.48008678582339825 0.2630457469068868 -0.10433245714548178
0.4445940650246616 0.543591787097233 -0.10433245714548178
0.42137517196747376 0.2513526375588839 -0.10433245714548178
0.5806987081763335 0.492498411149856 -0.10433245714548178
0.596033610839792 0.3119638895496269 -0.10433245714548178
0.5018194335004948 0.2819535440933464 -0.10433245714548178
0.6519991156821704 0.3931758804842845 -0.10433245714548178
0.20321206700241673 0.35500594946445635 -0.10433245714548178
0.20156833866814355 0.3469152626933633 -0.10433245714548178
0.24830140532161035 0.34625580282272683 -0.10433245714548178
0.18725707520686716 0.45418083986048235 -0.10433245714548178
0.6431406995094407 0.448826419418299 -0.10305290814275417
0.30345981002380656 0.31950338598108347 -0.10305290814275417
0.45818681250748333 0.33299770661754147 -0.10236392021820855
0.4913861877859466 0.5112093546435881 -0.10236392021820855
0.4446137503939344 0.25354755623279357 -0.10236392021820855
0.6448926973747139 0.36813609076936893 -0.10236392021820855
0.44376727951520684 0.23857683290088055 -0.10236392021820855
0.44984021593584483 0.317662803954083 -0.10236392021820855
0.48486048787203584 0.47077560615739567 -0.10236392021820855
0.6550995613426257 0.3979889532714676 -0.10236392021820855
0.2804574560286187 0.3550157921490928 -0.10236392021820855
0.19880254428532473 0.3486672605586366 -0.10236392021820855
0.1938319885439597 0.3565315655830931 -0.10236392021820855
0.1853869651259576 0.3478109469952727 -0.10236392021820855
0.6949919621738179 0.43751717477111424 -0.10108437121548093
0.3566595204833659 0.31591080608880984 -0.10108437121548093
0.45441706429175516 0.32835195946917667 -0.1003953832909353
0.4384522298115691 0.5450091336848698 -0.1003953832909353
0.446995680075935 0.2521400523297932 -0.1003953832909353
0.504457272983041 0.5345463599164123 -0.1003953832909353
0.6141441505707059 0.32615704079526703 -0.1003953832909353
0.4611789886369387 0.4654310283998489 -0.1003953832909353
0.4974099107834027 0.469062979030668 -0.1003953832909353
0.2793846034032548 0.35467129818681997 -0.1003953832909353
0.2826622173871648 0.34602942107609047 -0.1003953832909353
0.3385686661217249 0.46493889416803047 -0.1003953832909353
0.3008810266490786 0.33599972543163326 -0.1003953832909353
0.6326090269485289 0.4634428061033028 -0.0991158342882077
0.2801621754895277 0.32085183377626564 -0.0991158342882077
0.49412245411485634 0.4785021135969431 -0.09842684636366206
0.5301466798839568 0.5206189611559542 -0.09842684636366206
0.4506374733913905 0.4712578977045777 -0.09842684636366206
0.58474405156188 0.4921637598722195 -0.09842684636366206
0.6201285028296166 0.3314031917064502 -0.09842684636366206
0.46216325710057526 0.4486984645180263 -0.09842684636366206
0.48821684333303667 0.36152180669373085 -0.09842684636366206
0.5105597374575879 0.48879756172658223 -0.09842684636366206
0.19391073002105072 0.44253694393566106 -0.09842684636366206
0.2871701669506205 0.451483944270118 -0.09842684636366206
0.1936056067973233 0.3425844814533622 -0.09842684636366206
0.2968258405788958 0.4479504204856624 -0.09842684636366206
0.6552668869814439 0.43751717477111424 -0.09714729736093444
0.3568366888068205 0.32085183377626564 -0.09714729736093444
0.5011107602066764 0.48158287388812576 -0.0964583094363888
0.6018309520906118 0.47425991651866933 -0.0964583094363888
0.4488953182107536 0.2515593339362476 -0.0964583094363888
0.5078234711286782 0.5344971464932305 -0.0964583094363888
0.5750982206182413 0.2931446765248948 -0.0964583094363888
0.4615136399145752 0.3316984722455412 -0.0964583094363888
0.48821684333303667 0.42632604233956584 -0.0964583094363888
0.5227154529835003 0.276648337074345 -0.0964583094363888
0.19788717461414265 0.45160205648575436 -0.0964583094363888
0.30873548898889885 0.33318471762563245 -0.0964583094363888
0.34064547257999817 0.46696648720312195 -0.0964583094363888
0.3384013404829066 0.3229187975499026 -0.0964583094363888
0.4810808969716712 0.48856133729530943 -0.0951787604336612
0.47461425316557854 0.2415591663456995 -0.0951787604336612
0.43763528698675075 0.4001937146300137 -0.0951787604336612
0.45567692792521003 0.40720170609110634 -0.09448977250911557
0.49310865759731065 0.5354617295875943 -0.09448977250911557
0.4486394084102081 0.32569443461735786 -0.09448977250911557
0.5045753851986774 0.5139456209724979 -0.09448977250911557
0.658387018011172 0.37454367846764325 -0.09448977250911557
0.4843092975323992 0.37188615361582444 -0.09448977250911557
0.519319726783954 0.31620608662790084 -0.09448977250911557
0.531987261910957 0.32355857205126637 -0.09448977250911557
0.5162094384388622 0.5236308226546821 -0.09448977250911557
0.2008399800050525 0.34611800523781777 -0.09448977250911557
0.28912886119325737 0.34556681489818114 -0.09448977250911557
0.3146115717168094 0.340940753119089 -0.09448977250911557
0.4398498910299331 0.3727030964406428 -0.09399763827729725
0.6042522525111579 0.5282667271184106 -0.09321022350638795
0.4547517155693915 0.3109500930320812 -0.09321022350638795
0.4306076101563853 0.47640562176939716 -0.09321022350638795
0.1949540545925055 0.4441413015313887 -0.09252123558184233
0.28315435161898306 0.4511000795692997 -0.09252123558184233
0.19453081915314183 0.3421120325908166 -0.09252123558184233
0.2891780746164393 0.4486689364641172 -0.09252123558184233
0.45410209838339144 0.4163947735414725 -0.09252123558184233
0.49061845838431 0.2613724905187047 -0.09252123558184233
0.5032564654574043 0.26429576785570547 -0.09252123558184233
0.631910196339347 0.34535027583618116 -0.09252123558184233
0.6658280875962649 0.3844158911579186 -0.09252123558184233
0.5262686621372284 0.31540882917235513 -0.09252123558184233
0.2801621754895277 0.3317378429840866 -0.09124168657911472
0.45239931394130006 0.48937828012012785 -0.09124168657911472
0.6481014125661695 0.3467774651084542 -0.09124168657911472
