0.4083988180583635 0.12772431354594863 -0.1757674039623147
0.45377284789604244 0.18737363254141354 -0.1757674039623147
0.27281612057864985 0.20750783516460983 -0.1757674039623147
0.43591711162050567 0.3497120348465017 -0.17455842181865855
0.4114119735548603 0.04113329247223893 -0.17455842181865855
0.19881711352425108 0.273155565565138 -0.17390743143361292
0.556415431892448 0.2437401000237198 -0.17390743143361292
0.3401378262550095 0.5489336923957452 -0.17390743143361292
0.29690276482533745 0.26035895456766994 -0.17390743143361292
0.4582274821022831 0.14037212674112048 -0.17390743143361292
0.27250922511141407 0.5498729785227396 -0.17390743143361292
0.4448728793462046 0.5366020745304527 -0.17390743143361292
0.4760367190646022 0.28423170197355674 -0.17390743143361292
0.4626263171326627 0.1926373547976395 -0.17390743143361292
0.27396000368380147 0.2065499493123285 -0.17390743143361292
0.5049778916112015 0.13076536863037597 -0.17390743143361292
0.23251051588168306 0.12829160516720262 -0.17390743143361292
0.20131877657535485 0.14753302097662216 -0.17269844928995684
0.29603787759949113 0.5011323984081105 -0.17269844928995684
0.19570165953867558 0.28384110774252946 -0.17204745890491122
0.5495335335362518 0.28634277079363324 -0.17204745890491122
0.28519423775716 0.3485216524281326 -0.17204745890491122
0.40276310129639714 0.24423299274382587 -0.17204745890491122
0.2503197528440023 0.15967864158904452 -0.17204745890491122
0.22713519527373513 0.3600255825181528 -0.17204745890491122
0.4171313890806181 0.11821055406163926 -0.17204745890491122
0.2333940028328164 0.14378517633128823 -0.17204745890491122
0.4364658035164728 0.15761407208218564 -0.17204745890491122
0.5430980285869437 0.09109215459316775 -0.17204745890491122
0.23513307714715262 0.11202614540370591 -0.17204745890491122
0.28824459270423086 0.36390362524049596 -0.17083847676125508
0.4848157894000746 0.32521619664349977 -0.17083847676125508
0.16907615279031013 0.2905649084337863 -0.17018748637620945
0.35821675923399043 0.5500496759129663 -0.17018748637620945
0.5472550671885921 0.2855429826062915 -0.17018748637620945
0.22746069046625791 0.13715437426646643 -0.17018748637620945
0.39727618233672696 0.3498329330608672 -0.17018748637620945
0.4528056621811175 0.21055819011168073 -0.17018748637620945
0.3930633445592176 0.3687023543645465 -0.17018748637620945
0.4672297491411997 0.1705501810193063 -0.17018748637620945
0.45474933347361085 0.16528645876308035 -0.17018748637620945
0.45153158099895685 0.049679866241623544 -0.17018748637620945
0.2537886016100311 0.20679174574105968 -0.17018748637620945
0.23133873318860104 0.12074011670067356 -0.17018748637620945
0.28043270808368354 0.2639673012733514 -0.16897850423255334
0.4310625833205942 0.2762152203748523 -0.16897850423255334
0.5094139260921552 0.27875408287653014 -0.16832751384750771
0.5506960163666903 0.04599712063479408 -0.16832751384750771
0.46012465408155895 0.0722878323279932 -0.16832751384750771
0.3013015998557171 0.35779361548371075 -0.16832751384750771
0.22497762714044112 0.23108298696590454 -0.16832751384750771
0.28823529284158733 0.22173662500917818 -0.16832751384750771
0.33705957172000806 0.06900498081483454 -0.16832751384750771
0.20476902561609667 0.12203279760812136 -0.16832751384750771
0.2293950618961077 0.13436441547341385 -0.16832751384750771
0.19301399923470156 0.29310377093546414 -0.16832751384750771
0.40056833371252915 0.5097812706665737 -0.16832751384750771
0.48624796824717487 0.30072035844049777 -0.1671185317038516
0.25217972537270406 0.37420787304950365 -0.1671185317038516
0.5260327806361051 0.2533654578597514 -0.16646754131880598
0.5796278890506459 0.051911833276065585 -0.16646754131880598
0.4610732400711969 0.07016746364527314 -0.16646754131880598
0.34657333120431744 0.3629922387014321 -0.16646754131880598
0.22179707411636101 0.3041520077559525 -0.16646754131880598
0.2911182502610751 0.22071364011839223 -0.16646754131880598
0.3363899816096754 0.06798199592404859 -0.16646754131880598
0.3179018546743801 0.244511988623131 -0.16646754131880598
0.21426418537511907 0.03507908189131479 -0.16646754131880598
0.21270180845100956 0.12264658854259282 -0.16646754131880598
0.28710070959907924 0.4970497587076103 -0.16646754131880598
0.4032559940165031 0.4109516303540065 -0.1652585591751498
0.45262896479089093 0.14568234831056395 -0.1652585591751498
0.30041811290458376 0.4782454364424355 -0.1652585591751498
0.5532813781815857 0.25917787201194437 -0.16460756879010421
0.5894299442769041 0.05337191171109642 -0.16460756879010421
0.38463766900419866 0.43753063778915446 -0.16460756879010421
0.4686805277135868 0.33139130543878953 -0.16460756879010421
0.4243666822172679 0.2985627903072038 -0.16460756879010421
0.2822461812991677 0.35121861259475 -0.16460756879010421
0.3290895894345211 0.22019284781035578 -0.16460756879010421
0.23236171807938702 0.12722212096319915 -0.16460756879010421
0.24202427536599258 0.06965597119988022 -0.16460756879010421
0.16159906322492912 0.271053796607705 -0.16460756879010421
0.383968078893866 0.5118923394866502 -0.16339858664644813
0.28857008789675365 0.44770468752115294 -0.16339858664644813
0.49715670712801063 0.17823186756284445 -0.16339858664644813
0.5236241162114365 0.2968981148940157 -0.1627475962614025
0.4463236579185919 0.061499991661523125 -0.1627475962614025
0.5477386600460544 0.08192249002666824 -0.1627475962614025
0.39350973796610605 0.3505583223470609 -0.1627475962614025
0.21753773702563403 0.2917459909895118 -0.1627475962614025
0.3189992384663142 0.22094613668448002 -0.1627475962614025
0.2834458635801803 0.270049411442206 -0.1627475962614025
0.1770461350757971 0.2894396250539216 -0.1627475962614025
0.2333289037943119 0.12634793387470938 -0.1627475962614025
0.22743279087832738 0.10792490597791854 -0.1627475962614025
0.4703917024399924 0.1657142524446817 -0.16153861411774634
0.25217972537270406 0.32521619664349977 -0.16153861411774634
0.3974435798643101 0.5007511040397268 -0.16088762373270074
0.4513083842955126 0.006984196845274957 -0.16088762373270074
0.4687084273015175 0.09358451778162809 -0.16088762373270074
0.3006506094706715 0.35655673375212404 -0.16088762373270074
0.15487526253367231 0.2713048928990796 -0.16088762373270074
0.40566465844117183 0.2354260228204231 -0.16088762373270074
0.4703917024399924 0.36018368018309244 -0.16088762373270074
0.3933237407132358 0.2156917142908976 -0.16088762373270074
0.12487390564571321 0.042974665275653724 -0.16088762373270074
0.23215712110122977 0.10176839690791585 -0.16088762373270074
0.20318804896670017 0.3129682775419987 -0.1596786415890446
0.4700569073848261 0.17823186756284445 -0.1596786415890446
0.35387372337947187 0.5322590386759343 -0.159027651203999
0.46812253595497627 0.10493965006935226 -0.159027651203999
0.5286460420389311 0.0985041451200443 -0.159027651203999
0.19119122615657386 0.2928712743693764 -0.159027651203999
0.2845804468226884 0.2890583306855378 -0.159027651203999
0.22208536985830984 0.27086779935483474 -0.159027651203999
0.23191532467249856 0.3453317995414091 -0.159027651203999
0.2952752888627235 0.27575022724267684 -0.159027651203999
0.12190724946243392 0.04859178231233298 -0.159027651203999
0.22462423235998769 0.038417732580334506 -0.159027651203999
0.32567653984435335 0.6436806930078122 -0.15781866906034286
0.463435405182648 0.15373602935984249 -0.15781866906034286
0.23993180627120303 0.3129682775419987 -0.15781866906034286
0.5298085248693697 0.25326315937067273 -0.15716767867529727
0.48286281824493765 0.12326037947706442 -0.15716767867529727
0.46871772716416105 0.07043715966193499 -0.15716767867529727
0.15753502324971583 0.28279952312645645 -0.15716767867529727
0.47365595422786394 0.26974251597497023 -0.15716767867529727
0.42333439746383844 0.30772315501105985 -0.15716767867529727
0.41289995157782167 0.23649550702442654 -0.15716767867529727
0.4126581551490905 0.31807390213328507 -0.15716767867529727
0.25031045298135873 0.0638714566356178 -0.15716767867529727
0.24149418319531257 0.05007976033529434 -0.15716767867529727
0.4156248113323698 0.3497120348465017 -0.1559586965316411
0.31342862074285244 0.0067517002791873185 -0.1559586965316411
0.2828506723709958 0.5211922021301589 -0.1559586965316411
0.5231591230792609 0.24912472049431142 -0.1553077061465955
0.5644040139032221 0.0744825999118613 -0.1553077061465955
0.5273626609941269 0.10093140927000002 -0.1553077061465955
0.3253324449265436 0.06362036034424307 -0.1553077061465955
0.21694254581644953 0.29140189607170197 -0.1553077061465955
0.2954612861155936 0.251384587116684 -0.1553077061465955
0.28705421028586176 0.25660181005969246 -0.1553077061465955
0.1631335405611081 0.2730067677628418 -0.1553077061465955
0.23475178277876865 0.08145749689449283 -0.1553077061465955
0.2828506723709958 0.5211922021301589 -0.1548427130144201
0.28731460643987994 0.24178712886858303 -0.1540987240029394
0.4944318473734625 0.2517193821718503 -0.1540987240029394
0.27706615780673344 0.5099858676447309 -0.1534477336178938
0.5303479169026931 0.2595126670671107 -0.1534477336178938
0.5460181854570053 0.07277142518545558 -0.1534477336178938
0.3835495850749081 0.3705344273053176 -0.1534477336178938
0.4717401825233013 0.3112943022661672 -0.1534477336178938
0.4611941382855624 0.20751713502725339 -0.1534477336178938
0.47631571494390745 0.32011987191485697 -0.1534477336178938
0.28283207264570875 0.19663629573434818 -0.1534477336178938
0.17753902779590316 0.10065241339069475 -0.1534477336178938
0.2272188940375267 0.0952305934695292 -0.1534477336178938
0.20837737232177797 0.01899961938068823 -0.15223875147423763
0.2889327825398505 0.028885373370738016 -0.15223875147423763
0.338082556610794 0.5211922021301589 -0.15223875147423763
0.5168073168937446 0.30004146846752155 -0.15158776108919203
0.4988027828159116 0.1138489184818336 -0.15158776108919203
0.4806494509357826 0.08708391379381551 -0.15158776108919203
0.4135137425122933 0.19796617609236994 -0.15158776108919203
0.30876938955845457 0.23289646018138868 -0.15158776108919203
0.3055423372211571 0.2312131850429136 -0.15158776108919203
0.44674215173754983 0.15901835134135542 -0.15158776108919203
0.21300870391824533 0.27729400444149926 -0.15158776108919203
0.22375934513414147 0.11040796930373546 -0.15158776108919203
0.3011807016413514 0.5211922021301589 -0.15112276795701662
0.37887175416522323 0.4231995494555076 -0.1503787789455359
0.3746682162503573 0.5456880403331608 -0.1503787789455359
0.5051917884520022 0.2674733494899541 -0.1497277885604903
0.5015648420210337 0.03091274342702295 -0.1497277885604903
0.5271208645653958 0.09565838715113052 -0.1497277885604903
0.2958239807586905 0.08364296461571738 -0.1497277885604903
0.286821713719774 0.2660225709175667 -0.1497277885604903
0.15836271102498808 0.28574757958444874 -0.1497277885604903
0.23492848016899537 0.17996164201453713 -0.1497277885604903
0.16769047325642733 0.043346659781394 -0.1497277885604903
0.1835746386515402 0.09072016008742748 -0.1497277885604903
0.26443694433684856 0.06562913067524088 -0.14851880641683415
0.487001257121299 0.30072035844049777 -0.14851880641683415
0.3661309423436164 0.5442930609366344 -0.14851880641683415
0.5346072539934201 0.2800374639213344 -0.14786781603178856
0.49179998624534965 0.034548989720634776 -0.14786781603178856
0.20529911778677667 0.28535698535342136 -0.14786781603178856
0.28129759530952986 0.225735565945887 -0.14786781603178856
0.20741018660685306 0.24112683862089393 -0.14786781603178856
0.22384304389793305 0.17768317566687744 -0.14786781603178856
0.2384903275614592 0.18251910424150194 -0.14786781603178856
0.22780478538406765 0.10475365281648212 -0.14786781603178856
0.393453938790245 0.5211922021301589 -0.1474028228996131
0.25217972537270406 0.3030732236893055 -0.14665883388813242
0.41142127341750373 0.4861782192773485 -0.14665883388813242
0.5422610409490278 0.28530118617756034 -0.1460078435030868
0.4728282664525917 0.09481209965057129 -0.1460078435030868
0.5173374090644244 0.09269173096785134 -0.1460078435030868
0.2904672598760294 0.254090847145945 -0.1460078435030868
0.27719635588374253 0.22606106113840976 -0.1460078435030868
0.16067837682322186 0.25924297105044886 -0.1460078435030868
0.30741160961250225 0.21282735659669685 -0.1460078435030868
0.12528309960202758 0.04473233931527681 -0.1460078435030868
0.2158079625739415 0.09256153289084214 -0.1460078435030868
0.37755117366984503 0.5089442830286579 -0.14479886135943068
0.31342862074285244 0.3987037112525056 -0.14479886135943068
0.4995746714153228 0.2936896622820052 -0.14414787097438506
0.48387650327308024 0.089213582339179 -0.14414787097438506
0.1866900926371157 0.29074160582401287 -0.14414787097438506
0.4727259679635131 0.22346639946087088 -0.14414787097438506
0.4160340052886841 0.22809773105733824 -0.14414787097438506
0.42286940433166303 0.2637720041578377 -0.14414787097438506
0.41157937108244347 0.2638092036084116 -0.14414787097438506
0.23072494225412946 0.10014092094530185 -0.14414787097438506
0.3048169479349634 0.4980913433236832 -0.14368287784220962
0.41487152245824555 0.4354474685570085 -0.14293888883072892
0.3869161353518583 0.016637454269236972 -0.14293888883072892
0.5014532436693115 0.2616423356124742 -0.14228789844568332
0.4857457756644254 0.06323906597585924 -0.14228789844568332
0.1989380117386166 0.2727091721582495 -0.14228789844568332
0.21109293221368253 0.23736969411291645 -0.14228789844568332
0.4167779943001648 0.2565088114332573 -0.14228789844568332
0.4828535183822941 0.2301344009762666 -0.14228789844568332
0.24127098649186834 0.18644364627706259 -0.14228789844568332
0.23860192591318127 0.020450397953075645 -0.14228789844568332
0.42711014169710304 0.2517193821718503 -0.14182290531350789
0.47519973142668664 0.2895698231309308 -0.14107891630202718
0.2714769403579847 0.3897944428400241 -0.14107891630202718
0.5186207901092287 0.29489864442566127 -0.14042792591698158
0.47793389104387807 0.08526114071568783 -0.14042792591698158
0.3081276990360524 0.36665638458297445 -0.14042792591698158
0.2231455541996699 0.19891476208200787 -0.14042792591698158
0.16797876899837616 0.27622452023749583 -0.14042792591698158
0.2916762420196856 0.44385454438674043 -0.14042792591698158
0.253770001884744 0.15614469378451123 -0.14042792591698158
0.2359886645103554 0.024905032159316314 -0.14042792591698158
0.3886459098035509 0.4844484448256558 -0.13996293278480612
0.475171831838756 0.17508851398933856 -0.13921894377332544
0.39826196777693895 0.4844484448256558 -0.13921894377332544
0.5286367421762875 0.29629362382218766 -0.13856795338827985
0.5356302388842061 0.07595197820953556 -0.13856795338827985
0.39204035966843165 0.35934669254517676 -0.13856795338827985
0.29448480053802517 0.24317280840246583 -0.13856795338827985
0.3523020465927188 0.036557760051632734 -0.13856795338827985
0.4134114440232147 0.10035481778610252 -0.13856795338827985
0.19580395802775427 0.0927475301437124 -0.13856795338827985
0.18930335403994156 0.2975677050043483 -0.13856795338827985
0.2889327825398505 0.48748020004743986 -0.13810296025610438
0.25217972537270406 0.38645579215100456 -0.1373589712446237
0.4928229711361355 0.2517193821718503 -0.1373589712446237
0.49649641688032153 0.28602657546375404 -0.13670798085957808
0.5252515921740504 0.09791825377350322 -0.13670798085957808
0.41947495446678223 0.18487196949030965 -0.13670798085957808
0.2940384071311367 0.35144180929819424 -0.13670798085957808
0.27314161577117263 0.22461028256602247 -0.13670798085957808
0.2705562539562773 0.17874336000823748 -0.13670798085957808
0.23408219266843613 0.02807628532075273 -0.13670798085957808
0.1388236996109763 0.05688725979034272 -0.13670798085957808
0.18824316969858168 0.2709700978439134 -0.13670798085957808
0.4726608689250085 0.17188006137732806 -0.13624298772740265
0.2720070325286646 0.32521619664349977 -0.13549899871592197
0.27804264338430174 0.5211922021301589 -0.13549899871592197
0.5469016724081387 0.06357386103102557 -0.13484800833087635
0.5287111410774357 0.030466350020134515 -0.13484800833087635
0.27587577538836433 0.09587228399193132 -0.13484800833087635
0.29829774422186384 0.06800989551197913 -0.13484800833087635
0.4194842543294258 0.2353423240566315 -0.13484800833087635
0.41861936710357944 0.10884559237962593 -0.13484800833087635
0.14519410552177978 0.042277175577390545 -0.13484800833087635
0.18492311873484907 0.2967121176411456 -0.13484800833087635
0.3010412037016988 0.500081513929394 -0.13484800833087635
0.4849087880265096 0.3129682775419987 -0.1336390261872202
0.2305203452759722 0.28847243933899674 -0.1336390261872202
0.2889327825398505 0.5334401212316597 -0.1336390261872202
0.4936320591861209 0.07739345691927942 -0.13298803580217458
0.49563152965447504 0.07504059167047171 -0.13298803580217458
0.42466427782186017 0.2906858066481518 -0.13298803580217458
0.3986897614585403 0.38566530382630637 -0.13298803580217458
0.28151149215033056 0.3097598249299882 -0.13298803580217458
0.3110478559061142 0.1943020302108276 -0.13298803580217458
0.4327086590084952 0.17462352085716315 -0.13298803580217458
0.14497090881833558 0.0588123313575491 -0.13298803580217458
0.18621579964229673 0.2599962599245731 -0.13298803580217458
0.29246673034438375 0.4872012041681346 -0.13252304266999917
0.4636586018860922 0.23947146307034942 -0.13177905365851847
0.2666875110965777 0.29421045459004164 -0.13177905365851847
0.31342862074285244 0.5211922021301589 -0.13177905365851847
0.48461119242191747 0.03440949178098214 -0.13112806327347284
0.4916976877562711 0.028978371997173152 -0.13112806327347284
0.2875936023191852 0.27272777188353653 -0.13112806327347284
0.382889294827219 0.44663520331714934 -0.13112806327347284
0.3890830033477959 0.45398209480552143 -0.13112806327347284
0.4693222182359891 0.204875974036497 -0.13112806327347284
0.28902578116628563 0.2614470384969605 -0.13112806327347284
0.2327151128598403 0.021036289299616717 -0.13112806327347284
0.23143173181503607 0.050544753467469755 -0.13112806327347284
0.2816416902273396 0.4958221768386671 -0.13112806327347284
0.39826196777693895 0.517611755012408 -0.1306630701412974
0.44635155750652244 0.19073088295572024 -0.1299190811298167
0.37887175416522323 0.4231995494555076 -0.1299190811298167
0.5258374835205916 0.2724301762789443 -0.1292680907447711
0.3036916645550989 0.4405344934230077 -0.1292680907447711
0.29269922691047157 0.35047462358326936 -0.1292680907447711
0.41448092822721816 0.3351298502214799 -0.1292680907447711
0.530747810996364 0.02264516553694361 -0.1292680907447711
0.24814358498542133 0.1460450429536608 -0.1292680907447711
0.4157550094093789 0.08240608288413062 -0.1292680907447711
0.13779141485754692 0.05298131748006904 -0.1292680907447711
0.17569765499248838 0.06617782257120801 -0.1292680907447711
0.19492047107662094 0.30401250981629985 -0.1292680907447711
0.31342862074285244 0.5211922021301589 -0.12880309761259567
0.16644429166219715 0.2517193821718503 -0.12805910860111497
0.4114119735548603 0.43780963366845976 -0.12805910860111497
0.3624202971488564 0.6069369357033093 -0.12805910860111497
0.3027709781533915 0.372003805602992 -0.12740811821606937
0.4283191238407591 0.37361268184031904 -0.12740811821606937
0.4176056820754371 0.22280610921318178 -0.12740811821606937
0.4843042969546815 0.21983945302990246 -0.12740811821606937
0.4918278858332801 0.04649001335490002 -0.12740811821606937
0.3389102443860663 0.030782545350013735 -0.12740811821606937
0.3473080203531547 0.039794112251573754 -0.12740811821606937
0.14268314260803247 0.052200129018014414 -0.12740811821606937
0.19037283824394516 0.2907881051372305 -0.12740811821606937
0.2889327825398505 0.5194810274037531 -0.12694312508389394
0.41210016339047995 0.06799129578669215 -0.12619913607241323
0.37887175416522323 0.4109516303540065 -0.12619913607241323
0.31342862074285244 0.5579359594346618 -0.12619913607241323
0.2827855733324912 0.3743659707144433 -0.12554814568736763
0.492320778553386 0.26992851322784034 -0.12554814568736763
0.29896733433219636 0.34707087385574514 -0.12554814568736763
0.3335907229539793 0.36024877922159704 -0.12554814568736763
0.45988285765282777 0.18530906303455452 -0.12554814568736763
0.517765202746026 0.023826248092669304 -0.12554814568736763
0.2854360341858912 0.1629428933769162 -0.12554814568736763
0.3001763164758526 0.13071886931715848 -0.12554814568736763
0.14597529398383455 0.05374390621683683 -0.12554814568736763
0.3357482910872733 0.5211922021301589 -0.1250831525551922
0.4415435285198285 0.0924871339896941 -0.1243391635437115
0.42897011422580467 0.3307031156031698 -0.1243391635437115
0.3496608856019624 0.5131385210808803 -0.1243391635437115
0.22600991189387049 0.2861381738154761 -0.12368817315866588
0.16743007710240917 0.04467654013941575 -0.12368817315866588
0.26131219048862964 0.10234498839181336 -0.12368817315866588
0.2705469540936337 0.1388562491302286 -0.12368817315866588
0.5552343493367226 0.0347907861493661 -0.12368817315866588
0.46581617001938624 0.20378789010720644 -0.12368817315866588
0.28896998199042456 0.2927410762923673 -0.12368817315866588
0.31301012692389457 0.3434811268753508 -0.12368817315866588
0.4280773274120279 0.37836491165115194 -0.12368817315866588
0.32132420412719137 0.4928834202433183 -0.12322318002649045
0.2201416985658165 0.15373602935984249 -0.12247919101500976
0.3165161751404973 0.1732936404991414 -0.12247919101500976
0.27668486343834947 0.44770468752115294 -0.12247919101500976
0.4342896356578917 0.3811269708562741 -0.12247919101500976
0.2092794589981984 0.3067466694334914 -0.12182820062996415
0.4280773274120279 0.3734731839006664 -0.12182820062996415
0.41057498591694447 0.2235407983620189 -0.12182820062996415
0.41776377974037665 0.22205282033905754 -0.12182820062996415
0.4461934598415828 0.1539592260632867 -0.12182820062996415
0.24112218868957216 0.16097132249649232 -0.12182820062996415
0.23179442645813292 0.15638649021324244 -0.12182820062996415
0.29387100960355356 0.08767910500300014 -0.12182820062996415
0.17766922587291226 0.05625486913058415 -0.12182820062996415
0.39916405445335923 0.4109516303540065 -0.1213632074977887
0.29246673034438375 0.41410428379015596 -0.12061921848630802
0.2972747593310779 0.3954952586404951 -0.12061921848630802
0.30208278831777186 0.17034558404114905 -0.12061921848630802
0.27970731879748983 0.13533160118833876 -0.11996822810126241
0.30896468667396826 0.14965338965934222 -0.11996822810126241
0.3184691462956342 0.11998682782654944 -0.11996822810126241
0.16546780608462885 0.06805639482519675 -0.11996822810126241
0.2284743754944003 0.2623677248986678 -0.11996822810126241
0.4948038418792028 0.29599602821759524 -0.11996822810126241
0.3927378493666947 0.34834495503790586 -0.11996822810126241
0.3939933308235684 0.3573844215273963 -0.11996822810126241
0.5034341144123792 0.06733100553900305 -0.11996822810126241
0.3357482910872733 0.4844484448256558 -0.11950323496908696
0.26443694433684856 0.19047978666434548 -0.11875924595760629
0.4817282350024297 0.2517193821718503 -0.11875924595760629
0.4078780257503269 0.4231995494555076 -0.11875924595760629
0.24459103745560096 0.14040932619169458 -0.11810825557256067
0.310368965933138 0.1472354253720299 -0.11810825557256067
0.32456985618977585 0.10718091696643786 -0.11810825557256067
0.2221411690341709 0.03350740510456185 -0.11810825557256067
0.2328453109368494 0.297232909949182 -0.11810825557256067
0.4912326946240956 0.2653622806698776 -0.11810825557256067
0.30212928763098934 0.23016230056419715 -0.11810825557256067
0.3190829372301058 0.35374817523378443 -0.11810825557256067
0.5411636571570939 0.06670791474188789 -0.11810825557256067
0.3168044708824461 0.5193322296014571 -0.11764326244038523
0.3717201597923651 0.48150038836766373 -0.11689927342890451
0.27668486343834947 0.17644629393529082 -0.11689927342890451
0.18974974744683 0.2530771621178026 -0.11689927342890451
0.4285144209562728 0.12571554321495082 -0.1162482830438589
0.3099597719768237 0.15293624117250074 -0.1162482830438589
0.3398960298262783 0.11210054430485393 -0.1162482830438589
0.26266067057193837 0.11542989513123009 -0.1162482830438589
0.21986270268651123 0.29620992505839605 -0.1162482830438589
0.4189448622961024 0.4075106811759083 -0.1162482830438589
0.5100835162024876 0.2749504390553351 -0.1162482830438589
0.2936292131748224 0.24363780153464124 -0.1162482830438589
0.4829837164593033 0.20950730563296424 -0.1162482830438589
0.4030699967636329 0.41610375425851037 -0.11578328991168349
0.30412875809934375 0.42615690577614335 -0.11503930090020277
0.4481650307220067 0.17823186756284445 -0.11503930090020277
0.2742296997004632 0.3482426565488273 -0.11503930090020277
0.2806001056112667 0.13664288182107354 -0.11438831051515716
0.35605919110069645 0.12309298194948125 -0.11438831051515716
0.26760819749828496 0.11609948524156274 -0.11438831051515716
0.16544920635934174 0.06159299028795813 -0.11438831051515716
0.21003274787232262 0.2867705644752347 -0.11438831051515716
0.28852358858353616 0.38167566275224113 -0.11438831051515716
0.4757112238720794 0.2619213314917793 -0.11438831051515716
0.297404957408087 0.24393539713923348 -0.11438831051515716
0.2802095113802393 0.25458373986605104 -0.11438831051515716
0.540419668145613 0.03384220015972817 -0.11438831051515716
0.1786922107636982 0.27186288465769015 -0.11317932837150103
0.4114119735548603 0.17614869833069846 -0.11317932837150103
0.23870422440225997 0.2846594956551582 -0.11317932837150103
0.4993979740250961 0.01647005674165394 -0.11252833798645542
0.4833557109650436 0.3028500269858613 -0.11252833798645542
0.29490329435698304 0.24027125125769114 -0.11252833798645542
0.29575888172018583 0.2707934004536867 -0.11252833798645542
0.35586389398518276 0.1210563120305529 -0.11252833798645542
0.27540148239354534 0.09922953440623787 -0.11252833798645542
0.30080870713561114 0.0767703661221644 -0.11252833798645542
0.22987865475357008 0.17537680973128725 -0.11252833798645542
0.20410873536840757 0.25491853492121724 -0.11252833798645542
0.32403976401909584 0.5141429062463793 -0.11252833798645542
0.31272183118194574 0.47978921364125815 -0.11206334485427999
0.2132598002096201 0.16598394846134354 -0.1113193558427993
0.4655836734532986 0.3129682775419987 -0.1113193558427993
0.27668486343834947 0.44770468752115294 -0.1113193558427993
0.21505467369981726 0.04184008203314566 -0.11066836545775369
0.5143335534305713 0.2889932316470332 -0.11066836545775369
0.3741567238049644 0.3465035822344912 -0.11066836545775369
0.28068380437505824 0.25159848395748463 -0.11066836545775369
0.32437455907426216 0.1473842231743261 -0.11066836545775369
0.28162309050205264 0.13619648841418508 -0.11066836545775369
0.26190738169781413 0.11789435873175991 -0.11066836545775369
0.24115008827750267 0.15315943787594496 -0.11066836545775369
0.2831203683876576 0.3877298733331653 -0.11066836545775369
0.2988464361178308 0.48297906652798156 -0.11066836545775369
0.29367571248804 0.4224741601693139 -0.11020337232557825
0.465518574414794 0.23212457158197747 -0.10945938331409757
0.27923302580267084 0.16448667057573862 -0.10945938331409757
0.3748170140526535 0.4915256402973659 -0.10945938331409757
0.23242681711789148 0.13614068923832404 -0.10880839292905195
0.2005561878385872 0.2542303450855976 -0.10880839292905195
0.31991992486802145 0.5089256833033708 -0.10880839292905195
0.47247487167213853 0.27455984482430773 -0.10880839292905195
0.42702644293331143 0.24204752502260132 -0.10880839292905195
0.2904951594639599 0.2165938009673179 -0.10880839292905195
0.30446355315451007 0.10869679457732975 -0.10880839292905195
0.292159834877148 0.13844705517391423 -0.10880839292905195
0.30325457101085385 0.08896248604780425 -0.10880839292905195
0.2876587013576898 0.4263150034410829 -0.10834339979687652
0.29246673034438375 0.04818258835601863 -0.10834339979687652
0.45753929226666346 0.28390620678103395 -0.1075994107853958
0.26443694433684856 0.30072035844049777 -0.1075994107853958
0.5251120942343979 0.015939964570973925 -0.10694842040035019
0.4941807510820879 0.3075557574834767 -0.10694842040035019
0.42618015543275206 0.3120475911402913 -0.10694842040035019
0.4655092745521504 0.19213516221489002 -0.10694842040035019
0.28428285121809616 0.12782661203502718 -0.10694842040035019
0.314079611127898 0.14232509789625725 -0.10694842040035019
0.3233887736340503 0.08103900307553492 -0.10694842040035019
0.24204287509127956 0.14930929474153234 -0.10694842040035019
0.22157387741291693 0.2710258970197745 -0.10694842040035019
0.2943639023236596 0.5009557010178839 -0.10694842040035019
0.4636493020234487 0.2639673012733514 -0.10648342726817478
0.39916405445335923 0.4506527439791453 -0.10573943825669406
0.43591711162050567 0.3374641157450007 -0.10573943825669406
0.20318804896670017 0.18117992402083677 -0.10573943825669406
0.5264605743177067 0.05009836006058145 -0.10508844787164845
0.48268612085471096 0.28239962903278565 -0.10508844787164845
0.4265428500758489 0.25858268080275976 -0.10508844787164845
0.42865391889592547 0.10601843413599926 -0.10508844787164845
0.31158724793943765 0.1305514717895753 -0.10508844787164845
0.3202454200605444 0.13530370160040822 -0.10508844787164845
0.20447143001150428 0.012145620612422357 -0.10508844787164845
0.2123577135331998 0.258805877506204 -0.10508844787164845
0.3843400733996064 0.49678936255359185 -0.10508844787164845
0.36113691610405213 0.1283753039309942 -0.104623454739473
0.27804264338430174 0.44770468752115294 -0.104623454739473
0.3886459098035509 0.10404686325557538 -0.10387946572799232
0.26443694433684856 0.19047978666434548 -0.10387946572799232
0.29246673034438375 0.43765153600352 -0.10387946572799232
0.5024576288348105 0.04345825813311611 -0.10322847534294671
0.4966080152320436 0.255095232311444 -0.10322847534294671
0.2796329198963418 0.25266796816148823 -0.10322847534294671
0.2970887620782076 0.07760735376008021 -0.10322847534294671
0.2885514881714667 0.10841779869802448 -0.10322847534294671
0.3258532372345801 0.14637983800882712 -0.10322847534294671
0.21211591710446848 0.29641452203655316 -0.10322847534294671
0.31065726167508684 0.5010393997816756 -0.10322847534294671
0.4200050466374623 0.40790127540693566 -0.10276348221077126
0.37902985183016297 0.10209389210043862 -0.10201949319929059
0.2047597257534531 0.19047978666434548 -0.10201949319929059
0.36940449399413133 0.4231995494555076 -0.10201949319929059
0.3624202971488564 0.6020638076781107 -0.10201949319929059
0.48353240835527034 0.2579316904177142 -0.10136850281424498
0.3484054041450887 0.3471266730316062 -0.10136850281424498
0.3447970574394074 0.1913260741649047 -0.10136850281424498
0.2977025530126792 0.05944472201730767 -0.10136850281424498
0.2953496877638715 0.15578199914141438 -0.10136850281424498
0.3351809994660193 0.13825175805840054 -0.10136850281424498
0.23201762316157712 0.30235713426575533 -0.10136850281424498
0.30612822856769817 0.4970311589823232 -0.10136850281424498
0.4079617245141185 0.4291793611352837 -0.10136850281424498
0.40910560761927006 0.44301755674882465 -0.10090350968206953
0.23993180627120303 0.22722354396884836 -0.10015952067058885
0.45443313814373154 0.279172576695488 -0.10015952067058885
0.3746682162503573 0.5456880403331608 -0.10015952067058885
0.38283349565135794 0.05354860910132314 -0.09950853028554324
0.5116272934013103 0.27086779935483474 -0.09950853028554324
0.42804012796145385 0.2773870030679344 -0.09950853028554324
0.4628030145228894 0.14195310339051698 -0.09950853028554324
0.3313494560568937 0.13433651588548332 -0.09950853028554324
0.3032824705987844 0.12548304664886303 -0.09950853028554324
0.22018819787903413 0.28282742271438693 -0.09950853028554324
0.2858359282795621 0.41868911607340586 -0.09950853028554324
0.39791787285912905 0.4779850402884173 -0.09950853028554324
0.4481650307220067 0.30072035844049777 -0.09829954814188709
0.2699889623350232 0.32521619664349977 -0.09829954814188709
0.2044528302862173 0.19047978666434548 -0.09829954814188709
0.19092153013991214 0.017121047126699488 -0.09764855775684148
0.5191787818678392 0.04602502022272461 -0.09764855775684148
0.29551708529145465 0.33943568662542456 -0.09764855775684148
0.2783402389888941 0.26193993121706644 -0.09764855775684148
0.3345114093556867 0.10999877534742097 -0.09764855775684148
0.29446620081273817 0.13097926547117664 -0.09764855775684148
0.21744473839919903 0.21157187513982326 -0.09764855775684148
0.21482217713372947 0.2777217981231007 -0.09764855775684148
0.30377536331889043 0.5180488485566528 -0.09764855775684148
0.4559676154799105 0.30072035844049777 -0.09718356462466606
0.3597884360207434 0.44770468752115294 -0.09643957561318535
0.36459646500743736 0.08644222327141339 -0.09643957561318535
0.5094046262295117 0.22722354396884836 -0.09643957561318535
0.341793201805554 0.02174307886052332 -0.09578858522813974
0.4980308942165004 0.2991021823405272 -0.09578858522813974
0.3072628118102062 0.3389706934932491 -0.09578858522813974
0.3079138021952518 0.3440391186339614 -0.09578858522813974
0.2843107508060267 0.12532494898392343 -0.09578858522813974
0.28626372196116345 0.1199775279639059 -0.09578858522813974
0.22656790365248103 0.16144561549131128 -0.09578858522813974
0.22256896271577237 0.27807519290355404 -0.09578858522813974
0.39589050280284427 0.48225367724178786 -0.09578858522813974
0.31265673214344125 0.4384234246029313 -0.09532359209596429
0.29386170974091014 0.3598767847158566 -0.09457960308448361
0.4287934168355781 0.32521619664349977 -0.09457960308448361
0.27668486343834947 0.031247538482189276 -0.09457960308448361
0.46926641906012806 0.2670083563577787 -0.093928612699438
0.29953462595345043 0.3385243000863607 -0.093928612699438
0.42573376202586366 0.22713054534241323 -0.093928612699438
0.3504048746134431 0.13159305640564822 -0.093928612699438
0.2981303466942807 0.12892399582696132 -0.093928612699438
0.2962796740282223 0.06679161350567947 -0.093928612699438
0.23941101396316658 0.30472859923985 -0.093928612699438
0.3804527308146197 0.465820819950708 -0.093928612699438
0.49715670712801063 0.17823186756284445 -0.09271963055578188
0.20318804896670017 0.15373602935984249 -0.09271963055578188
0.32132420412719137 0.44770468752115294 -0.09271963055578188
0.3564683850570108 0.49532928411856114 -0.09271963055578188
0.31080605947738305 0.5038479583000152 -0.09206864017073627
0.242033575228636 0.26432999591644807 -0.09206864017073627
0.29465219806560833 0.07034416103549986 -0.09206864017073627
0.2866078168789733 0.11601578647777117 -0.09206864017073627
0.33767336265447967 0.1298632819539557 -0.09206864017073627
0.4696849128790858 0.16456106947688665 -0.09206864017073627
0.2723325277211875 0.21971855481553682 -0.09206864017073627
0.49900737979406873 0.3015387463531265 -0.09206864017073627
0.2514915355370845 0.28847243933899674 -0.09160364703856082
0.3719526563584527 0.4109516303540065 -0.09085965802708014
0.437786384011851 0.2762152203748523 -0.09085965802708014
0.27131884269304496 0.10198229374871651 -0.09085965802708014
0.35109306444906274 0.038817626674005304 -0.09020866764203453
0.4695454149394333 0.28186023699946205 -0.09020866764203453
0.41518771778812474 0.22041604451379998 -0.09020866764203453
0.4552608259190039 0.12392066972475352 -0.09020866764203453
0.3117639453296644 0.14449196589219482 -0.09020866764203453
0.34077021691476805 0.13490380750673742 -0.09020866764203453
0.2359421651971378 0.2863799702442073 -0.09020866764203453
0.3765188889164155 0.511613343607345 -0.09020866764203453
0.24918516960149426 0.14378517633128823 -0.08974367450985908
0.3309402621005793 0.0648851416637602 -0.08899968549837838
0.41107717849969394 0.4223253623670177 -0.08899968549837838
0.23993180627120303 0.16598394846134354 -0.08899968549837838
0.2825902762169775 0.05324171363408734 -0.08899968549837838
0.4803146558806163 0.30520289223466895 -0.08834869511333275
0.41703839045418295 0.3077417547363468 -0.08834869511333275
0.34101201334349923 0.1902937894114752 -0.08834869511333275
0.32536034451447415 0.10185209567170743 -0.08834869511333275
0.3304938686936909 0.107366914219308 -0.08834869511333275
0.23593286533449437 0.13691257783773525 -0.08834869511333275
0.22627960791053234 0.2805954556799449 -0.08834869511333275
0.2989301348816224 0.5000350146161766 -0.08834869511333275
0.20519681929769798 0.18434187731962964 -0.08788370198115734
0.29915333158506663 0.046173818025020665 -0.08713971296967664
0.40071713151482524 0.044574241650337194 -0.08713971296967664
0.3472243215893631 0.42467822761582535 -0.08713971296967664
0.30940178021821313 0.039487216784337954 -0.08648872258463101
0.4655836734532986 0.2768569108972544 -0.08648872258463101
0.28786329833584706 0.25115209055059634 -0.08648872258463101
0.2892582777323733 0.22948341059122093 -0.08648872258463101
0.30219438666949394 0.10662292520782732 -0.08648872258463101
0.30228738529592897 0.12913789266776196 -0.08648872258463101
0.2579828396622535 0.09543519044768643 -0.08648872258463101
0.21138122795563136 0.29780950143307955 -0.08648872258463101
0.31695326868474233 0.5046570463500003 -0.08648872258463101
0.3390776419136495 0.08023921488819319 -0.08602372945245558
0.2076984823488019 0.17399113019740445 -0.0852797404409749
0.4791986723633952 0.16283129502519408 -0.0852797404409749
0.3549804070340494 0.41947030453546047 -0.0852797404409749
0.22866037274727058 0.25081729549543 -0.08462875005592928
0.28889558308927643 0.07485459441760157 -0.08462875005592928
0.28340866412960625 0.128114907776976 -0.08462875005592928
0.3500700795582768 0.1347643095670848 -0.08462875005592928
0.4807145499742872 0.18410008089089844 -0.08462875005592928
0.27844253747797265 0.27523873479728383 -0.08462875005592928
0.32898729094544255 0.19868226551592008 -0.08462875005592928
0.4895959187988382 0.290927603076883 -0.08462875005592928
0.37749537449398396 0.504777944564366 -0.08462875005592928
0.2854825334991088 0.43310390317084435 -0.08416375692375384
0.39212405843222325 0.06799129578669215 -0.08341976791227317
0.3746682162503573 0.5456880403331608 -0.08341976791227317
0.3092436825532735 0.06799129578669215 -0.08341976791227317
0.31359601827043565 0.47852443232174074 -0.08276877752722754
0.3202361201979008 0.4446264329861517 -0.08276877752722754
0.2191094138123871 0.18317009462654762 -0.08276877752722754
0.3069559163429704 0.14192520380258644 -0.08276877752722754
0.32973127995692325 0.13106296423496822 -0.08276877752722754
0.47181458142444943 0.18509516619375388 -0.08276877752722754
0.4220510164190342 0.2880446456573954 -0.08276877752722754
0.3382778537263077 0.21074418736455086 -0.08276877752722754
0.5034899135882401 0.2822694309557764 -0.08276877752722754
0.4511595864932165 0.10473505309119514 -0.08230378439505211
0.2889327825398505 0.524140258588151 -0.08155979538357143
0.4604129498235076 0.0924871339896941 -0.08155979538357143
0.23331960393166834 0.11523459801571641 -0.08155979538357143
0.21250651133549586 0.25241687187011347 -0.0809088049985258
0.3329304327062902 0.0924220349511895 -0.0809088049985258
0.32343527294726776 0.13725667275554512 -0.0809088049985258
0.3534459296978704 0.1310164649217507 -0.0809088049985258
0.2856964303399095 0.332990881813473 -0.0809088049985258
0.27533638335504074 0.23051569534465044 -0.0809088049985258
0.45483303223740246 0.2781867912552762 -0.0809088049985258
0.3308193638862138 0.4279703789916275 -0.0809088049985258
0.3177251572841535 0.4406646915000169 -0.0809088049985258
0.2347610826414122 0.10473505309119514 -0.08044381186635037
0.3914916677724645 0.031247538482189276 -0.07969982285486965
0.25217972537270406 0.15373602935984249 -0.07969982285486965
0.3597884360207434 0.5127851263004268 -0.07969982285486965
0.47017780559919176 0.2550394331355829 -0.07904883246982404
0.2774753517630478 0.18667614284315037 -0.07904883246982404
0.40953340130087157 0.33583663978238665 -0.07904883246982404
0.4571114985850621 0.13358322701135908 -0.07904883246982404
0.3154001916232763 0.12225599431156557 -0.07904883246982404
0.32186359616051485 0.14799801410879757 -0.07904883246982404
0.2428240635533343 0.2481575347793865 -0.07904883246982404
0.37972734152842613 0.48204908026363075 -0.07904883246982404
0.25483018622610404 0.12816140709019352 -0.07858383933764863
0.3988292593981929 0.0689677813642606 -0.07783985032616791
0.36226219948391675 0.3643965179606019 -0.07783985032616791
0.3670144292947497 0.4672715985230954 -0.07783985032616791
0.33422311361373797 0.026039615401824374 -0.0771888599411223
0.341793201805554 0.0855401365949931 -0.0771888599411223
0.2948846946316961 0.10848289773652908 -0.0771888599411223
0.42153952397364125 0.09068296063685338 -0.0771888599411223
0.3726036467434984 0.19667349518492228 -0.0771888599411223
0.27956782085783716 0.24537687584897735 -0.0771888599411223
0.4096728992405242 0.3150793463620752 -0.0771888599411223
0.3712551666601897 0.43152292652144786 -0.0771888599411223
0.3760538957842401 0.456241961427894 -0.0771888599411223
0.3742125229808254 0.10635322919116559 -0.07672386680894687
0.31342862074285244 0.5579359594346618 -0.07597987779746618
0.42624525447125666 0.17823186756284445 -0.07597987779746618
0.4114119735548603 0.031247538482189276 -0.07597987779746618
0.26927287291147306 0.09670927162984713 -0.07532888741242057
0.3179018546743801 0.12653393112757952 -0.07532888741242057
0.3348927037240705 0.13246724349413813 -0.07532888741242057
0.418024175894395 0.06823309221542334 -0.07532888741242057
0.285761529378414 0.3029988247881573 -0.07532888741242057
0.4264963507626314 0.28574757958444874 -0.07532888741242057
0.4760367190646022 0.2971864106359644 -0.07532888741242057
0.39103597450293265 0.4808958972958357 -0.07532888741242057
0.20475042589080955 0.2762152203748523 -0.07411990526876444
0.41969815117022646 0.05684076047712522 -0.07411990526876444
0.2889327825398505 0.4844484448256558 -0.07411990526876444
0.49060030396433685 0.28278092340116945 -0.07346891488371883
0.406362148139435 0.20895861373699726 -0.07346891488371883
0.2851663381692295 0.26169813478833526 -0.07346891488371883
0.35015377832206834 0.20333219683767445 -0.07346891488371883
0.36023482942763185 0.08742800871162539 -0.07346891488371883
0.3372269692475912 0.11041726916637888 -0.07346891488371883
0.3414026075745266 0.11509510007606376 -0.07346891488371883
0.2578340418599573 0.2796933690035245 -0.07346891488371883
0.3175484598939268 0.4566697551094953 -0.07346891488371883
0.3664285379482086 0.3619599539480026 -0.0730039217515434
0.39006878878800777 0.08023921488819319 -0.0722599327400627
0.24918516960149426 0.23947146307034942 -0.0722599327400627
0.33792445894585443 0.6069369357033093 -0.0722599327400627
0.45237786849951617 0.29263877780328873 -0.0716089423550171
0.3416165044153273 0.18622044957361852 -0.0716089423550171
0.27980031742392497 0.26201433011821446 -0.0716089423550171
0.4301883962321043 0.09360311750691519 -0.0716089423550171
0.3083322960142097 0.15108556850644253 -0.0716089423550171
0.342248895075086 0.09588158385457474 -0.0716089423550171
0.23167352824376738 0.2592708706383794 -0.0716089423550171
0.3767234858945728 0.45254991595842115 -0.0716089423550171
0.2514915355370845 0.2434518042817711 -0.07114394922284166
0.35017237804735535 0.4844484448256558 -0.07039996021136094
0.2724627257981966 0.3374641157450007 -0.07039996021136094
0.3453643490606614 0.07014886391998616 -0.07039996021136094
0.32059881484099767 0.4557583685704316 -0.06974896982631533
0.2833807645416757 0.2975212056911307 -0.06974896982631533
0.41353234223758023 0.3264158789245123 -0.06974896982631533
0.4515408808616004 0.3057701838559229 -0.06974896982631533
0.24611621492913638 0.2543047439867458 -0.06974896982631533
0.47276316741408736 0.17430732552728379 -0.06974896982631533
0.3196595287140033 0.13987923402101454 -0.06974896982631533
0.3428533861469141 0.10482805171763016 -0.06974896982631533
0.3042496563137094 0.5187184386669854 -0.06928397669413992
0.4367354995331345 0.22722354396884836 -0.06928397669413992
0.3742125229808254 0.4966963639271569 -0.0685399876826592
0.1786922107636982 0.2762152203748523 -0.0685399876826592
0.39621599799536705 0.06946997394701009 -0.0685399876826592
0.2891559792432947 0.3337534705502407 -0.06788899729761359
0.4175405830369325 0.2230386057792694 -0.06788899729761359
0.44740244198523893 0.30093425528129847 -0.06788899729761359
0.41909366009839844 0.3141772596856548 -0.06788899729761359
0.4584320790804403 0.13620578827682864 -0.06788899729761359
0.31200574175839557 0.07961612409107804 -0.06788899729761359
0.3249325508328727 0.15005328375301302 -0.06788899729761359
0.30090170576204617 0.15853475848389303 -0.06788899729761359
0.4322901651895373 0.22833952748606945 -0.06742400416543815
0.39375153439483723 0.031247538482189276 -0.06668001515395747
0.2551370816933398 0.22427548751085616 -0.06668001515395747
0.3453643490606614 0.5040246556902418 -0.06668001515395747
0.3236677695133556 0.4880474916686937 -0.06602902476891186
0.3688465022355209 0.20026324216531657 -0.06602902476891186
0.24922236905206832 0.28306921914311817 -0.06602902476891186
0.2635441575230717 0.26255372215153805 -0.06602902476891186
0.4216604221880069 0.2677151459186853 -0.06602902476891186
0.37801616680202044 0.04880567915313365 -0.06602902476891186
0.3319818467166524 0.12964938511315488 -0.06602902476891186
0.3304287696551864 0.12042392137079433 -0.06602902476891186
0.3723432505894801 0.07992301955831384 -0.06556403163673641
0.3886459098035509 0.051642137259403864 -0.06482004262525573
0.43591711162050567 0.21350624656967307 -0.06482004262525573
0.3866464393351966 0.517025863665867 -0.06482004262525573
0.36988808685159386 0.45825073175889197 -0.06416905224021012
0.2782007410492415 0.20576876085027374 -0.06416905224021012
0.2885793877593972 0.3449877046235992 -0.06416905224021012
0.26615741892589767 0.24080134342837115 -0.06416905224021012
0.40501366805612626 0.21448273214724137 -0.06416905224021012
0.45498183003969866 0.11694577274212198 -0.06416905224021012
0.34110501196993437 0.07858383933764854 -0.06416905224021012
0.3213335039898348 0.10797140529113618 -0.06416905224021012
0.2746481935194211 0.08830219580011515 -0.06416905224021012
0.35808656115698123 0.513715112564778 -0.06370405910803467
0.3869161353518583 0.4966963639271569 -0.062960070096554
0.38383788081685694 0.0924871339896941 -0.062960070096554
0.3644941665183588 0.510153265172314 -0.06230907971150838
0.34502955400549506 0.1961992021901033 -0.06230907971150838
0.3070024156561879 0.34562009528335774 -0.06230907971150838
0.23683495201091465 0.2990370833020227 -0.06230907971150838
0.2347610826414122 0.2872355576074101 -0.06230907971150838
0.33441841072925166 0.34324863030926306 -0.06230907971150838
0.31133615164806294 0.08184809112552008 -0.06230907971150838
0.29340601647137815 0.10579523743255505 -0.06230907971150838
0.2622142771650499 0.09749975995454531 -0.06230907971150838
0.4415435285198285 0.2303296980917803 -0.06184408657933294
0.32830840097246633 0.487591798399162 -0.06110009756785222
0.29802804820520196 0.3619599539480026 -0.06110009756785222
0.3281224037195962 0.5191741319365174 -0.06044910718280661
0.32289588091394433 0.1996959505440626 -0.06044910718280661
0.4315647759033437 0.28946752464185216 -0.06044910718280661
0.2741832003872457 0.31983157617290814 -0.06044910718280661
0.3357761906752038 0.3476009660264252 -0.06044910718280661
0.4721400766169722 0.1523782494138902 -0.06044910718280661
0.32932208600060886 0.13772166588772053 -0.06044910718280661
0.347094123512354 0.09917373523037681 -0.06044910718280661
0.22263406175427683 0.1525549468041169 -0.06044910718280661
0.4367354995331345 0.08081580637209071 -0.059984114050631206
0.4481650307220067 0.16598394846134354 -0.059240125039150486
0.3011807016413514 0.4966963639271569 -0.059240125039150486
0.2933130178449431 0.3324142903295755 -0.058589134654104875
0.4150296201231851 0.21893736635348204 -0.058589134654104875
0.41230476036863717 0.18141242058692442 -0.058589134654104875
0.30366376496716835 0.3251510976049951 -0.058589134654104875
0.3721479534739664 0.09128745170868144 -0.058589134654104875
0.3146841021997262 0.14616594116802645 -0.058589134654104875
0.33672477666484174 0.14518015572781445 -0.058589134654104875
0.4570649992718445 0.14197170311580395 -0.058589134654104875
0.28618932306001543 0.16598394846134354 -0.058124141521929434
0.3453643490606614 0.055743376685191234 -0.05738015251044875
0.16644429166219715 0.2639673012733514 -0.05738015251044875
0.32145440220420046 0.5181232474578009 -0.05672916212540314
0.26752449873449335 0.27887498109089576 -0.05672916212540314
0.2665387132942815 0.28243682848335955 -0.05672916212540314
