0.6333529386727952 0.32720649888384934 -0.09217504618024383
0.5773817051292578 0.5598614859955372 -0.09217504618024383
0.3894221692128445 0.261739346343318 -0.0914790102328202
0.45747459812952085 0.49528923681597914 -0.0914790102328202
0.5882398659090663 0.5021004457300531 -0.0914790102328202
0.41856618866853984 0.2398738742235385 -0.0914790102328202
0.41356467321776713 0.5397858205977041 -0.0914790102328202
0.4931911856030306 0.32356722521589154 -0.0914790102328202
0.25365538598252635 0.41852641518582984 -0.0914790102328202
0.36716890563664323 0.3173029016890789 -0.0914790102328202
0.3682328462991336 0.49200792449241043 -0.0914790102328202
0.66904963940495 0.33722941652674976 -0.09098184169894617
0.6722016879097111 0.36678111418022163 -0.09018637204474775
0.429623216861898 0.4812790275314091 -0.09018637204474775
0.42334894996440786 0.2745961246293003 -0.08949033609732411
0.44130667740793755 0.45858825564539873 -0.08949033609732411
0.5764072548028646 0.5104131036164268 -0.08949033609732411
0.4845404531136226 0.2398738742235385 -0.08949033609732411
0.4062861258818515 0.5423810403445265 -0.08949033609732411
0.4736822923338139 0.46925749238233516 -0.08949033609732411
0.24942945344459722 0.41250073255527675 -0.08949033609732411
0.31737250528382116 0.47171350493967285 -0.08949033609732411
0.3962333781269186 0.3433943063467875 -0.08949033609732411
0.3696845784180458 0.44846590429572364 -0.08949033609732411
0.6853070504626305 0.45508818916692556 -0.08819769790925167
0.3023580155608256 0.30851296201018613 -0.08819769790925167
0.44627836274667776 0.4568879392595495 -0.08750166196182803
0.532586820227208 0.5276946818538878 -0.08750166196182803
0.4953787271520763 0.2606654623101502 -0.08750166196182803
0.44343455873291837 0.37302555096567935 -0.08750166196182803
0.4138629743380916 0.5605376352016057 -0.08750166196182803
0.638195360192728 0.35495844644469726 -0.08750166196182803
0.4114069617807539 0.2563003225827362 -0.08750166196182803
0.28269002836076934 0.4242140232133487 -0.08750166196182803
0.3924449538987986 0.3474710883245545 -0.08750166196182803
0.35240300018058474 0.4732447840240048 -0.08750166196182803
0.6706604654547017 0.3503248357089915 -0.087004493427954
0.6727286865556179 0.3503248357089915 -0.08620902377375554
0.41869545248734696 0.4812790275314091 -0.08620902377375554
0.415115839043454 0.2631015881261328 -0.0855129878263319
0.4416248652696169 0.4585981990160761 -0.0855129878263319
0.5536071058394018 0.5232400517903766 -0.0855129878263319
0.5724895667559372 0.2860906611324678 -0.0855129878263319
0.42884763394905456 0.5436239616792116 -0.0855129878263319
0.45460096400372896 0.4501761640522502 -0.0855129878263319
0.4950903694024294 0.48054321810127554 -0.0855129878263319
0.31984840458251373 0.47151463752612327 -0.0855129878263319
0.3917588613220524 0.3510705885098025 -0.0855129878263319
0.36144152412641456 0.48605184545659974 -0.0855129878263319
0.6796293858057891 0.37395028443868505 -0.08501581929245791
0.5268594387169794 0.25864695806262167 -0.08422034963825946
0.45101140718915844 0.427117487451173 -0.08352431369083582
0.45295036447126724 0.557584454110394 -0.08352431369083582
0.6297832685995796 0.331462261533811 -0.08352431369083582
0.45660952488058 0.30286512746537725 -0.08352431369083582
0.48525637580240116 0.5086929004892228 -0.08352431369083582
0.6369922123407529 0.3495890262788579 -0.08352431369083582
0.5047950991836503 0.4805034446185656 -0.08352431369083582
0.2898790853605877 0.42812176788959855 -0.08352431369083582
0.3571957048471303 0.3330929743249178 -0.08352431369083582
0.3860016496997913 0.4926940170691566 -0.08352431369083582
0.25081158196876696 0.4297524806807053 -0.08352431369083582
0.4748655534444341 0.30519187620390764 -0.08223167550276338
0.6035725434937411 0.5361863204124562 -0.08223167550276338
0.5615916324934186 0.28843729661235307 -0.08153563955533974
0.44956961844092386 0.3081947741485068 -0.08153563955533974
0.4346744491660581 0.5264517605192027 -0.08153563955533974
0.6795299520990145 0.41149645211685126 -0.08153563955533974
0.5004100727148814 0.28404232677290675 -0.08153563955533974
0.6487452764815349 0.46187951133964467 -0.08153563955533974
0.43860208058366296 0.26210725105838484 -0.08153563955533974
0.38511668970949553 0.4492315438378896 -0.08153563955533974
0.3359268349679997 0.3318202228782003 -0.08153563955533974
0.3638179897183324 0.44601983510906335 -0.08153563955533974
0.4645443346812094 0.2979332156093469 -0.0802430013672673
0.616667962675983 0.5336706476310535 -0.0802430013672673
0.6268897477324328 0.47164390134493056 -0.07954696541984366
0.5341479294235726 0.271692660391476 -0.07954696541984366
0.4439516140081474 0.34992710088189216 -0.07954696541984366
0.4412072437011628 0.5642962293176934 -0.07954696541984366
0.5100750290133924 0.29281237971044444 -0.07954696541984366
0.5113080069774001 0.48752346431686683 -0.07954696541984366
0.6403530716297415 0.3407195396345454 -0.07954696541984366
0.25222354060496927 0.3876224191202207 -0.07954696541984366
0.36972435190075575 0.3132460064526668 -0.07954696541984366
0.3633208211844583 0.4906158525975632 -0.07954696541984366
0.2899586323260075 0.36776550787729223 -0.07954696541984366
0.22674862492926423 0.46503155984440603 -0.07954696541984366
0.4006681214490749 0.4812790275314091 -0.07825432723177121
0.5029754623496713 0.2455515388803798 -0.07825432723177121
0.4511406710079658 0.4504048615778322 -0.07755829128434757
0.49237582920747713 0.5505246609293831 -0.07755829128434757
0.6493319353515062 0.32443229846483235 -0.07755829128434757
0.47446781861733495 0.321071439175844 -0.07755829128434757
0.5055706820964938 0.5021501625834406 -0.07755829128434757
0.6591460422101794 0.3565692724944492 -0.07755829128434757
0.5387417666765685 0.3479384267463962 -0.07755829128434757
0.3673478863088379 0.35929375606007885 -0.07755829128434757
0.21606944482165022 0.4672191013934517 -0.07755829128434757
0.2988380623409975 0.3620977865911283 -0.07755829128434757
0.2199970762392551 0.34256900658055667 -0.07755829128434757
0.4767647372438329 0.4957366884964656 -0.07626565309627509
0.48486858434597946 0.3003196245719423 -0.07626565309627509
0.489203893961361 0.5553173655959287 -0.07556961714885145
0.6369524388580431 0.32386552633621596 -0.07556961714885145
0.44111775336506553 0.3257348800235823 -0.07556961714885145
0.43805519519640146 0.5514295076610336 -0.07556961714885145
0.6573065186348455 0.3550877102635046 -0.07556961714885145
0.5056303423205587 0.46702023397990217 -0.07556961714885145
0.521201660801493 0.47955882440420494 -0.07556961714885145
0.37792763270967716 0.3149761529505485 -0.07556961714885145
0.36369866927020267 0.4847393205271723 -0.07556961714885145
0.28710488494157066 0.3571360446230656 -0.07556961714885145
0.23957557310321406 0.373741473654458 -0.07556961714885145
0.30323303218044395 0.3694459375217864 -0.07556961714885145
0.38294903490180476 0.5025876708932497 -0.074276978960779
0.551170980023419 0.2822922935336702 -0.07358094301335537
0.45148868898167754 0.31130704917055824 -0.07358094301335537
0.49951516935390816 0.511536704502982 -0.07358094301335537
0.684988862600951 0.40018089628587844 -0.07358094301335537
0.4819253466254453 0.29126121388475756 -0.07358094301335537
0.539537236330767 0.44321580457801385 -0.07358094301335537
0.6642469913677269 0.4445382728781187 -0.07358094301335537
0.36592598430195816 0.3262419919281338 -0.07358094301335537
0.3700524831331126 0.49180905707886086 -0.07358094301335537
0.2963919931543374 0.46292356526078016 -0.07358094301335537
0.29740621696344044 0.4400538127025751 -0.07358094301335537
0.22896599659034236 0.3828595445657076 -0.07358094301335537
0.5847696295426257 0.5205752284488119 -0.07228830482528292
0.4309854586447129 0.32413399734450793 -0.07228830482528292
0.6492424450154088 0.3300403595269313 -0.07159226887785929
0.4719123723532224 0.3216978715285252 -0.07159226887785929
0.5144202819994514 0.5039200825640321 -0.07159226887785929
0.6862317839356361 0.4024877582830539 -0.07159226887785929
0.5503357368865106 0.322562944777466 -0.07159226887785929
0.546388218727551 0.3390888268434386 -0.07159226887785929
0.6639486902474026 0.35236322669787495 -0.07159226887785929
0.3761974862117955 0.3575636095621972 -0.07159226887785929
0.21198271947320574 0.45240347908400586 -0.07159226887785929
0.3804930223444671 0.450524182025962 -0.07159226887785929
0.2308154635363538 0.43793587474827184 -0.07159226887785929
0.33400776442724595 0.4433450683968212 -0.07159226887785929
0.48713567286044507 0.3017216398374669 -0.07029963068978684
0.49199798112173293 0.5037908187452248 -0.07029963068978684
0.6794702918749496 0.4022093439040845 -0.0696035947423632
0.5177214810643749 0.2985894780740606 -0.0696035947423632
0.4795787111455599 0.476993434769415 -0.0696035947423632
0.6496004063597981 0.4841228315451685 -0.0696035947423632
0.5320995950640117 0.31856570976511883 -0.0696035947423632
0.5447376191950892 0.48573365759492027 -0.0696035947423632
0.2455515388803798 0.44006375607325265 -0.0696035947423632
0.3761875428411181 0.3575039493381323 -0.0696035947423632
0.21798851536240393 0.46533980433540795 -0.0696035947423632
0.22048430140245157 0.4222054623364977 -0.0696035947423632
0.23217770531916862 0.36071565806695854 -0.0696035947423632
0.38094047402495373 0.28483779642710516 -0.06831095655429074
0.5339788921220555 0.5442404506612154 -0.06831095655429074
0.3011150942261406 0.44221152413958836 -0.06761492060686712
0.32706729169436455 0.3423403090549747 -0.06761492060686712
0.3903369593151728 0.49070534293366047 -0.06761492060686712
0.32721644225452673 0.3653989856560519 -0.06761492060686712
0.3515379269316441 0.3471230703508427 -0.06761492060686712
0.4812392540486991 0.480573048213308 -0.06761492060686712
0.6702130137742152 0.4228219513185014 -0.06761492060686712
0.6675979072860377 0.4636991481736236 -0.06761492060686712
0.6466969421219738 0.4861811092754069 -0.06761492060686712
0.5402432156488681 0.49200792449241043 -0.06761492060686712
0.5249900850296131 0.5598614859955372 -0.06632228241879463
0.401622685034113 0.3503248357089915 -0.06632228241879463
0.24437822114043717 0.3624557479355176 -0.065626246471371
0.382829714453675 0.44915199687246976 -0.065626246471371
0.32603318114390656 0.341147104573677 -0.065626246471371
0.32321920724217973 0.4508821433703513 -0.065626246471371
0.4447172535503134 0.4548396048999885 -0.065626246471371
0.45771323902578037 0.275500971360951 -0.065626246471371
0.45141908538693515 0.24373190204640097 -0.065626246471371
0.506753943207114 0.24795783458433013 -0.065626246471371
0.6665041365115151 0.4411376401064204 -0.065626246471371
0.28978959502449037 0.4027065124379585 -0.06433360828329855
0.37057948177901906 0.4158019316202002 -0.06433360828329855
0.535669265137227 0.5598614859955372 -0.06433360828329855
0.3755710538591142 0.48954196856439536 -0.06363757233587491
0.3814973027828926 0.49676085567624617 -0.06363757233587491
0.4485454512611434 0.4428478998629472 -0.06363757233587491
0.45566490466621934 0.37235934513028807 -0.06363757233587491
0.5465473126583906 0.31855576639444144 -0.06363757233587491
0.5353809073875802 0.3043069162136119 -0.06363757233587491
0.5323481793309486 0.3068126456243369 -0.06363757233587491
0.5191632698126095 0.2480075514377175 -0.06314040380200088
0.32261266163085334 0.4718129386464477 -0.06234493414780246
0.5043476475031636 0.31579150934610184 -0.06234493414780246
0.6259749576301045 0.3100939579479056 -0.06234493414780246
0.37007236987446757 0.4919582076390231 -0.061648898200378825
0.3938966860177107 0.45288076087652496 -0.061648898200378825
0.4494204678807616 0.4284697858633103 -0.061648898200378825
0.5025478974105397 0.247788797282813 -0.061648898200378825
0.5185268940892508 0.2622066847651597 -0.061648898200378825
0.522255658093306 0.2602975575950834 -0.061648898200378825
0.5780479109646488 0.4768741143212853 -0.061648898200378825
0.5118946658473713 0.23489224551412088 -0.0611517296665048
0.5150964312055201 0.5729569051777791 -0.06035626001230638
0.31615941406116854 0.3398345796442496 -0.06035626001230638
0.3023580155608256 0.49690006286573085 -0.06035626001230638
0.3902275822377204 0.32297062297524265 -0.05966022406488274
0.3471429570921976 0.46269486773519813 -0.05966022406488274
0.45184665032606686 0.3827402241175778 -0.05966022406488274
0.6166878494173378 0.3210117789517791 -0.05966022406488274
0.5814684304777019 0.2919870799442136 -0.05966022406488274
0.5304489955315499 0.26159019578315595 -0.05966022406488274
0.5900396160016903 0.3686902413502978 -0.05966022406488274
0.5202371538457774 0.5729569051777791 -0.059163055531008715
0.5245824068318364 0.45508818916692556 -0.05836758587681029
0.3520450388361954 0.4812790275314091 -0.05836758587681029
0.6941168768828782 0.4158019316202002 -0.05836758587681029
0.6833979232925542 0.4012647236897239 -0.05767154992938666
0.6831393956549399 0.4144993500614504 -0.05767154992938666
0.6909648283781168 0.39808284507293007 -0.05767154992938666
0.5844116681982364 0.46286390503671526 -0.05767154992938666
0.5050834569332973 0.32965256807050963 -0.05767154992938666
0.5033234803233833 0.42445266410960825 -0.05767154992938666
0.389471886066232 0.3201467057028383 -0.05767154992938666
0.34582048879209276 0.34140563221129144 -0.05767154992938666
0.32077313805551944 0.4189539801249616 -0.056378911741314174
0.5380954475825322 0.5556454968282855 -0.056378911741314174
0.6259550708887497 0.32314960364743733 -0.055682875793890536
0.5732054894447158 0.28708499820021577 -0.055682875793890536
0.511039535969108 0.2439904296840154 -0.055682875793890536
0.4671892712814193 0.2859116804602731 -0.055682875793890536
0.5946632833667188 0.4624065099855512 -0.055682875793890536
0.5064954155694994 0.32950341751034745 -0.055682875793890536
0.5137938496467701 0.48080174573889 -0.055682875793890536
0.3648521002687904 0.4857734310776302 -0.055682875793890536
0.3617298818760615 0.35731502529526027 -0.055682875793890536
0.5510914330579993 0.5598614859955372 -0.05439023760581809
0.3972177718239892 0.3596914908871781 -0.05439023760581809
0.6351228586533867 0.30181113017356426 -0.05439023760581809
0.5354703977236777 0.265607317536858 -0.053694201658394454
0.4617502475208373 0.24372195867572344 -0.053694201658394454
0.46110392842680115 0.2809598818628878 -0.053694201658394454
0.5943152653930067 0.34876372651262705 -0.053694201658394454
0.4483366404769163 0.4866782778092809 -0.053694201658394454
0.45222449841181106 0.49877935992377476 -0.053694201658394454
0.36395719690781714 0.4733740478428121 -0.053694201658394454
0.3943540810688749 0.4765857565716384 -0.053694201658394454
0.5396068399255094 0.5573259264727797 -0.053197033124520426
0.312092575454079 0.3733636255687137 -0.052401563470322
0.4799466158606266 0.3110286347915887 -0.052401563470322
0.5773817051292578 0.5499181153180568 -0.052401563470322
0.6393587345619932 0.4877819919544813 -0.05170552752289837
0.6765568842664478 0.457892219697975 -0.05170552752289837
0.6882701749245197 0.3886167561879687 -0.05170552752289837
0.6135159141712216 0.34521394318076654 -0.05170552752289837
0.4484957344077559 0.48660867421453863 -0.05170552752289837
0.45817063407694436 0.49914726463884146 -0.05170552752289837
0.33570808081309506 0.4650912200684709 -0.05170552752289837
0.3859320461050489 0.4419430531312964 -0.05170552752289837
0.5562321556982568 0.5598614859955372 -0.05120835898902434
0.5716543236190288 0.25864695806262167 -0.05041288933482592
0.3836251841078734 0.43405796018405446 -0.05041288933482592
0.5176518774696325 0.24776891054145808 -0.04971685338740228
0.47406014041955813 0.27907064143416654 -0.04971685338740228
0.5771032907502881 0.3250289007054812 -0.04971685338740228
0.5471339715283622 0.4930221483015135 -0.04971685338740228
0.5340882691995077 0.5423313234911391 -0.04971685338740228
0.5270284760184967 0.2606058020860853 -0.04971685338740228
0.4474715672279755 0.3122814994969513 -0.04971685338740228
0.3334509356693071 0.42528790724651666 -0.04971685338740228
0.38380416478006807 0.4452740823082524 -0.04971685338740228
0.5562321556982568 0.5598614859955372 -0.049219684853528255
0.5742296566244964 0.2455515388803798 -0.049219684853528255
0.4001709529152009 0.32413399734450793 -0.049219684853528255
0.6271383319993699 0.31731284505975643 -0.0477281792519062
0.5304092220488399 0.2477191936880706 -0.0477281792519062
0.5742395999951739 0.32152883422700806 -0.0477281792519062
0.533203309209212 0.49958477294865056 -0.0477281792519062
0.5500871526195739 0.5242244454874472 -0.0477281792519062
0.5373994116351087 0.2673971242588044 -0.0477281792519062
0.45129976493880536 0.4178999828331487 -0.0477281792519062
0.38480844521849356 0.48162704550512087 -0.0477281792519062
0.3910827121159837 0.3437025508377895 -0.0477281792519062
0.3613321470489623 0.33680185158761805 -0.0477281792519062
0.5904771243114993 0.25864695806262167 -0.04723101071803217
0.3700226530210802 0.4158019316202002 -0.04723101071803217
0.5122128537090507 0.2885566170604828 -0.04573950511641008
0.5539849539251461 0.4943545599722959 -0.04573950511641008
0.5439023760581809 0.5491723625172455 -0.04573950511641008
0.6742599656399498 0.46584691623995933 -0.04573950511641008
0.47080865820802204 0.2692267044634608 -0.04573950511641008
0.6246226592179672 0.3675268669810327 -0.04573950511641008
0.4814778949449587 0.4779082248717432 -0.04573950511641008
0.5110295925984305 0.48275064639167614 -0.04573950511641008
0.38038364526701485 0.44383229356001763 -0.04573950511641008
0.3539939394889817 0.32870794785614904 -0.04573950511641008
0.4760687012964093 0.3052117629452626 -0.04524233658253609
0.3023580155608256 0.30851296201018613 -0.04524233658253609
0.5511908667647741 0.5598614859955372 -0.04524233658253609
0.6649032538324406 0.4613127392110284 -0.04375083098091399
0.6799177435554361 0.381069737843761 -0.04375083098091399
0.6170060372790173 0.3098056001982586 -0.04375083098091399
0.5659169987381226 0.5230710144888595 -0.04375083098091399
0.6025682630553156 0.332973653876788 -0.04375083098091399
0.4475809443054277 0.32228453039849664 -0.04375083098091399
0.44107797988235553 0.34346390994153 -0.04375083098091399
0.38577295217420926 0.45385521120291805 -0.04375083098091399
0.3598903583007275 0.3190628782989928 -0.04375083098091399
0.5973678801909934 0.28207353937876556 -0.043253662447039966
0.3089803004320277 0.3716334790708321 -0.04245819279284155
0.5511908667647741 0.37651567407347497 -0.04245819279284155
0.6732457418308467 0.37247866557841786 -0.04176215684541791
0.5880708286075491 0.2932598313909311 -0.04176215684541791
0.6009176635228539 0.3453531503702512 -0.04176215684541791
0.464474731086467 0.5285000948787639 -0.04176215684541791
0.6307577189259728 0.4252580771344842 -0.04176215684541791
0.5580020756788482 0.5269389856823994 -0.04176215684541791
0.45069321932747913 0.41366410692454203 -0.04176215684541791
0.4573453343107135 0.36659219013734945 -0.04176215684541791
0.36169010839335164 0.4791710329477832 -0.04176215684541791
0.3768835787885417 0.3645836292604984 -0.04176215684541791
0.5231008446008918 0.428897350802442 -0.040469518657345466
0.3023580155608256 0.428897350802442 -0.040469518657345466
0.5904771243114993 0.5336706476310535 -0.040469518657345466
0.6739218910369152 0.37268747636264493 -0.03977348270992183
0.5654198302042488 0.26313141823816527 -0.03977348270992183
0.6175728094076335 0.3622171070392581 -0.03977348270992183
0.5447674493071218 0.5450160335740589 -0.03977348270992183
0.5684028414074928 0.2756202918090807 -0.03977348270992183
0.6368927786339782 0.38123877514527815 -0.03977348270992183
0.4965818750040514 0.32542663553258033 -0.03977348270992183
0.35600250036583275 0.4341872240028616 -0.03977348270992183
0.35839885269910554 0.3293642103208626 -0.03977348270992183
0.36395719690781714 0.4694265296838523 -0.03977348270992183
0.6025086028312507 0.2855437757452063 -0.0392763141760478
0.43744864958507523 0.49438439008432833 -0.038480844521849376
0.6200387653356488 0.5074798092665701 -0.038480844521849376
0.6403431282590639 0.3129477053323424 -0.037784808574425746
0.47532294849559825 0.27994565805378474 -0.037784808574425746
0.572151492152903 0.4804835578772107 -0.037784808574425746
0.5693971784752407 0.5450359203154137 -0.037784808574425746
0.5647536243688575 0.2693062514288807 -0.037784808574425746
0.6458517556143881 0.39326031029435204 -0.037784808574425746
0.4444487825420214 0.31934129267796235 -0.037784808574425746
0.37650573070279747 0.4863203164648917 -0.037784808574425746
0.38577295217420926 0.31719352461162664 -0.037784808574425746
0.3236666589226662 0.40250764502440894 -0.037784808574425746
0.5511908667647741 0.4681836083491673 -0.03649217038635326
0.5249900850296131 0.3340773680219884 -0.03649217038635326
0.6975970566199963 0.4158019316202002 -0.03649217038635326
0.5990582532061649 0.502408690221055 -0.03579613443892962
0.6801464410810181 0.4253873409532915 -0.03579613443892962
0.6402934114056766 0.30481402811816344 -0.03579613443892962
0.47765964060480615 0.2857824166414658 -0.03579613443892962
0.5833775576477783 0.5045067414340034 -0.03579613443892962
0.651062081849388 0.39019775212568814 -0.03579613443892962
0.4508423698876413 0.3672782827140956 -0.03579613443892962
0.48604190208592224 0.3327250696098511 -0.03579613443892962
0.33152192175787587 0.4689293611499783 -0.03579613443892962
0.36440464858830374 0.3673081128261281 -0.03579613443892962
0.5305285424969697 0.45508818916692556 -0.03529896590505563
0.4773116226310944 0.3053509701347474 -0.03450349625085718
0.49455342738584546 0.2979332156093469 -0.03450349625085718
0.5402332722781906 0.5059087566995282 -0.03380746030343354
0.6363856667294268 0.4913814921397293 -0.03380746030343354
0.673375005649654 0.34050078547964074 -0.03380746030343354
0.48713567286044507 0.2897100480590706 -0.03380746030343354
0.5760492934584752 0.5252088391845177 -0.03380746030343354
0.5851872511110799 0.2904359141185267 -0.03380746030343354
0.45129976493880536 0.434028130072022 -0.03380746030343354
0.5047950991836503 0.3794887419060417 -0.03380746030343354
0.31015361817197035 0.38992928111739616 -0.03380746030343354
0.3911523157107262 0.44744173711594304 -0.03380746030343354
0.4690983984514954 0.5140523772843846 -0.03331029176955951
0.31457841812344906 0.4507131060688342 -0.03331029176955951
0.6127900481117655 0.5205752284488119 -0.03331029176955951
0.6805541192787947 0.36252535153026 -0.03181878616793746
0.47354308514432925 0.2503044700642156 -0.03181878616793746
0.597009918846604 0.4638383553631083 -0.03181878616793746
0.6575053860483953 0.4861910526460844 -0.03181878616793746
0.6660566848310283 0.4034025483853821 -0.03181878616793746
0.4512202179733856 0.4878515955492237 -0.03181878616793746
0.5202769273284874 0.4396361911341209 -0.03181878616793746
0.5092397858764841 0.35788179742387666 -0.03181878616793746
0.3174122787665311 0.4399742657371553 -0.03181878616793746
0.3452238865514439 0.3407990865999652 -0.03181878616793746
0.48905474340119875 0.5074798092665701 -0.03132161763406342
0.36966469167669086 0.4158019316202002 -0.03132161763406342
0.650216895341802 0.3201566490735157 -0.02983011203244137
0.6256667131391028 0.3508816644669303 -0.02983011203244137
0.47612836152047405 0.5292458476795748 -0.02983011203244137
0.690616810404405 0.4472229829610386 -0.02983011203244137
0.5982528401812891 0.2985994214447381 -0.02983011203244137
0.5963337696405353 0.5161703152386881 -0.02983011203244137
0.45128982156812797 0.36499130745827507 -0.02983011203244137
0.47931024013726786 0.4720814096547397 -0.02983011203244137
0.3599301317834375 0.4342866577096365 -0.02983011203244137
0.3286980044854714 0.33152192175787587 -0.02983011203244137
0.4540938520991774 0.2979332156093469 -0.028537473844368923
0.6939677263227161 0.36829250652319867 -0.028537473844368923
0.4798272954124969 0.2542818183352077 -0.027841437896945286
0.6426499902562394 0.42543705780667884 -0.027841437896945286
0.5309461640654238 0.5638885511199168 -0.027841437896945286
0.6885187591914568 0.45556547095944466 -0.027841437896945286
0.5995156482573293 0.2939160938556448 -0.027841437896945286
0.521718716076722 0.3467054487823885 -0.027841437896945286
0.4410481497703231 0.32456156228363964 -0.027841437896945286
0.3760483356516333 0.3564897255290294 -0.027841437896945286
0.30850301863950863 0.4379855916016592 -0.027841437896945286
0.4765658698302833 0.2921660606164082 -0.026548799708872802
0.5511908667647741 0.428897350802442 -0.026548799708872802
0.6500975748936723 0.3188043506613784 -0.02585276376144917
0.48266115605557885 0.2801942423207218 -0.02585276376144917
0.6366342509963636 0.42953372652580074 -0.02585276376144917
0.47996650260198165 0.5641271920161763 -0.02585276376144917
0.5812198462107652 0.27289580824345105 -0.02585276376144917
0.4521747815584237 0.31480711564903124 -0.02585276376144917
0.4437428032239203 0.4572558439746163 -0.02585276376144917
0.31800888100717994 0.361242656712865 -0.02585276376144917
0.39436402443955226 0.45831978463710676 -0.02585276376144917
0.7027874961136412 0.4027065124379585 -0.024560125573376716
0.2892625963785839 0.33722941652674976 -0.024560125573376716
0.48274070302099864 0.26735735077609457 -0.023864089625953083
0.6190145981558682 0.35234333995652 -0.023864089625953083
0.5721415487822255 0.4813585744968289 -0.023864089625953083
0.5690193303894966 0.5499877189127992 -0.023864089625953083
0.48925361081474833 0.27475521856014 -0.023864089625953083
0.5909643494746959 0.5250000284002907 -0.023864089625953083
0.44523430882554227 0.3242632611633152 -0.023864089625953083
0.4857137708535654 0.33239693837749423 -0.023864089625953083
0.3801251176294004 0.489701062495235 -0.023864089625953083
0.38454991758087914 0.31191359478188446 -0.023864089625953083
0.43664323656019927 0.3437224375791444 -0.022571451437880634
0.46925749238233516 0.5205752284488119 -0.022571451437880634
0.6740511548557225 0.4615414367366104 -0.021875415490456997
0.6917006378082504 0.3970885080051821 -0.021875415490456997
0.6518873816156188 0.3094575822245468 -0.021875415490456997
0.504128893348259 0.5539252937010812 -0.021875415490456997
0.6553178444993495 0.4697646042868867 -0.021875415490456997
0.5143208482926765 0.46225735942538904 -0.021875415490456997
0.4707489979839572 0.3048538016008734 -0.021875415490456997
0.3124405934277909 0.42800244744146876 -0.021875415490456997
0.38700593013821677 0.4487940355280805 -0.021875415490456997
0.7214412595045946 0.4158019316202002 -0.020582777302384548
0.3047344811527435 0.3503248357089915 -0.020582777302384548
0.3835456371424536 0.32148906074429806 -0.019886741354960914
0.3048438582301957 0.4353804284841593 -0.019886741354960914
0.5093889364366463 0.4755516460211803 -0.019886741354960914
0.4748655534444341 0.3081649440364744 -0.019886741354960914
0.5760691801998303 0.488169783410903 -0.019886741354960914
0.4915604728119238 0.525377876486035 -0.019886741354960914
0.5314930494526854 0.5590660163413387 -0.019886741354960914
0.6345560865247704 0.5044669679512934 -0.019886741354960914
0.48973089260726743 0.26669114494070334 -0.019886741354960914
0.3208029681675519 0.33722941652674976 -0.018594103166888466
0.7214412595045946 0.4027065124379585 -0.018594103166888466
0.3084731885274762 0.436802330491039 -0.01789806721946483
0.38824885147290183 0.44491612096386307 -0.01789806721946483
0.5226136194376954 0.3393970713344404 -0.01789806721946483
0.4419529965019738 0.32526754160174076 -0.01789806721946483
0.6877133461665806 0.3964819623938557 -0.01789806721946483
0.6805441759081176 0.36960503145262613 -0.01789806721946483
0.6646447261948261 0.32718661214249445 -0.01789806721946483
0.5044967980633259 0.532666367192628 -0.01789806721946483
0.6920486557819622 0.428897350802442 -0.016605429031392345
0.4387114576611152 0.49438439008432833 -0.016605429031392345
0.3580309479840387 0.46936686945978745 -0.01590939308396871
0.39410549680193785 0.34642703440341915 -0.01590939308396871
0.4517372732486146 0.344746604758925 -0.01590939308396871
0.44657666386700223 0.46764666633258345 -0.01590939308396871
0.5501269261022838 0.5020010120232784 -0.01590939308396871
0.48989992990878456 0.5257060077183918 -0.01590939308396871
0.5182981965636688 0.5596825053233425 -0.01590939308396871
0.6203867833093606 0.5202570405871325 -0.01590939308396871
0.5779783073699063 0.49910749115613146 -0.01590939308396871
0.6952504211401109 0.45508818916692556 -0.01461675489589626
0.3547396922897927 0.492803394146609 -0.01461675489589626
0.3127488379187927 0.36292308635735915 -0.013920718948472625
0.39321059344096454 0.4529304777299123 -0.013920718948472625
0.4781269790266477 0.3268385941687827 -0.013920718948472625
0.44867471507995055 0.37762933158935275 -0.013920718948472625
0.6588974579432424 0.413147051649313 -0.013920718948472625
0.5984019907414512 0.46881004070184856 -0.013920718948472625
0.5158620707476861 0.5089514281268372 -0.013920718948472625
0.4880206328507408 0.5252386692965502 -0.013920718948472625
0.5147583566024857 0.5408000444068072 -0.013920718948472625
0.6925557676865138 0.37106670694221566 -0.013423550414598596
0.5511908667647741 0.3503248357089915 -0.012628080760400177
0.49223662201799245 0.2954175428279443 -0.012628080760400177
0.369565257969916 0.48930332766813583 -0.011932044812976541
0.37565060082453416 0.30957690267267657 -0.011932044812976541
0.4535966835653034 0.3572653084418729 -0.011932044812976541
0.47122627977647624 0.5002808088960743 -0.011932044812976541
0.49782479633873644 0.5525431651769114 -0.011932044812976541
0.6191736920867079 0.517164652306436 -0.011932044812976541
0.6862616140476686 0.43266588828920716 -0.011932044812976541
0.5339689487513779 0.2572648295384519 -0.011932044812976541
0.5167669174793367 0.5218082064128193 -0.011932044812976541
0.36900842921197713 0.4158019316202002 -0.010639406624904093
0.44375274659459785 0.5024782938157974 -0.010639406624904093
0.31463807834751395 0.4483764139596263 -0.009943370677480457
0.3901778653843331 0.35564453902144344 -0.009943370677480457
0.359154548870594 0.4666523292648353 -0.009943370677480457
0.5244431996423516 0.3369708888891352 -0.009943370677480457
0.4786042608191668 0.4741794608676881 -0.009943370677480457
0.5861915315495054 0.32201605939020467 -0.009943370677480457
0.6297037216341597 0.3617696553587714 -0.009943370677480457
0.5981832365865467 0.4641764299661427 -0.009943370677480457
0.6009375502642089 0.28334629082548307 -0.009943370677480457
0.5536269925807569 0.5426395679821411 -0.009943370677480457
0.4833174185202926 0.49438439008432833 -0.008650732489408007
0.39571632285168973 0.35971137762853306 -0.008650732489408007
0.3897801305572338 0.34510456610331414 -0.007954696541984373
0.3573647421486476 0.48084151922159996 -0.007954696541984373
0.5146887530077433 0.33747800079368667 -0.007954696541984373
0.4426092589666875 0.32455161891296214 -0.007954696541984373
0.6806038361321821 0.44600989173838596 -0.007954696541984373
0.617582752778311 0.5184075736411211 -0.007954696541984373
0.5472135184937819 0.5555062896388006 -0.007954696541984373
0.553716482916854 0.2622862317305795 -0.007954696541984373
0.5386622197111488 0.521758489559432 -0.007954696541984373
0.7104737216473336 0.428897350802442 -0.007457528008110343
0.5451353540221884 0.3145386446407393 -0.006662058353911888
0.3760383922809559 0.35501810666876216 -0.005966022406488253
0.3530592626452985 0.47189248561186753 -0.005966022406488253
0.32671927372065274 0.33357025611743685 -0.005966022406488253
0.45140914201625776 0.48860729172071216 -0.005966022406488253
0.5257060077183917 0.33277478646323844 -0.005966022406488253
0.5314831060820079 0.255922474496992 -0.005966022406488253
0.632090130596755 0.2958152776550436 -0.005966022406488253
0.6690695261463048 0.3260630112559392 -0.005966022406488253
0.680305535011858 0.44204248683807124 -0.005966022406488253
0.5139529435776098 0.5432759437054997 -0.005966022406488253
0.4434643888449508 0.3634202548912333 -0.004673384218415804
0.48334724863232503 0.49438439008432833 -0.004673384218415804
0.3541729201611764 0.4224540466034347 -0.003977348270992168
0.32667950023794295 0.46765660970326084 -0.003977348270992168
0.34941998897734067 0.38914375483387514 -0.003977348270992168
0.45360662693598097 0.49260452673305927 -0.003977348270992168
0.5376778260140781 0.4611337585388337 -0.003977348270992168
0.678525671660589 0.34931061189988843 -0.003977348270992168
0.6795896123230794 0.4598510637214387 -0.003977348270992168
0.5899898991483027 0.5381551078065975 -0.003977348270992168
0.6166480759346279 0.4633213000878794 -0.003977348270992168
0.5518968460828751 0.2668104653888331 -0.003977348270992168
0.5392687653224749 0.4694066429424974 -0.002684710082919719
0.39878882439103114 0.3503248357089915 -0.002684710082919719
0.6586687604176603 0.41496668848329193 -0.001988674135496084
0.5420330223708146 0.297107915843116 -0.001988674135496084
0.5169956150049189 0.27771834302202925 -0.001988674135496084
0.5848690632494005 0.31381277858128326 -0.001988674135496084
0.5572264927660048 0.5048149859250054 -0.001988674135496084
0.5145396024475812 0.33710015270794247 -0.001988674135496084
0.45226427189452106 0.3551672572289244 -0.001988674135496084
0.3116550671442699 0.4410879232530331 -0.001988674135496084
0.36949565437517373 0.3143497205978672 -0.001988674135496084
0.32055438390061497 0.395845586670497 -0.001988674135496084
0.547233405235137 0.44199276998468373 -6.960359474236348E-4
0.3891835283165849 0.3076876622439553 -6.960359474236348E-4
0.373433229163456 0.31732278843043377 0.0
0.36222705040993547 0.4330039628922414 0.0
0.3420420079346501 0.39238529367473385 0.0
0.45376572086682054 0.4271870910459154 0.0
0.48653907061979623 0.48304894751200056 0.0
0.6653606488836047 0.40374062298841645 0.0
0.5390201810555382 0.2933990385804159 0.0
0.5727679811349066 0.27218982892535 0.0
0.5339590053807004 0.5336507608896988 0.0
0.6882105147004548 0.3666717371027694 0.0
0.4507827096635765 0.5074798092665701 0.0012926381880724496
0.5126801921308922 0.2828391789209315 0.0012926381880724496
0.6478404297498841 0.42866865327686005 0.001988674135496084
0.5691287074669489 0.26473230091723965 0.001988674135496084
0.7105632119834308 0.42225517918988503 0.001988674135496084
0.5833576709064235 0.48911440362526365 0.001988674135496084
0.6847701084460466 0.3600096787488575 0.001988674135496084
0.523329542126474 0.4638383553631083 0.001988674135496084
0.4603283455139576 0.30471459441138854 0.001988674135496084
0.46656283892873796 0.38768207934428556 0.001988674135496084
0.30863228245831575 0.45032531461241243 0.001988674135496084
0.3286681743734389 0.3302889437938683 0.001988674135496084
0.3342662920648604 0.40387983017790113 0.001988674135496084
0.45101140718915844 0.5074798092665701 0.0032813123235685693
0.4409089425808384 0.45508818916692556 0.0032813123235685693
0.5221661677572087 0.290505517713269 0.0032813123235685693
0.6176125828903436 0.28737335594986263 0.003977348270992204
0.6942461407016854 0.4508125397756089 0.003977348270992204
0.5626456297852315 0.2877412606649295 0.003977348270992204
0.5707395335167008 0.5301009775578382 0.003977348270992204
0.4793201835079454 0.4857535443362753 0.003977348270992204
0.47550192916779294 0.30780698269208506 0.003977348270992204
0.3519356617587432 0.42574530229768065 0.003977348270992204
0.3604173569466341 0.48011565316214383 0.003977348270992204
0.31646765855217046 0.41121803773788174 0.003977348270992204
0.3331128610662727 0.4079168386729583 0.003977348270992204
0.49879924666512954 0.5074798092665701 0.005269986459064653
0.46945635979588474 0.29478116710458563 0.005269986459064653
0.44370302974121034 0.36555807958689146 0.005269986459064653
0.6060484427924338 0.5184075736411211 0.005966022406488288
0.63716124964227 0.37493467813575554 0.005966022406488288
0.5579424154547834 0.5234687493159587 0.005966022406488288
0.5776004592841623 0.2973067832566657 0.005966022406488288
0.4647332587240816 0.3575039493381323 0.005966022406488288
0.49089426697653266 0.4838145870541666 0.005966022406488288
0.4659165198347018 0.4526321766095879 0.005966022406488288
0.3219563991661396 0.45963230956653406 0.005966022406488288
0.32478031643854416 0.39336968737180444 0.005966022406488288
0.3634301982619107 0.3132460064526668 0.005966022406488288
0.3410277841255472 0.3745966035327213 0.005966022406488288
0.5511908667647741 0.4027065124379585 0.0072586605945607376
0.39869933405493385 0.4812790275314091 0.0072586605945607376
0.32131008007210343 0.46275452795926303 0.007954696541984373
0.34459745419876264 0.43194002222975103 0.007954696541984373
0.3074291346063407 0.3773111437276734 0.007954696541984373
0.47813692239732525 0.4880206328507408 0.007954696541984373
0.4438919537840825 0.3245317321716072 0.007954696541984373
0.46986403799366144 0.37388068084394266 0.007954696541984373
0.4581905208182994 0.49164001977734373 0.007954696541984373
0.5855253257141142 0.4805531614719529 0.007954696541984373
0.5828704457432269 0.26834174447316506 0.007954696541984373
0.5699042903797924 0.2947911104752632 0.007954696541984373
0.5765166318803168 0.5219673003436591 0.007954696541984373
0.5408099877774843 0.29691899180024395 0.009247334730056822
0.39872916416696624 0.32413399734450793 0.009247334730056822
0.7055219230499481 0.41696530598946546 0.009943370677480457
0.5823235603559654 0.47936990036133276 0.009943370677480457
0.5705108359911187 0.5246022935731914 0.009943370677480457
0.5800564718414998 0.3064149107972378 0.009943370677480457
0.4640272794059804 0.35273113141294177 0.009943370677480457
0.5340385523461204 0.46561821871437736 0.009943370677480457
0.5285995285855385 0.35091149457896276 0.009943370677480457
0.4811696504539567 0.3642356112867866 0.009943370677480457
0.35659910260648164 0.3295531343637348 0.009943370677480457
0.3655978530696013 0.4866285609558935 0.009943370677480457
0.30678281551230446 0.4301800456198371 0.009943370677480457
0.5357289253612919 0.2979332156093469 0.011236008865552906
0.37774865203748254 0.30348161644738103 0.011236008865552906
0.3853652739764326 0.45140914201625776 0.011932044812976541
0.384609577804944 0.325337145196483 0.011932044812976541
0.4768343408385753 0.31151585995478515 0.011932044812976541
0.4641366564834327 0.49989301743965253 0.011932044812976541
0.4578425028445875 0.3566388760891916 0.011932044812976541
0.492992318189481 0.38178566053253965 0.011932044812976541
0.528649245438926 0.4404714342710293 0.011932044812976541
0.610274375330363 0.3424894596151369 0.011932044812976541
0.5952002253833025 0.5286890189216358 0.011932044812976541
0.7030261370099008 0.4046056962373573 0.011932044812976541
0.5260937991748135 0.4784749970003596 0.013224683001049026
0.29746587718750533 0.447749981606945 0.013224683001049026
0.3505734199759284 0.39331002714773955 0.013224683001049026
0.31413096644296257 0.435251164665352 0.013920718948472662
0.31193348152323935 0.3572255349591629 0.013920718948472662
0.3930813296221574 0.33343104892795217 0.013920718948472662
0.4483465838475937 0.32520788137767587 0.013920718948472662
0.4897706660899774 0.30843341504476635 0.013920718948472662
0.5224048086534682 0.3630722369175214 0.013920718948472662
0.494294899748231 0.42676946947746125 0.013920718948472662
0.6940671600294908 0.4410978666237106 0.013920718948472662
0.6580025545822691 0.403710792876384 0.013920718948472662
0.5932712114718713 0.500628826869786 0.013920718948472662
0.5896319378039137 0.29762497111834507 0.013920718948472662
0.5510914330579993 0.30158243264798223 0.01521335713654511
0.4457911375834813 0.44956961844092386 0.01521335713654511
0.34370255083778933 0.3222049834330767 0.01521335713654511
0.3934691210785791 0.46225735942538904 0.015909393083968746
0.3714743851399923 0.3138525520639931 0.015909393083968746
0.5291762440848324 0.44327546480207874 0.015909393083968746
0.4815474985397009 0.4977154192612843 0.015909393083968746
0.48524643243172366 0.44321580457801385 0.015909393083968746
0.5022893697729252 0.36375832949426756 0.015909393083968746
0.5932214946184841 0.3163781682160732 0.015909393083968746
0.5873549059187705 0.4827605897623537 0.015909393083968746
0.627078671775305 0.49500087906633206 0.015909393083968746
0.6104135825198476 0.31670629944843004 0.015909393083968746
0.5422617198963967 0.46207837875319435 0.017202031272041195
0.3223143605105289 0.3193711227899948 0.017202031272041195
0.2892625963785839 0.428897350802442 0.017202031272041195
0.39284268872589784 0.4719919193186424 0.01789806721946483
0.35310897949868586 0.3274948566334964 0.01789806721946483
0.5013944664119521 0.32762412045230355 0.01789806721946483
0.5310754278842311 0.459423498782307 0.01789806721946483
0.47187259887051247 0.5028959153842515 0.01789806721946483
0.48643963691302133 0.42013724123558177 0.01789806721946483
0.6473929780693977 0.4302496492145793 0.01789806721946483
0.6132971600163172 0.5119244959594038 0.01789806721946483
0.6256667131391028 0.4582998978957517 0.01789806721946483
0.6257462601045225 0.3451244528446692 0.01789806721946483
0.2985198744793182 0.3503248357089915 0.01919070540753728
0.44008364281460743 0.3438616447686291 0.01919070540753728
0.6006690792559168 0.3189336144801857 0.019886741354960914
0.5927740429379973 0.48291968369319327 0.019886741354960914
0.6324480919411444 0.4568481657768395 0.019886741354960914
0.6240658304600285 0.3301199064923512 0.019886741354960914
0.4924056593195096 0.41851647181515245 0.019886741354960914
0.4931812422323531 0.3632313308483611 0.019886741354960914
0.4573353909400361 0.3055001206949096 0.019886741354960914
0.5207144356382966 0.4024778149123765 0.019886741354960914
0.38498742589068824 0.3444284168972455 0.019886741354960914
0.3460392429469973 0.4347639395021555 0.019886741354960914
0.33262563590307626 0.4750544774873063 0.019886741354960914
0.47911137272371834 0.438085025308434 0.021179379543033363
0.3023580155608256 0.5074798092665701 0.021179379543033363
0.6040697120276153 0.32451184543025213 0.021875415490456997
0.6364055534707815 0.4482570935114965 0.021875415490456997
0.6435051201345026 0.36261484186635734 0.021875415490456997
0.45423305928866214 0.49130194517430936 0.021875415490456997
0.46477303220679145 0.4500469002334429 0.021875415490456997
0.49179911370818336 0.43762763025726986 0.021875415490456997
0.5081957319553486 0.4469942854354564 0.021875415490456997
0.383615240737196 0.34721256068694006 0.021875415490456997
0.3065143445040125 0.3340375945392784 0.021875415490456997
0.3552965210477317 0.488666951944777 0.021875415490456997
0.47911137272371834 0.4316516644801041 0.023168053678529484
0.4333221507539208 0.5205752284488119 0.023168053678529484
0.61048318611459 0.3044660101444516 0.023864089625953117
0.6024389992365083 0.3031037683616368 0.023864089625953117
0.6348742743864496 0.48229325134051215 0.023864089625953117
0.6306781719605529 0.324094223861798 0.023864089625953117
0.5232400517903766 0.3490918577449839 0.023864089625953117
0.4548197181586336 0.49703927005521553 0.023864089625953117
0.46691085690244977 0.34700374990271293 0.023864089625953117
0.31265934758269537 0.3520251520948407 0.023864089625953117
0.3706689721151164 0.30978571345690364 0.023864089625953117
0.30823454763121666 0.4653596910767629 0.023864089625953117
0.45424300265933965 0.4128189204169561 0.025156727814025566
0.5511908667647741 0.3634202548912333 0.025156727814025566
0.4920874714578302 0.2979332156093469 0.025156727814025566
0.6208242916191699 0.3010454906313983 0.025852763761449203
0.6451159461842545 0.45210517796368144 0.025852763761449203
0.6517382310554565 0.3679643752908418 0.025852763761449203
0.5195411178983539 0.4527813271697501 0.025852763761449203
0.4625357738043584 0.45811097385287963 0.025852763761449203
0.5239062576257677 0.3386314317922744 0.025852763761449203
0.34441847352656796 0.33012984986302857 0.025852763761449203
0.3321284673692021 0.4676864398152933 0.025852763761449203
0.3441400591475986 0.46569776567979715 0.025852763761449203
0.30860245234628336 0.4224441032327572 0.027145401949521652
0.46011953472973055 0.3849575957786559 0.027145401949521652
0.6417451435245887 0.48373504008874674 0.027841437896945286
0.6339395975427665 0.495080426031752 0.027841437896945286
0.6308770393741026 0.3236766022933439 0.027841437896945286
0.48346656908045477 0.45459102063305157 0.027841437896945286
0.5007083738352058 0.357663043268972 0.027841437896945286
0.5216888859646897 0.35624114126209233 0.027841437896945286
0.37708244620209125 0.317740409998888 0.027841437896945286
0.3190529349283153 0.4380750819377565 0.027841437896945286
0.29962358862451854 0.3634202548912333 0.029134076085017738
0.4996742632847479 0.3740497181454598 0.029134076085017738
0.5642862859470159 0.49595544265137026 0.029134076085017738
0.6686717913192057 0.4626053773991008 0.02983011203244137
0.7130391112821234 0.4204554290972611 0.02983011203244137
0.6480890140168212 0.3624756346768725 0.02983011203244137
0.45638082735499796 0.460934891125284 0.02983011203244137
0.5081758452139937 0.45055401213799445 0.02983011203244137
0.5013348061878872 0.31953021672083454 0.02983011203244137
0.3307861123277423 0.3313230543443263 0.02983011203244137
0.34080902997064255 0.4679151373408754 0.02983011203244137
0.3658762674485708 0.4515284624643875 0.02983011203244137
0.46269486773519797 0.4158019316202002 0.03112275022051382
0.4996742632847479 0.4289570110265069 0.03112275022051382
0.6387323022093121 0.3213498535548134 0.03181878616793746
0.6830300185774876 0.3600693389729223 0.03181878616793746
0.6900301515344337 0.3692669568495917 0.03181878616793746
0.4723101071803217 0.5010464484382402 0.03181878616793746
0.514141867620482 0.336284796312389 0.03181878616793746
0.37665488126295965 0.35360614803255996 0.03181878616793746
0.31353436420231373 0.32668944360862046 0.03181878616793746
0.32608289799729406 0.47531300512492086 0.03181878616793746
0.4922863388713798 0.2979332156093469 0.03311142435600994
0.4764564927528309 0.511805175511274 0.03311142435600994
0.6798183098486613 0.44963922203566625 0.033807460303433574
0.6361271390918122 0.47207146628406216 0.033807460303433574
0.6645154623760188 0.35731502529526027 0.033807460303433574
0.4619093414516771 0.49677079904692356 0.033807460303433574
0.4961940835476296 0.32566527642883986 0.033807460303433574
0.5134060581903483 0.3445576807160528 0.033807460303433574
0.36170999513470653 0.36432510162288395 0.033807460303433574
0.34599946946428745 0.43322271704714604 0.033807460303433574
0.3771122763141237 0.45479983141727864 0.033807460303433574
0.5511908667647741 0.37651567407347497 0.03510009849150603
0.6504157627553517 0.33919820392089084 0.03579613443892966
0.692396673755674 0.3780071796750971 0.03579613443892966
0.6694076007493394 0.43676255700832906 0.03579613443892966
0.49334033616319284 0.4958858390566278 0.03579613443892966
0.48011565316214383 0.30291484431876464 0.03579613443892966
0.3162986212506532 0.3345049329611201 0.03579613443892966
0.3820044146874441 0.31461819160615917 0.03579613443892966
0.3338387271257288 0.4357980500526135 0.03579613443892966
0.5511908667647741 0.4681836083491673 0.03708877262700211
0.526829608604947 0.35838890932842815 0.03708877262700211
0.6528916620540443 0.33712003944929736 0.037784808574425746
0.6847899951874016 0.4298618577581576 0.037784808574425746
0.516190201980043 0.48139834797953884 0.037784808574425746
0.4651011634391483 0.34954925279614796 0.037784808574425746
0.5077383369041845 0.3645637425191435 0.037784808574425746
0.3470832968681328 0.3250885609295461 0.037784808574425746
0.3473219377643923 0.4748556100737567 0.037784808574425746
0.30941780874183683 0.4404117740469644 0.037784808574425746
0.2997627958140032 0.44199276998468373 0.03907744676249819
0.7019920264594427 0.4200079774167745 0.03977348270992183
0.6667726075198069 0.35704655428696824 0.03977348270992183
0.4567189019580322 0.47030154630347065 0.03977348270992183
0.5122327404504056 0.4665131220753506 0.03977348270992183
0.44811788632201166 0.33406742465131084 0.03977348270992183
0.3713650080625401 0.35894573808636704 0.03977348270992183
0.32246351107069116 0.36169010839335164 0.03977348270992183
0.3747059806101735 0.4416845254936819 0.03977348270992183
0.5163194657988501 0.49438439008432833 0.040270651243795856
0.3283002696583722 0.319560046832867 0.040270651243795856
0.6894037191817525 0.36163044816928674 0.04176215684541791
0.4917891703375058 0.4888260458756168 0.04176215684541791
0.4621877558306466 0.34875378314194955 0.04176215684541791
