0.5585233756869122 0.6317213917309206 -0.09662775661770275
0.38675508626845373 0.10546869826700281 -0.09662775661770275
0.527492915700918 0.4106530231886464 -0.09662775661770275
0.531457642209562 0.3335998585043236 -0.09662775661770275
0.4430183408433801 0.6663181132498157 -0.09612967539802388
0.4002730105705385 0.5779485432543886 -0.09533274544653766
0.5062846173669915 0.3722310379026176 -0.09533274544653766
0.5456429953460166 0.08190945657619182 -0.09533274544653766
0.385310650731385 0.2237032181943754 -0.09533274544653766
0.3746517126302569 0.4521730736610778 -0.09463543173898722
0.37105556622417546 0.43338545005479046 -0.09463543173898722
0.2886032011185336 0.2831641541996402 -0.09463543173898722
0.3943259208075727 0.1601380929389567 -0.09463543173898722
0.5179994876538386 0.3431132098001902 -0.09463543173898722
0.41618172472708204 0.6469128689311264 -0.09463543173898722
0.4395716188032022 0.37318735384440094 -0.09463543173898722
0.4859828268528802 0.45334854533951985 -0.09463543173898722
0.5473165482441377 0.3337492828702273 -0.09463543173898722
0.5163558196288984 0.33398836185567304 -0.09463543173898722
0.44303826409216723 0.3711651440925046 -0.09463543173898722
0.4927069233185452 0.15371284520509917 -0.09463543173898722
0.6147467837642644 0.47908938277252444 -0.09463543173898722
0.6768475502338273 0.472992868643655 -0.09334042056782213
0.4819583305978749 0.49923178729633827 -0.09334042056782213
0.3881995218055226 0.21058375886803374 -0.09334042056782213
0.6768475502338273 0.14498646223632514 -0.09334042056782213
0.385310650731385 0.5641616550936771 -0.09264310686027169
0.38368690595523186 0.5716727198864348 -0.09264310686027169
0.3680571172817086 0.17592726760277727 -0.09264310686027169
0.27415884574784605 0.28871277898686293 -0.09264310686027169
0.4414145193160141 0.0824174994202643 -0.09264310686027169
0.5242354645242182 0.39821095432106784 -0.09264310686027169
0.5279511504230228 0.3923734424264314 -0.09264310686027169
0.4987735525742339 0.2789902335787312 -0.09264310686027169
0.4864211383261977 0.654443856972671 -0.09264310686027169
0.49502798180224866 0.0808236395172919 -0.09264310686027169
0.5066631590939474 0.596925437724154 -0.09264310686027169
0.5193443069469716 0.12707546157667274 -0.09264310686027169
0.5062846173669915 0.06625974465388142 -0.09134809568910661
0.4200468349917901 0.30084603749824035 -0.09134809568910661
0.40253429930788065 0.5648290839280469 -0.09134809568910661
0.4998195231355596 0.36832608114033505 -0.09134809568910661
0.36341500031430146 0.5576367911158837 -0.09065078198155618
0.3972048302573167 0.5589417639114425 -0.09065078198155618
0.2894599008163813 0.2905257946264939 -0.09065078198155618
0.3606954768548547 0.16568671772617943 -0.09065078198155618
0.43469042285034915 0.08637226430451451 -0.09065078198155618
0.6274976629880437 0.48873223518550757 -0.09065078198155618
0.654732744080085 0.5482429793127402 -0.09065078198155618
0.4259540782571816 0.09152242411599425 -0.09065078198155618
0.4963030697246266 0.5961484310214549 -0.09065078198155618
0.6133820412223442 0.2869296482204125 -0.09065078198155618
0.621191954746909 0.16357485335474095 -0.09065078198155618
0.503136744058621 0.5875515491697975 -0.09065078198155618
0.41765604513733146 0.44675394999097157 -0.08935577081039109
0.6517342951376179 0.49923178729633827 -0.08935577081039109
0.5062846173669915 0.06625974465388142 -0.08935577081039109
0.38262101214511907 0.19746429954169198 -0.08935577081039109
0.3545391929796238 0.4477401508059358 -0.08865845710284066
0.41041394420320054 0.4500512476652458 -0.08865845710284066
0.3590717320787016 0.25543099188792007 -0.08865845710284066
0.5092830663094582 0.1456439294463013 -0.08865845710284066
0.4926770384453645 0.28624229613725566 -0.08865845710284066
0.5032562835513439 0.5906496143562001 -0.08865845710284066
0.45062902188007337 0.6455580880135999 -0.08865845710284066
0.640836278051044 0.16744992524384275 -0.08865845710284066
0.47160820285294774 0.38386621519431613 -0.08865845710284066
0.47818287495270895 0.37019886652632766 -0.08865845710284066
0.5263871753932311 0.28452889674156034 -0.08865845710284066
0.6489649635562035 0.15810592156266692 -0.08736344593167557
0.3750800624791808 0.14245620964035652 -0.08736344593167557
0.6768475502338273 0.5385901652753636 -0.08736344593167557
0.4166897675711545 0.42584450038885213 -0.08736344593167557
0.3505545432221927 0.4468635278593009 -0.08666613222412513
0.4110514881643896 0.4500412860408522 -0.08666613222412513
0.3867650478928473 0.29176103605129766 -0.08666613222412513
0.5104186914903261 0.09962122474797286 -0.08666613222412513
0.4309946602003319 0.649562661019818 -0.08666613222412513
0.4871084904093545 0.5757769091365889 -0.08666613222412513
0.49534675378284326 0.640627083938779 -0.08666613222412513
0.6631005085706901 0.20073171234278545 -0.08666613222412513
0.4546634797594723 0.3708762569850909 -0.08666613222412513
0.46919748974970205 0.367290072203403 -0.08666613222412513
0.49399197286531665 0.15369292195631207 -0.08666613222412513
0.5083964817384298 0.6404676979484818 -0.08666613222412513
0.3881995218055226 0.2499421368470588 -0.08537112105296006
0.5850113349494354 0.39426615106121116 -0.08537112105296006
0.4759116245909733 0.5517096246017051 -0.08537112105296006
0.3692823970821187 0.5609440504145518 -0.08467380734540962
0.40264387717621 0.43293717695707945 -0.08467380734540962
0.3673199570765839 0.17716250902758085 -0.08467380734540962
0.2647550723203088 0.19818153649802958 -0.08467380734540962
0.44882596786483586 0.08352323972795131 -0.08467380734540962
0.49461955520211204 0.6475205280191347 -0.08467380734540962
0.49250769083067353 0.643735110749575 -0.08467380734540962
0.6141291630518627 0.2839909690243071 -0.08467380734540962
0.5267159089982191 0.3263976040677669 -0.08467380734540962
0.538630011772938 0.435327966811538 -0.08467380734540962
0.5400346008124323 0.5563019334471445 -0.08467380734540962
0.5693616230271249 0.30321690410391183 -0.08467380734540962
0.689967009560169 0.15810592156266692 -0.08337879617424453
0.4406873207352829 0.11874754358364173 -0.08337879617424453
0.6768475502338273 0.5254707059490218 -0.08337879617424453
0.41889128656213503 0.4284644076043631 -0.08337879617424453
0.28407066201945586 0.43711109757798844 -0.08268148246669409
0.4025940690542421 0.432877407210718 -0.08268148246669409
0.3544794232332623 0.2832538088191824 -0.08268148246669409
0.501931387506998 0.2509582225352038 -0.08268148246669409
0.4566856895113686 0.6550415544362858 -0.08268148246669409
0.49220884209886623 0.3557246262824594 -0.08268148246669409
0.5278614958034805 0.29041621675816465 -0.08268148246669409
0.5954411556895111 0.6172670747358395 -0.08268148246669409
0.6593250529255241 0.1793341431453808 -0.08268148246669409
0.5179795644050516 0.595909352036009 -0.08268148246669409
0.51778033191718 0.23449165741261993 -0.08268148246669409
0.5062846173669915 0.07230645066078302 -0.081386471295529
0.4825759513102767 0.19746429954169198 -0.081386471295529
0.5981307942757769 0.6246287151626934 -0.081386471295529
0.3564020167412228 0.4336344906646298 -0.081386471295529
0.3756877215671891 0.44522982145875417 -0.08068915758797858
0.3618510252845097 0.4558190281891272 -0.08068915758797858
0.40182702397593667 0.2911334537145022 -0.08068915758797858
0.515867700033613 0.14388072192863813 -0.08068915758797858
0.5297641660626539 0.4500711709140329 -0.08068915758797858
0.5588421476675068 0.4059610980992713 -0.08068915758797858
0.5114547004272582 0.0998503421090251 -0.08068915758797858
0.47626028144474847 0.5921139731420559 -0.08068915758797858
0.5128692510911461 0.3776700848215109 -0.08068915758797858
0.5236676519337843 0.604755274497506 -0.08068915758797858
0.5398851764465287 0.2867403773569345 -0.08068915758797858
0.4669262393879663 0.5254707059490218 -0.08019107636829968
0.3397561423795547 0.2003930171134039 -0.07939414641681349
0.4173970429030985 0.44675394999097157 -0.07939414641681349
0.6768475502338273 0.6041974235314655 -0.07939414641681349
0.28424997125854023 0.44140455769162035 -0.07869683270926306
0.3578763371514722 0.5625777568150984 -0.07869683270926306
0.3473668234162479 0.19127813079328032 -0.07869683270926306
0.36866477636971673 0.2855649056784924 -0.07869683270926306
0.5110661970759086 0.08774696847082827 -0.07869683270926306
0.5791040916840436 0.4252667261740247 -0.07869683270926306
0.5816443059044059 0.4222284307339835 -0.07869683270926306
0.4881743842194673 0.08806574045142272 -0.07869683270926306
0.4931253115430753 0.45738300321891884 -0.07869683270926306
0.532662998761185 0.28195879764801723 -0.07869683270926306
0.5617907884880058 0.31820914881624623 -0.07869683270926306
0.5430529730036863 0.6051637010976426 -0.07869683270926306
0.5113052760613545 0.5263572905200502 -0.07869683270926306
0.5062846173669915 0.053140285327539644 -0.07740182153809796
0.4800456987143081 0.2499421368470588 -0.07740182153809796
0.5081175562554098 0.6630706236975091 -0.07740182153809796
0.4144484020825995 0.45987340931731324 -0.07740182153809796
0.3690333564722792 0.5611333212780295 -0.07670450783054752
0.2691879951754509 0.5410606481249708 -0.07670450783054752
0.28661087623981807 0.2907250271143656 -0.07670450783054752
0.3888569890154986 0.1596101268460971 -0.07670450783054752
0.48509624228185183 0.08299527363509172 -0.07670450783054752
0.49284638606005526 0.5376338493335802 -0.07670450783054752
0.5112753911881738 0.5958794671628285 -0.07670450783054752
0.6606698722186573 0.18263144081965502 -0.07670450783054752
0.4862517907115068 0.38380644544795467 -0.07670450783054752
0.5590812266529528 0.4491048933478559 -0.07670450783054752
0.5467487356537036 0.5250921642220657 -0.07670450783054752
0.5520981279530549 0.2257553128194524 -0.07670450783054752
0.5378928515678131 0.1168349117000749 -0.07670450783054752
0.4687691399007782 0.5254707059490218 -0.07620642661086865
0.481838791105152 0.18434484021535033 -0.07540949665938246
0.7030864688865105 0.5517096246017051 -0.07540949665938246
0.486460984823772 0.472992868643655 -0.07540949665938246
0.38332828747706305 0.20900982221384848 -0.07540949665938246
0.4850563957842776 0.4380574518953783 -0.07471218295183202
0.3609245942159071 0.5507533086599219 -0.07471218295183202
0.35892230771279793 0.5458621510826751 -0.07471218295183202
0.4032913827617925 0.29138249432434177 -0.07471218295183202
0.4685101376665452 0.653288308543016 -0.07471218295183202
0.5520084733335126 0.41430893934108926 -0.07471218295183202
0.49763792739336604 0.3524074053593981 -0.07471218295183202
0.49277665468930015 0.6472615257849016 -0.07471218295183202
0.5843638293638528 0.6280654755784776 -0.07471218295183202
0.5450154130092211 0.100039612972503 -0.07471218295183202
0.6574522675395316 0.5459219208290366 -0.07471218295183202
0.4970800764273257 0.16133348786618604 -0.07471218295183202
0.4800456987143081 0.18434484021535033 -0.07341717178066692
0.6374891722548022 0.4336344906646298 -0.07341717178066692
0.48264568268103175 0.48611232796999665 -0.07341717178066692
0.3881995218055226 0.2499421368470588 -0.07341717178066692
0.4789001119090466 0.5346354003911131 -0.07271985807311648
0.3565614027315201 0.4502903266506917 -0.07271985807311648
0.4121074203501087 0.43125366243456487 -0.07271985807311648
0.3664732190031297 0.1802207277164092 -0.07271985807311648
0.3559437820191183 0.19245360247172244 -0.07271985807311648
0.5582145653307116 0.3238075817254368 -0.07271985807311648
0.4957651420073734 0.3719421507952037 -0.07271985807311648
0.45987340931731335 0.6496523156393603 -0.07271985807311648
0.6439343432374468 0.5817239988995545 -0.07271985807311648
0.5365679555234674 0.6242501734357373 -0.07271985807311648
0.49717969267126155 0.2862024496396813 -0.07271985807311648
0.4829146465396584 0.24784023410001393 -0.07222177685343761
0.5276024935692476 0.43855553311505713 -0.0714248469019514
0.40199637159062745 0.5648290839280469 -0.0714248469019514
0.6324087438140774 0.13186700290998352 -0.0714248469019514
0.38588842494621245 0.23682267752071717 -0.0714248469019514
0.4832732650178272 0.5417480002081275 -0.07072753319440098
0.28517640232714286 0.4370812127048077 -0.07072753319440098
0.40073124529264315 0.43309656294737675 -0.07072753319440098
0.3683061578915481 0.17191273297216544 -0.07072753319440098
0.37529921821583956 0.3006069585127945 -0.07072753319440098
0.47559285261037887 0.07849261940919466 -0.07072753319440098
0.5637831133667215 0.6314823127454746 -0.07072753319440098
0.5772412679224448 0.10595681786228817 -0.07072753319440098
0.5207090494888917 0.34139981040449474 -0.07072753319440098
0.45826958778994736 0.6462255168479694 -0.07072753319440098
0.5928810182203615 0.28270591947753554 -0.07072753319440098
0.4988532455693825 0.23744029823311896 -0.07072753319440098
0.48422958095961055 0.4834326510081243 -0.07022945197472208
0.38330836422827597 0.21058375886803374 -0.06943252202323587
0.689967009560169 0.16869512829303995 -0.06943252202323587
0.5125106326129775 0.6128241902563039 -0.06943252202323587
0.41658018970282507 0.4538765114323796 -0.06943252202323587
0.5335894298297877 0.44843746451348615 -0.06873520831568546
0.37053756175570934 0.4322797097471033 -0.06873520831568546
0.4853652061404784 0.1505151637747608 -0.06873520831568546
0.5206492797425303 0.6472914106580822 -0.06873520831568546
0.663977131517325 0.5410706097493644 -0.06873520831568546
0.5451747989995184 0.10281890617831124 -0.06873520831568546
0.5578161003549683 0.4115894158816426 -0.06873520831568546
0.5946143408648441 0.6243796745528539 -0.06873520831568546
0.5556145813639877 0.6321696648286314 -0.06873520831568546
0.3357216845001557 0.49923178729633827 -0.06744019714452036
0.520280699639968 0.6307551141647434 -0.06744019714452036
0.6380968313428101 0.46113853561529766 -0.06744019714452036
0.3650686299636353 0.2960843810381103 -0.06744019714452036
0.5210676679670606 0.10771006375555785 -0.06744019714452036
0.4757422769762825 0.5932097518253496 -0.06674288343696992
0.3821129693010466 0.4485669656306027 -0.06674288343696992
0.4976976971397275 0.2863618356299786 -0.06674288343696992
0.4974486565298881 0.23368476583674025 -0.06674288343696992
0.5759562183756731 0.41826370422533965 -0.06674288343696992
0.6487557694439384 0.5742228957311907 -0.06674288343696992
0.5109167727100049 0.3700295189116369 -0.06674288343696992
0.6776444801853133 0.20117002381610286 -0.06674288343696992
0.630296879442639 0.26437653059335275 -0.06674288343696992
0.6488055775659063 0.14498646223632514 -0.06544787226580484
0.4800456987143081 0.24889616628573324 -0.06544787226580484
0.4797568116068942 0.27619101712413585 -0.06544787226580484
0.55258624754834 0.4207043022017662 -0.06544787226580484
0.34514538117648014 0.5569095925351528 -0.06544787226580484
0.4931651580406497 0.6829141794895159 -0.06544787226580484
0.49518736779254596 0.43869499585656735 -0.06475055855825441
0.38279035975980985 0.44737157070337336 -0.06475055855825441
0.4856939397454665 0.15032589291128276 -0.06475055855825441
0.46865956203244885 0.6581595428714755 -0.06475055855825441
0.6202954085514872 0.4609592263762133 -0.06475055855825441
0.6167191853941928 0.605582089322173 -0.06475055855825441
0.5362790684160536 0.3842347952968786 -0.06475055855825441
0.6771563605900282 0.20566271641760642 -0.06475055855825441
0.6519932973718511 0.5165351288679828 -0.06475055855825441
0.3857888087022767 0.23814757356506294 -0.06345554738708932
0.5421066186862964 0.21058375886803374 -0.06345554738708932
0.6079828408010252 0.3155493951031609 -0.06345554738708932
0.5332108881028317 0.588717059223846 -0.06345554738708932
0.35797595339540805 0.4787805724163236 -0.06345554738708932
0.4878257273656921 0.5550766536467345 -0.06275823367953888
0.3694019365748416 0.5577364073598198 -0.06275823367953888
0.40334119088376047 0.30010887729311564 -0.06275823367953888
0.4890808920392829 0.18104754254107613 -0.06275823367953888
0.5711049072960008 0.10759052426283491 -0.06275823367953888
0.5752290197949421 0.41667980594676074 -0.06275823367953888
0.5734558506528851 0.1206402522184216 -0.06275823367953888
0.578695665083907 0.43048661735625937 -0.06275823367953888
0.6144778199056379 0.20746577043284395 -0.06275823367953888
0.6056617823173215 0.4673844741100708 -0.06275823367953888
0.5467885821512779 0.18434484021535033 -0.0614632225083738
0.6234930899818256 0.11874754358364173 -0.0614632225083738
0.5981307942757769 0.6566752608368324 -0.0614632225083738
0.4406873207352829 0.5648290839280469 -0.0614632225083738
0.49310538829428824 0.4433968825703359 -0.060765908800823366
0.3820930460522595 0.4392528468226076 -0.060765908800823366
0.3694118981992351 0.1795931453796138 -0.060765908800823366
0.48794526685841505 0.2380081108235529 -0.060765908800823366
0.5785063942204289 0.11213302498630633 -0.060765908800823366
0.575587638273111 0.41623153284904973 -0.060765908800823366
0.5279113039254484 0.6514155231570234 -0.060765908800823366
0.5751592884241871 0.40681779779711896 -0.060765908800823366
0.5922135893859918 0.12636818624472862 -0.060765908800823366
0.386775009517241 0.45987340931731324 -0.05947089762965827
0.5587724162967518 0.5123512466226801 -0.05947089762965827
0.5850113349494354 0.34431856635181307 -0.05947089762965827
0.4182338193521589 0.27930900555932564 -0.05947089762965827
0.4406873207352829 0.11874754358364173 -0.05947089762965827
0.4961934918562973 0.4409363613451222 -0.05877358392210785
0.37032836764344423 0.17075718454251043 -0.05877358392210785
0.502449391975464 0.27654963560230467 -0.05877358392210785
0.5876212805405526 0.11265102945477229 -0.05877358392210785
0.6104234387774516 0.3003479562785615 -0.05877358392210785
0.5464996950438642 0.3969956361450514 -0.05877358392210785
0.6217298824641622 0.6086303463866075 -0.05877358392210785
0.6268103109048869 0.2725052160985121 -0.05877358392210785
0.5978020606707889 0.6031414913457464 -0.05877358392210785
0.506155116249875 0.13186700290998352 -0.05747857275094276
0.532523536019675 0.3680272324085277 -0.05747857275094276
0.5062846173669915 0.6304363421841491 -0.05747857275094276
0.48947935701502593 0.5772313062980511 -0.05678125904339232
0.5134071788083994 0.5284591932670952 -0.05678125904339232
0.3821129693010466 0.29228900214415726 -0.05678125904339232
0.4875268786338848 0.18970419413909506 -0.05678125904339232
0.6739885640328704 0.19748422279047922 -0.05678125904339232
0.5526659405434887 0.3424657042146077 -0.05678125904339232
0.6003323132667575 0.4362643595045344 -0.05678125904339232
0.6762598143946061 0.5506038842940181 -0.05678125904339232
0.5128991359643269 0.36770846042793326 -0.05678125904339232
0.6339229107219013 0.5478245910882099 -0.05678125904339232
0.6768475502338273 0.472992868643655 -0.055486247872227244
0.6243697129284604 0.09249866330656484 -0.055486247872227244
0.3488411438264974 0.28931047645047747 -0.055486247872227244
0.46060060789804447 0.5648290839280469 -0.055486247872227244
0.4908640228057333 0.5468881983952137 -0.054788934164676804
0.4940517426116781 0.5576766376134582 -0.054788934164676804
0.40835188795373 0.2877166165475051 -0.054788934164676804
0.485893172233338 0.15355345921480187 -0.054788934164676804
0.6703525711292144 0.2105638356192465 -0.054788934164676804
0.5230699544701696 0.35573458790685303 -0.054788934164676804
0.6089192334940213 0.44430339039015154 -0.054788934164676804
0.5447165642774138 0.6517044102644372 -0.054788934164676804
0.618362853419133 0.21531553045498306 -0.054788934164676804
0.6357359263615323 0.4967114963247633 -0.054788934164676804
0.689967009560169 0.16869512829303995 -0.05349392299351171
0.3357216845001557 0.1596798582168522 -0.05349392299351171
0.38410529417976214 0.47940815475311904 -0.05349392299351171
0.44953324319677984 0.5910680025807304 -0.05349392299351171
0.6439044583642659 0.604964468609771 -0.05349392299351171
0.4669362010123599 0.5939767969036551 -0.05279660928596128
0.38242177965724744 0.5726589207013989 -0.05279660928596128
0.5016225771507972 0.24812912120742767 -0.05279660928596128
0.5069022380793933 0.1490209201157241 -0.05279660928596128
0.544856027018924 0.09553695874660594 -0.05279660928596128
0.664564867356546 0.5564712810618353 -0.05279660928596128
0.5408215691395251 0.39712513726216797 -0.05279660928596128
0.6127644205099425 0.6175559618432532 -0.05279660928596128
0.6697847585387807 0.20561290829563844 -0.05279660928596128
0.6542047779872253 0.6041974235314655 -0.05229852806628241
0.6768475502338273 0.2630615961734006 -0.051501598114796196
0.485235705023362 0.30449199202628974 -0.051501598114796196
0.3990676540189157 0.42309509205622475 -0.051501598114796196
0.6506086315811437 0.44675394999097157 -0.051501598114796196
0.49171076087918736 0.07899070062887352 -0.05080428440724576
0.553462870494975 0.09825648220605272 -0.05080428440724576
0.6714881963100824 0.5468583135220328 -0.05080428440724576
0.6124556101537416 0.4514857215779209 -0.05080428440724576
0.6452094311598245 0.5912273885710276 -0.05080428440724576
0.6270593515147261 0.1557649398301762 -0.05080428440724576
0.4828249919201162 0.1756981502417249 -0.05080428440724576
0.3894248016059325 0.15571513170820836 -0.05080428440724576
0.5050394143177943 0.45984352444413246 -0.05080428440724576
0.6336041387413067 0.6113996779680223 -0.05030620318756687
0.5194040766933331 0.1056280842573001 -0.04950927323608067
0.532523536019675 0.3680272324085277 -0.04950927323608067
0.38458345215065387 0.1501665069209856 -0.04950927323608067
0.37681338512366336 0.5779485432543886 -0.04950927323608067
0.6696552574216641 0.48611232796999665 -0.04950927323608067
0.4746564599173825 0.5911576572002725 -0.04881195952853025
0.3800608746759696 0.4439248486631955 -0.04881195952853025
0.3811267684860824 0.287128880708284 -0.04881195952853025
0.4874571472631298 0.18583908387438688 -0.04881195952853025
0.6147965918862321 0.606787445873796 -0.04881195952853025
0.47667866966927874 0.6628215830876699 -0.04881195952853025
0.6102142446651867 0.4539362811787411 -0.04881195952853025
0.5679669956120239 0.3265370668092771 -0.04881195952853025
0.6119575289340626 0.13583172941862737 -0.04881195952853025
0.6443228465887962 0.5770818819321475 -0.04881195952853025
0.6688882123433586 0.4936134311383606 -0.04831387830885136
0.6324585519360453 0.6165797226526825 -0.047516948357365155
0.46060060789804447 0.5648290839280469 -0.047516948357365155
0.48414988796446196 0.20721672982300443 -0.047516948357365155
0.4144484020825995 0.32866885442950267 -0.047516948357365155
0.4806035496803484 0.5861569217546965 -0.046819634649814715
0.5141642622623114 0.529216276721007 -0.046819634649814715
0.3818539670668136 0.2926177357491453 -0.046819634649814715
0.48914066178564436 0.1768437370469864 -0.046819634649814715
0.503136744058621 0.654164931489651 -0.046819634649814715
0.5741232794872548 0.6370907072790587 -0.046819634649814715
0.6318708160968242 0.4825859129346702 -0.046819634649814715
0.6444025395839449 0.14909065148647918 -0.046819634649814715
0.5255105524465962 0.3617215241673931 -0.046819634649814715
0.6660292261424018 0.2176863970606545 -0.046819634649814715
0.6374891722548022 0.11874754358364173 -0.046321553430135845
0.6768475502338273 0.27619101712413585 -0.04552462347864964
0.5587724162967518 0.21058375886803374 -0.04552462347864964
0.532523536019675 0.6198371738293823 -0.04552462347864964
0.48379126948629314 0.49923178729633827 -0.04552462347864964
0.48267556755421254 0.5768228796979143 -0.0448273097710992
0.36818661839882516 0.5523372069385006 -0.0448273097710992
0.5064141184841079 0.2821879150090696 -0.0448273097710992
0.5371756146114757 0.28995798203606016 -0.0448273097710992
0.6450998532914953 0.4804142788168704 -0.0448273097710992
0.6424400995784101 0.47474611453692467 -0.0448273097710992
0.5813753420457795 0.10551850638897078 -0.0448273097710992
0.579781482142807 0.10886561218521285 -0.0448273097710992
0.6592852064279499 0.1524975270290827 -0.0448273097710992
0.6223574648009578 0.15893273638733385 -0.043532298599934106
0.3881995218055226 0.19746429954169198 -0.043532298599934106
0.3837466757015933 0.47997596734355286 -0.043532298599934106
0.4617063482057316 0.5910680025807304 -0.043532298599934106
0.4912425645326892 0.5535027169925492 -0.04283498489238367
0.4864310999505912 0.4556496805744364 -0.04283498489238367
0.36864485312092965 0.17076714616690405 -0.04283498489238367
0.5157282372921029 0.14406999279211602 -0.04283498489238367
0.4965122638368918 0.1505151637747608 -0.04283498489238367
0.6541450082408639 0.16193118532980072 -0.04283498489238367
0.5584536443161572 0.0909546115255603 -0.04283498489238367
0.6523818007232004 0.47680817078639515 -0.04283498489238367
0.6462255168479696 0.5021505432436566 -0.04283498489238367
0.6519833357474575 0.5697003182565064 -0.04283498489238367
0.35977900741064556 0.45987340931731324 -0.04153997372121859
0.5094424522997555 0.6680613975186915 -0.04153997372121859
0.6932643072344431 0.19064058683209129 -0.04153997372121859
0.5402836414222718 0.2499421368470588 -0.04153997372121859
0.6027629496187905 0.6180839279361128 -0.04084266001366816
0.6744567603793685 0.5315373352047107 -0.04084266001366816
0.37101571972660113 0.43004830588294185 -0.04084266001366816
0.47802348896241176 0.5627471044297891 -0.04084266001366816
0.6470622932970301 0.4684503679201836 -0.04084266001366816
0.6576813849005838 0.16689207427780242 -0.04084266001366816
0.5005267984675036 0.07443823828100861 -0.04084266001366816
0.48787553548766005 0.17918471877947714 -0.04084266001366816
0.38187389031560076 0.2884139302550556 -0.04084266001366816
0.45380678006162467 0.45987340931731324 -0.03954764884250308
0.5587724162967518 0.472992868643655 -0.03954764884250308
0.6224172345473192 0.4336344906646298 -0.03954764884250308
0.6424002530808359 0.2349797770079053 -0.03954764884250308
0.5379326980653875 0.2237032181943754 -0.03954764884250308
0.5726091125794311 0.6348792266636847 -0.038850335134952646
0.6659794180204339 0.5228209138603302 -0.038850335134952646
0.40466608692810624 0.43338545005479046 -0.038850335134952646
0.49420116697758176 0.4416635599258535 -0.038850335134952646
0.4991122478036156 0.5626275649370662 -0.038850335134952646
0.6233835121134961 0.4657906142070984 -0.038850335134952646
0.6635687049171883 0.17304835815303332 -0.038850335134952646
0.5052087619324851 0.08021598042928361 -0.038850335134952646
0.49542644677799186 0.21469790974258127 -0.038850335134952646
0.48957897325896177 0.2983755546486332 -0.038850335134952646
0.39190524607993343 0.1654675619895208 -0.038850335134952646
0.3881995218055226 0.472992868643655 -0.037555323963787565
0.3357216845001557 0.5795324415329675 -0.037555323963787565
0.7030864688865105 0.5254707059490218 -0.037555323963787565
0.6768475502338273 0.27619101712413585 -0.037555323963787565
0.6645050976101845 0.25768231900086863 -0.037555323963787565
0.5318162606877308 0.15810592156266692 -0.037555323963787565
0.494031819362891 0.6640468628880799 -0.03685801025623713
0.666567153859655 0.5209182436011569 -0.03685801025623713
0.40710668490453283 0.43355479766948124 -0.03685801025623713
0.49477894119240934 0.44245052825294606 -0.03685801025623713
0.5071712019380199 0.4899375917371304 -0.03685801025623713
0.5374844249676765 0.3811666149836566 -0.03685801025623713
0.6713487335685725 0.181734894624233 -0.03685801025623713
0.5822818498655951 0.10481123105702665 -0.03685801025623713
0.49588468150009635 0.2942315189009048 -0.03685801025623713
0.5066332742207666 0.2539367482288835 -0.03685801025623713
0.3631559980800684 0.17530964689037548 -0.03685801025623713
0.6470722549214237 0.1347957204816953 -0.03556299908507202
0.6538063130114821 0.22170093169126637 -0.03556299908507202
0.36350465493384354 0.28931047645047747 -0.03556299908507202
0.45380678006162467 0.4073856103875529 -0.03556299908507202
0.5397457137050186 0.472992868643655 -0.03556299908507202
0.6717471985443155 0.5779485432543886 -0.03556299908507202
0.49854443521318165 0.6570039944418206 -0.03486568537752158
0.6587871252082709 0.5716029885156797 -0.03486568537752158
0.40624998520668515 0.4441141195266735 -0.03486568537752158
0.49944098140860355 0.441105708959813 -0.03486568537752158
0.5064440033572887 0.5316568746974336 -0.03486568537752158
0.5185374153710919 0.389484571352294 -0.03486568537752158
0.5201312752740643 0.3647100114854664 -0.03486568537752158
0.6019560580429107 0.1200325931304133 -0.03486568537752158
0.4969107288126349 0.25751297138617785 -0.03486568537752158
0.5064041568597144 0.2052044816955018 -0.03486568537752158
0.3788854029975275 0.28552505918091803 -0.03486568537752158
0.4157135283805839 0.45268111650515025 -0.0335706742063565
0.5456429953460166 0.5779485432543886 -0.0335706742063565
0.66404686288808 0.4886326189415718 -0.0335706742063565
0.6448408510572624 0.2386556164091354 -0.0335706742063565
0.48214760146135294 0.18955476977319138 -0.0335706742063565
0.483133802276317 0.28931047645047747 -0.0335706742063565
0.4851659736526069 0.6626123889754046 -0.03287336049880606
0.40689749079226767 0.43489961696261425 -0.03287336049880606
0.4984846654668202 0.4403486255059012 -0.03287336049880606
0.512450862866616 0.4860924047212095 -0.03287336049880606
0.6293903716228234 0.4492244328405789 -0.03287336049880606
0.6648338312151725 0.22946103709386328 -0.03287336049880606
0.6257543787191675 0.14178878080598675 -0.03287336049880606
0.4990923245548284 0.29153191869024525 -0.03287336049880606
0.5047903737079548 0.15633275242061015 -0.03287336049880606
0.3830194771208621 0.2841005468926364 -0.03287336049880606
0.4406873207352829 0.5763746066002032 -0.03157834932764099
0.5254308594514476 0.6686989414798805 -0.03157834932764099
0.5614919397561985 0.3811466917348695 -0.03157834932764099
0.5718918756230935 0.06625974465388142 -0.03157834932764099
0.3571092920731668 0.2237032181943754 -0.03157834932764099
0.5947239187331734 0.6282846313151362 -0.030881035620090553
0.36757895931081686 0.5622689464588974 -0.030881035620090553
0.532991732366173 0.4480389995377431 -0.030881035620090553
0.5190952663371321 0.5029972813171107 -0.030881035620090553
0.6278662430906061 0.45411559041782545 -0.030881035620090553
0.5439196343259276 0.3577966441563235 -0.030881035620090553
0.6098655878114112 0.12034140348661426 -0.030881035620090553
0.4939421647433488 0.2945204060083187 -0.030881035620090553
0.49924174892073203 0.17696327653970934 -0.030881035620090553
0.36010774101563364 0.16326604299854014 -0.030881035620090553
0.4144484020825995 0.5632551472738617 -0.029586024448925476
0.4800456987143081 0.5385901652753636 -0.029586024448925476
0.5881691698821992 0.4030024956543788 -0.029586024448925476
0.6768475502338273 0.13186700290998352 -0.029586024448925476
0.5450751827555825 0.28931047645047747 -0.029586024448925476
0.38651600728300783 0.5727684985697282 -0.02888871074137504
0.5086754072214501 0.5902411877560635 -0.02888871074137504
0.616241027423301 0.44119536357935524 -0.02888871074137504
0.38872748789838213 0.16595568158480603 -0.02888871074137504
0.4811016309000272 0.15348372784404693 -0.02888871074137504
0.55258624754834 0.0994020690113141 -0.02888871074137504
0.5534230239974005 0.3490901844363367 -0.02888871074137504
0.6605802175991149 0.5847324094664148 -0.02888871074137504
0.597094785338845 0.6316416987357718 -0.02888871074137504
0.38589838657060604 0.2499421368470588 -0.02759369957020996
0.4800456987143081 0.23682267752071717 -0.02759369957020996
0.5881691698821992 0.3384113230864215 -0.02759369957020996
0.6374891722548022 0.6304363421841491 -0.02759369957020996
0.35769702791238783 0.472992868643655 -0.02759369957020996
0.544547216662723 0.6465940969505318 -0.026896385862659525
0.6608790663309222 0.5849017570811059 -0.026896385862659525
0.4847973935500445 0.5506138459184117 -0.026896385862659525
0.5212868237037194 0.4590465944926463 -0.026896385862659525
0.5622789080832912 0.3362496505930152 -0.026896385862659525
0.6663878446205707 0.22880356988388711 -0.026896385862659525
0.6339428339706883 0.12445555436116178 -0.026896385862659525
0.4897283976248654 0.18475326681548698 -0.026896385862659525
0.5563417799447189 0.07755622671619843 -0.02639830464298064
0.4656212665924076 0.5779485432543886 -0.02560137469149441
0.38581869357545745 0.45987340931731324 -0.02560137469149441
0.6456377810087485 0.49923178729633827 -0.02560137469149441
0.6742874127646777 0.15810592156266692 -0.02560137469149441
0.5587724162967518 0.15810592156266692 -0.02560137469149441
0.5001482567405476 0.6593549377987048 -0.024904060983943977
0.6554898275339968 0.5671999505337183 -0.024904060983943977
0.6451297381646761 0.27762549103681106 -0.024904060983943977
0.37350612582499554 0.2852461336978978 -0.024904060983943977
0.578884935947385 0.11025027797592009 -0.024904060983943977
0.5234684194459128 0.27788449327104403 -0.024904060983943977
0.5291764302234326 0.374930638113277 -0.024904060983943977
0.4932548126601919 0.485185896901394 -0.024904060983943977
0.5460414603217597 0.6646047138541201 -0.024405979764265125
0.6479389162436648 0.16596564320919968 -0.023609049812778896
0.3950232345151231 0.14750675320790027 -0.023609049812778896
0.3357216845001557 0.2252871164729543 -0.023609049812778896
0.3592610029421796 0.45987340931731324 -0.023609049812778896
0.5975430584365558 0.4095074363833849 -0.023609049812778896
0.536597840396648 0.6532185771722608 -0.022911736105228463
0.6626721587217663 0.574521744462998 -0.022911736105228463
0.409507436383385 0.4479194600450202 -0.022911736105228463
0.5172224809511397 0.601637286062316 -0.022911736105228463
0.5963775483825073 0.4165702280784314 -0.022911736105228463
0.6750444962185895 0.1757977664856607 -0.022911736105228463
0.5388192826364159 0.09488945316102342 -0.022911736105228463
0.49042571133241597 0.18145596914121276 -0.022911736105228463
0.5717922593791579 0.6566752608368324 -0.022413654885549576
0.3554556624238329 0.26307155779779406 -0.021616724934063383
0.6976773068407981 0.19015246723680607 -0.021616724934063383
0.3553759694286843 0.15810592156266692 -0.021616724934063383
0.3881995218055226 0.49923178729633827 -0.021616724934063383
0.5358905650647041 0.5123512466226801 -0.021616724934063383
0.623483128357432 0.6237919387136328 -0.021616724934063383
0.5515900851089823 0.6560875249976114 -0.02091941122651295
0.3629468039678032 0.5141742238867046 -0.02091941122651295
0.5281304596621071 0.45240219102213003 -0.02091941122651295
0.5807477597089838 0.41846293671321116 -0.02091941122651295
0.5533134461290713 0.33243434845027503 -0.02091941122651295
0.5613026688927204 0.09814690433772327 -0.02091941122651295
0.512520594237371 0.1536431138343441 -0.02091941122651295
0.3702685978970828 0.17398475084602957 -0.02091941122651295
0.6768475502338273 0.13186700290998352 -0.020421330006834063
0.3881995218055226 0.21058375886803374 -0.020421330006834063
0.4810219379048787 0.19332026379396372 -0.020421330006834063
0.3488411438264974 0.5123512466226801 -0.020421330006834063
0.5392575941097333 0.48611232796999665 -0.020421330006834063
0.6387542985527863 0.6173168828578073 -0.020421330006834063
0.6112104071045444 0.6200662911904349 -0.018927086347797436
0.3672004175838609 0.5625677951907048 -0.018927086347797436
0.49873370607665957 0.48798511335598926 -0.018927086347797436
0.5508031167818898 0.39526231350056895 -0.018927086347797436
0.5784366628496739 0.33112937565471634 -0.018927086347797436
0.6820973262892425 0.19705587294155533 -0.018927086347797436
0.638644720684457 0.12730457893772498 -0.018927086347797436
0.49570537226101197 0.24692376465580482 -0.018927086347797436
0.4111212195351445 0.28481778384897405 -0.018927086347797436
0.6078433780595153 0.41765604513733134 -0.018429005128118545
0.41807443336186173 0.30084603749824035 -0.017632075176632355
0.6986834309045494 0.1913179772908547 -0.017632075176632355
0.3581154161369181 0.15684079526468261 -0.017632075176632355
0.6637280909074854 0.46742432060764516 -0.017632075176632355
0.634331337322038 0.620106137688009 -0.017632075176632355
0.3881995218055226 0.49923178729633827 -0.017632075176632355
0.5368369193820939 0.6565457597197158 -0.016934761469081922
0.6596836714036929 0.589683336790023 -0.016934761469081922
0.4864908696969527 0.5493188347472466 -0.016934761469081922
0.4730028302680486 0.5776895410201556 -0.016934761469081922
0.5750297873070704 0.33267342743572087 -0.016934761469081922
0.6695257563045476 0.1773816647642396 -0.016934761469081922
0.4890310839173151 0.14780560193970763 -0.016934761469081922
0.36783796154504983 0.1700997173325343 -0.016934761469081922
0.3554556624238329 0.44675394999097157 -0.01643668024940303
0.6387542985527863 0.4877261111217563 -0.01643668024940303
0.5872427388135967 0.07937920398022306 -0.01643668024940303
0.5219642141624826 0.6070763329812097 -0.015639750297916807
0.6026932182480353 0.6374493257572276 -0.015639750297916807
0.6439044583642659 0.5123512466226801 -0.015639750297916807
0.3357216845001557 0.14498646223632514 -0.015639750297916807
0.3881995218055226 0.2499421368470588 -0.015639750297916807
0.6336041387413067 0.15038566265764422 -0.015639750297916807
0.5588919557894747 0.6341819129561344 -0.014942436590366372
0.3783474752802743 0.43792795077826185 -0.014942436590366372
0.5263871753932311 0.45161522269503745 -0.014942436590366372
0.5876910119113075 0.41470740431683245 -0.014942436590366372
0.6417925939928276 0.267155823799161 -0.014942436590366372
0.5825308904754343 0.10313767815890569 -0.014942436590366372
0.4832931882666143 0.1418684738011355 -0.014942436590366372
0.37351608744938913 0.29382309230076814 -0.014942436590366372
0.5864258856133233 0.6487557694439383 -0.01444435537068752
0.6130034994953885 0.32367808060832026 -0.01444435537068752
0.487357531019194 0.21058375886803374 -0.01444435537068752
0.3488411438264974 0.30242993577681926 -0.013647425419201293
0.6768475502338273 0.25151607350124405 -0.013647425419201293
0.35586408902396954 0.4630312442500774 -0.013647425419201293
0.4339831475184051 0.45987340931731324 -0.013647425419201293
0.660032328257468 0.47004422782315597 -0.013647425419201293
0.5755278685267495 0.33148799413288516 -0.012950111711650858
0.6561273714951856 0.167230769507184 -0.012950111711650858
0.5192446907030358 0.1504354707796122 -0.012950111711650858
0.3689038553551626 0.16958171286406834 -0.012950111711650858
0.36233914487979507 0.5262377510273273 -0.012950111711650858
0.5049397980738585 0.5925223997421927 -0.012950111711650858
0.589852684404714 0.41646065021010215 -0.012950111711650858
0.6778935207951527 0.5287381187501153 -0.012950111711650858
0.6321995497018124 0.6140893165542881 -0.012950111711650858
0.6284539789298271 0.3155493951031609 -0.01245203049197197
0.4884632713268811 0.22033618914934622 -0.01165510054048578
0.3357216845001557 0.17122538088900857 -0.01165510054048578
0.6679318964015751 0.14498646223632514 -0.01165510054048578
0.6765487015020198 0.5779485432543886 -0.01165510054048578
0.545065221131189 0.44675394999097157 -0.01165510054048578
0.3622893367578271 0.4336344906646298 -0.01165510054048578
0.6516346788936822 0.5929009414691487 -0.010957786832935343
0.6764889317556584 0.5681363432267146 -0.010957786832935343
0.5075995517869436 0.5918649325322165 -0.010957786832935343
0.3633651921923335 0.5548774211588628 -0.010957786832935343
0.36169163929421255 0.19977539640100198 -0.010957786832935343
0.5238369995484752 0.28671049248375374 -0.010957786832935343
0.6164701447843532 0.123130658316816 -0.010957786832935343
0.6179843116921773 0.29660238550657625 -0.010957786832935343
0.6595740935353636 0.2652631151643813 -0.010957786832935343
0.5333802357175226 0.5385901652753636 -0.010459705613256456
0.6374891722548022 0.4336344906646298 -0.009662775661770266
0.5307802517507987 0.5813853036701729 -0.009662775661770266
0.5587724162967518 0.17122538088900857 -0.009662775661770266
0.6374891722548022 0.3155493951031609 -0.009662775661770266
0.38588842494621245 0.5732566181650136 -0.008965461954219829
0.5052585700544528 0.5927216322300642 -0.008965461954219829
0.5740535481164998 0.6361642762104561 -0.008965461954219829
0.6192195531169808 0.437240598695105 -0.008965461954219829
0.6157329845792284 0.6223973112985318 -0.008965461954219829
0.36640348763237474 0.17030891144479943 -0.008965461954219829
0.5277519179351512 0.28082317246714944 -0.008965461954219829
0.6415335917585945 0.14046388476164098 -0.008965461954219829
0.662632312224192 0.1587932736458238 -0.008965461954219829
0.601198974588999 0.3012644257227706 -0.008965461954219829
0.6964918735379624 0.21058375886803374 -0.007670450783054751
0.36420196864139404 0.30242993577681926 -0.007670450783054751
0.5414889979738946 0.49923178729633827 -0.007670450783054751
0.6768475502338273 0.48611232796999665 -0.007670450783054751
0.3669912234715958 0.5532735996314969 -0.006973137075504316
0.5344361679032418 0.45272096300272463 -0.006973137075504316
0.5696106636369641 0.6391726867773164 -0.006973137075504316
0.6601219828770104 0.49264715357218347 -0.006973137075504316
0.5860074973887931 0.6428883726761211 -0.006973137075504316
0.36160198467467036 0.19468500633588387 -0.006973137075504316
0.48394069385219685 0.14150985532296667 -0.006973137075504316
0.6405175060704495 0.14104165897646842 -0.006973137075504316
0.6313627732527518 0.12916740269932397 -0.006973137075504316
0.589025869580047 0.33194622885498964 -0.006973137075504316
0.6808620848644389 0.24272992078610872 -0.005678125904339202
0.35245721348136605 0.18294025117585586 -0.005678125904339202
0.38524091936062993 0.45987340931731324 -0.005678125904339202
0.3488411438264974 0.44675394999097157 -0.005678125904339202
0.36377361879247017 0.5434912844770037 -0.004980812196788767
0.5055773420350473 0.5929109030935423 -0.004980812196788767
0.6040479991655622 0.6208731827663145 -0.004980812196788767
0.6848965427438378 0.5512912363771748 -0.004980812196788767
0.37812831954361553 0.28650129837148863 -0.004980812196788767
0.5196730405519597 0.1477657554421334 -0.004980812196788767
0.61565329158408 0.12013220937434912 -0.004980812196788767
0.6244195210504282 0.12380804877557926 -0.004980812196788767
0.6527404192013693 0.4642166775529131 -0.0044827309771099146
0.689967009560169 0.2499421368470588 -0.0036858010256236883
0.3801804141686925 0.19746429954169198 -0.0036858010256236883
0.3760563016697514 0.5087750234653856 -0.0036858010256236883
0.4013289427562578 0.5517096246017051 -0.0036858010256236883
0.6506086315811437 0.6172869979846265 -0.0036858010256236883
0.6783816403904381 0.5410905329981516 -0.0029884873180732532
0.5040930600004044 0.592731593854458 -0.0029884873180732532
0.3820033914327173 0.43723063707071136 -0.0029884873180732532
0.3525269448521211 0.5674091446459836 -0.0029884873180732532
0.35866330547856495 0.18811033423612267 -0.0029884873180732532
0.4799560440947659 0.15679098714271464 -0.0029884873180732532
0.624967410392075 0.12101879394537751 -0.0029884873180732532
0.5766734553320108 0.09047645355466856 -0.0029884873180732532
0.6842191522850745 0.23545793497879702 -0.0016934761469081744
0.3495783040316221 0.18214332122436966 -0.0016934761469081744
0.3546388092235596 0.24331765662532978 -0.0016934761469081744
0.4640074834406481 0.5988281079833273 -0.0016934761469081744
0.3488411438264974 0.4336344906646298 -0.0016934761469081744
0.638455449820979 0.4679423250761111 -9.961624393577393E-4
0.6483274195950145 0.46415690780655167 -9.961624393577393E-4
0.521057706342667 0.582281849865595 -9.961624393577393E-4
0.3990377691457349 0.43077550446367313 -9.961624393577393E-4
0.3828999376281392 0.28628214263483 -9.961624393577393E-4
0.5308997912435216 0.24134525499540133 -9.961624393577393E-4
0.6102341679139737 0.11669544895856486 -9.961624393577393E-4
0.6244095594260346 0.11479277869939152 -9.961624393577393E-4
0.6405473909436303 0.11874754358364173 2.9884873180733944E-4
0.3907795825234592 0.14750675320790027 2.9884873180733944E-4
0.3619606031528392 0.32866885442950267 2.9884873180733944E-4
0.5303917483994491 0.5910680025807304 2.9884873180733944E-4
0.3488411438264974 0.44675394999097157 2.9884873180733944E-4
0.6128640367538782 0.6188011648924504 9.961624393577746E-4
0.6236823608453034 0.621431033732355 9.961624393577746E-4
0.5092631430606711 0.5885576732335488 9.961624393577746E-4
0.38516122636548134 0.5673095284020476 9.961624393577746E-4
0.36526786245150683 0.28110209795016955 9.961624393577746E-4
0.5185872234930599 0.1522285631704561 9.961624393577746E-4
0.6377880209866095 0.13583172941862737 9.961624393577746E-4
0.6094073530893067 0.12698580695713055 9.961624393577746E-4
0.3556150484141302 0.21271554648825935 0.0022911736105228533
0.35692998283408234 0.476011240834909 0.0022911736105228533
0.5456429953460166 0.5517096246017051 0.0022911736105228533
0.6671050815769083 0.13186700290998352 0.0022911736105228533
0.611828027816946 0.6176157315896147 0.0029884873180732884
0.5917553546638873 0.6375389803767699 0.0029884873180732884
0.4837314997399317 0.5924227834982569 0.0029884873180732884
0.3629966120897712 0.5617210571172508 0.0029884873180732884
0.36722034083264804 0.16959167448846182 0.0029884873180732884
0.4850563957842776 0.1416493180644767 0.0029884873180732884
0.6576614616517966 0.25314977990179083 0.0029884873180732884
0.599375997324974 0.10184266698774065 0.0029884873180732884
0.366373602759194 0.30712186086619436 0.0042834984892384026
0.6705518036170861 0.2630615961734006 0.0042834984892384026
0.3933596432413956 0.5862366147498451 0.0042834984892384026
0.6768475502338273 0.6041974235314655 0.0042834984892384026
0.6904949756530285 0.5444476004187871 0.004980812196788837
0.5393173638560947 0.4442436206437901 0.004980812196788837
0.38972365033773987 0.5642811945864 0.004980812196788837
0.3680172707841342 0.1830896755417595 0.004980812196788837
0.5042125994931272 0.29212961615385996 0.004980812196788837
0.6687188647286678 0.24232149418597193 0.004980812196788837
0.6768475502338273 0.6041974235314655 0.006275823367953916
0.4144484020825995 0.5517096246017051 0.006275823367953916
0.3357216845001557 0.19746429954169198 0.006275823367953916
0.6866896351346818 0.15810592156266692 0.006275823367953916
0.3710854510973562 0.4512765274656558 0.006973137075504352
0.5230400695969889 0.4574925810872483 0.006973137075504352
0.6515350626497466 0.4908739844301268 0.006973137075504352
0.542823855642634 0.2723259068594277 0.006973137075504352
0.36064566873288684 0.16589591183844457 0.006973137075504352
0.6781923695269602 0.1793341431453808 0.006973137075504352
0.6799655386690169 0.5910680025807304 0.007471218295183239
0.4144484020825995 0.5632551472738617 0.008268148246669431
0.6835318002019177 0.5779485432543886 0.008268148246669431
0.3488411438264974 0.27619101712413585 0.008268148246669431
0.3525369064765146 0.5505939226696245 0.008965461954219866
0.5359503348110656 0.466059578065725 0.008965461954219866
0.6618054973995249 0.4976379273933659 0.008965461954219866
0.5313281410924455 0.27857184535420093 0.008965461954219866
0.3670310699691702 0.16943228849816466 0.008965461954219866
0.48807476797553156 0.138292250643841 0.008965461954219866
0.6848865811194442 0.22311548235515433 0.008965461954219866
0.3750800624791808 0.13186700290998352 0.010260473125384945
0.5445372550383294 0.24898582090527546 0.010260473125384945
0.3357216845001557 0.5600973123410976 0.010260473125384945
0.36391308153398033 0.5623785243272267 0.01095778683293538
0.3623889530017629 0.45586883631109504 0.01095778683293538
0.526576446256709 0.5775500782786456 0.01095778683293538
0.6816490531915316 0.5651478559086415 0.01095778683293538
0.3776900080702981 0.28685991684965745 0.01095778683293538
0.5202408531423937 0.15625305942546142 0.01095778683293538
0.6808720464888325 0.1958903628875067 0.01095778683293538
0.5492291801277045 0.2630615961734006 0.012252798004100458
0.3357216845001557 0.17122538088900857 0.012252798004100458
0.5062846173669915 0.6198371738293823 0.012252798004100458
0.3906700046551297 0.5795224799085738 0.012950111711650893
0.5240461936607403 0.4688986410178946 0.012950111711650893
0.6863210550321195 0.5335794682053939 0.012950111711650893
0.3842447569212722 0.2949886023548168 0.012950111711650893
0.3566112108534879 0.16484994127711888 0.012950111711650893
0.6538660827578435 0.25420571208750997 0.012950111711650893
0.524335080768154 0.6085307301426718 0.014245122882816007
0.41638095721495355 0.2816898337893906 0.014245122882816007
0.36233914487979507 0.5470176995123303 0.014942436590366441
0.529455355706453 0.46497376100682497 0.014942436590366441
