-0.14453623972288107 0.4035594524679158 -0.07819814592761824
0.6274668103073294 0.2989938692103288 -0.07819814592761824
0.6088703137289176 0.4091310703652586 -0.07819814592761824
-0.6202416274492255 0.33766122324349584 -0.07819814592761824
0.741440607996833 0.3012094833449445 -0.07819814592761824
0.7601918717390597 0.3273488427492911 -0.07819814592761824
0.5909906334881758 0.23004102491061118 -0.07779086391757856
0.6553574823548465 0.44791246336123675 -0.07779086391757856
0.6115909575559827 0.27764414624404876 -0.07656901788745954
0.6203312294914343 0.36809333503366054 -0.07656901788745954
-0.6091635567761463 0.34577428088348616 -0.07656901788745954
-0.6424710795571912 0.28051955723492894 -0.07656901788745954
-0.6332094866488889 0.30789705394979616 -0.07656901788745954
-0.6366225098930214 0.3351930942626554 -0.07656901788745954
0.002052701330599941 0.41828676995095054 -0.07656901788745954
-0.6222943287798255 0.32466078148302924 -0.07656901788745954
0.2507472423010283 0.24994082392114986 -0.07656901788745954
0.6225305523456484 0.3777622099520026 -0.07656901788745954
0.7666432187780883 0.33107140032105387 -0.07656901788745954
0.6267581396098603 0.25038883413219354 -0.07656901788745954
-0.26628097816394175 0.25600118023054025 -0.07656901788745954
-0.6560987356131188 0.307147655051323 -0.07616173587741985
0.7733715175839436 0.37152264955819464 -0.07616173587741985
0.6339018660659563 0.43718465521679156 -0.07616173587741985
0.6204615597346469 0.283476424627817 -0.07493988984730081
0.6228075041124755 0.275347075707425 -0.07493988984730081
-0.6062881457852662 0.32164689460873563 -0.07493988984730081
0.5587257526528323 0.4167961177942054 -0.07493988984730081
0.6578907764572933 0.41319574482545457 -0.07493988984730081
0.7801486902310041 0.3340038307933395 -0.07493988984730081
-0.5740232649499227 0.4039015693563491 -0.07493988984730081
0.6061985437430573 0.3882293576100223 -0.07493988984730081
-0.5898583895002655 0.2560093258707411 -0.07493988984730081
-0.614898087477505 0.341717752063491 -0.07493988984730081
-0.05131753326499946 0.2528243805522308 -0.07493988984730081
-0.10702556659822678 0.4017022465021348 -0.07493988984730081
0.6273609169847191 0.24591687766195783 -0.07493988984730081
-0.6505434089961776 0.3110249797869009 -0.07453260783726114
0.8377465120908154 0.3406262362765846 -0.07453260783726114
0.6123810846554597 0.38149291316396605 -0.0733107618071421
0.6125195605388731 0.3703333860888788 -0.0733107618071421
0.62357319429135 0.2542987414285744 -0.0733107618071421
-0.5940533942036742 0.3354537547490808 -0.0733107618071421
-0.6287619670992556 0.40372236527193167 -0.0733107618071421
0.5605422304176094 0.4211377440212282 -0.0733107618071421
0.6066954277953057 0.4264079732311417 -0.0733107618071421
0.04397016580388365 0.2506983684598237 -0.0733107618071421
0.5868282113455703 0.4176106818142847 -0.0733107618071421
0.4166332049901894 0.41523215487565296 -0.0733107618071421
0.37862564781328667 0.24514304184288244 -0.0733107618071421
0.15580980576077938 0.2750212500993933 -0.0733107618071421
-0.15809873065720242 0.40627195065478006 -0.0733107618071421
-0.32176907921174763 0.40751823360550143 -0.0733107618071421
-0.3749275271621264 0.2931860277471629 -0.0733107618071421
-0.5814765257336489 0.33223622686976734 -0.0733107618071421
-0.6321098252217817 0.322933905760461 -0.0733107618071421
-0.6062637088646637 0.31324059392151665 -0.0733107618071421
0.6339018660659563 0.44791246336123675 -0.07257765418907067
0.7411880931506083 0.40500123078345623 -0.07257765418907067
-0.5982728358276853 0.34478051277898936 -0.07168163376698339
0.7673844720363605 0.31524442141091186 -0.07168163376698339
0.6914100858835589 0.4036490545101245 -0.07168163376698339
0.5740965757117298 0.42674194447937425 -0.07168163376698339
-0.6330710107654755 0.30766897602417387 -0.07168163376698339
-0.574968159213215 0.40527818255028325 -0.07168163376698339
-0.6116724139579907 0.33062339011001013 -0.07168163376698339
-0.5391273423297231 0.31864115337464277 -0.07168163376698339
-0.3646395835885241 0.408560875551203 -0.07168163376698339
-0.2881112939020686 0.4088948467994355 -0.07168163376698339
-0.32582560803174276 0.2888444015201399 -0.07168163376698339
-0.2136764337472169 0.2500467172437602 -0.07168163376698339
-0.11781853986427816 0.26356033433687664 -0.07168163376698339
0.14714284458713497 0.41417322164954984 -0.07168163376698339
0.07683782401408568 0.2523845159813879 -0.07168163376698339
0.3619352310418606 0.4177002838564934 -0.07168163376698339
0.29731586732896526 0.24414927373838563 -0.07168163376698339
0.6018569175160344 0.3794483574735668 -0.07168163376698339
0.6026714815361137 0.26186604117511164 -0.07168163376698339
0.6419579042245411 0.38458825644026756 -0.07168163376698339
0.6387892501864324 0.4096116631371054 -0.07168163376698339
-0.36482693331314237 0.30582806133879453 -0.07168163376698339
-0.5878301250902679 0.3247992573664427 -0.07168163376698339
-0.6508773802444101 0.259129106067645 -0.07062270054088023
0.8055549420172793 0.31917061998769447 -0.07062270054088023
-0.6017510241934241 0.3416444413016838 -0.07005250572682467
0.5877812512490631 0.4219523080413077 -0.07005250572682467
-0.6390743475934603 0.4040400452397626 -0.07005250572682467
-0.6449392085380317 0.2727893446843759 -0.07005250572682467
-0.5984438942719019 0.34618970853372666 -0.07005250572682467
-0.6357427807513356 0.34957014921705604 -0.07005250572682467
-0.6356857612699301 0.37163668852100573 -0.07005250572682467
-0.44634035480248363 0.40773002025072214 -0.07005250572682467
-0.09894509151903952 0.24787183131014837 -0.07005250572682467
-0.07584405590958898 0.4123160156837688 -0.07005250572682467
0.28069876131934646 0.24331841843790467 -0.07005250572682467
0.2945952235019002 0.4169590305982212 -0.07005250572682467
0.640467252067796 0.25863222201539665 -0.07005250572682467
0.7570476546215534 0.35283655093757427 -0.07005250572682467
-0.6355961592277214 0.4174151864494656 -0.06864330997208738
0.7411880931506083 0.3942652769988103 -0.06864330997208738
-0.5994132254557963 0.3445850174141703 -0.06842337768666597
0.7113587587353022 0.26762500879707274 -0.06842337768666597
0.7836513155173451 0.3268356674166411 -0.06842337768666597
0.7508814049895527 0.3730621755561447 -0.06842337768666597
-0.5816150016170624 0.40680956290803233 -0.06842337768666597
-0.6157778166191906 0.281936898629867 -0.06842337768666597
-0.470435158516431 0.4082024673823681 -0.06842337768666597
-0.43977496880064404 0.25132558275528477 -0.06842337768666597
-0.09059581031322607 0.4129595212596316 -0.06842337768666597
-0.06926237862734771 0.24675587860263962 -0.06842337768666597
0.2892435378899787 0.41771657513689503 -0.06842337768666597
0.30156789151377944 0.2424957087776245 -0.06842337768666597
0.6972668011879294 0.2632182174484433 -0.06842337768666597
0.5573735763795007 0.24214544624899045 -0.06842337768666597
-0.5926686353695393 0.3396080312514854 -0.06679424964650725
0.6801691024064638 0.2521238554949625 -0.06679424964650725
0.7228604026988228 0.39058344762805164 -0.06679424964650725
-0.590037593584683 0.41633996194296086 -0.06679424964650725
-0.6161280791478249 0.2539810614607435 -0.06679424964650725
-0.5037345356572751 0.2513663109562887 -0.06679424964650725
-0.3597766363886504 0.2903757818778891 -0.06679424964650725
0.10570597288569805 0.25585455870692597 -0.06679424964650725
-0.19876176653956396 0.25082055306283557 -0.06679424964650725
-0.08382678330636659 0.24941135730809827 -0.06679424964650725
0.22516993207053662 0.25001413468295697 -0.06679424964650725
0.6473014441962618 0.3845638195196652 -0.06679424964650725
0.6330302825644714 0.3156109752199476 -0.06679424964650725
0.3688671708527359 0.419337557536853 -0.06679424964650725
0.3780065791580264 0.2415345232339309 -0.06679424964650725
0.05165150451323197 0.41568016508669664 -0.06679424964650725
-0.09866813975221249 0.41379852220031327 -0.06679424964650725
-0.10008548114715063 0.258892882501822 -0.06679424964650725
-0.24541184796950863 0.2643504614363537 -0.06679424964650725
-0.41321203610585616 0.29638726434607476 -0.06679424964650725
-0.5882862809415124 0.3274873186327046 -0.06679424964650725
0.8270187039463702 0.36208185256547487 -0.06665577376309376
-0.1070011296776244 0.22261220104748738 -0.06665577376309376
-0.27968870193444795 0.22261220104748738 -0.06665577376309376
-0.5029199716371958 0.23478178750747297 -0.06665577376309376
-0.6503397679911578 0.23334000919193257 -0.06665577376309376
-0.507131267621006 0.4264568470723465 -0.06665577376309376
-0.2670548139830171 0.43718465521679156 -0.06665577376309376
-0.09435909608599273 0.429829142115475 -0.06665577376309376
0.37765631662939225 0.27411708403710516 -0.06516512160634853
0.4751189016318873 0.38947564056074363 -0.06516512160634853
0.5220214979080565 0.3763041403560605 -0.06516512160634853
0.16986918074734908 0.3026349703800835 -0.06516512160634853
-0.1239114787344718 0.38533765533874054 -0.06516512160634853
-0.11973276531146465 0.38917425187331434 -0.06516512160634853
0.2099946043764582 0.27095657563919723 -0.06516512160634853
0.6243388844702246 0.41930497497604974 -0.06516512160634853
-0.01720359210407609 0.3897037184863659 -0.06516512160634853
0.6153216607679461 0.2434487486811174 -0.06516512160634853
-0.32037617473741187 0.3823807879458525 -0.06516512160634853
-0.590151632547494 0.4005211286730198 -0.06516512160634853
0.21268266564271995 0.2758032315586694 -0.06516512160634853
0.6782956051602812 0.40938358521148316 -0.06516512160634853
0.43607684814948366 0.23881387940686583 -0.06516512160634853
-0.024811620051617262 0.27093213871859484 -0.06516512160634853
-0.6065488062716916 0.34474793021818617 -0.06516512160634853
0.11496756579400035 0.3892801451959247 -0.06516512160634853
0.7829019166188723 0.33754718428068464 -0.06516512160634853
0.7069438217464721 0.40407262780056574 -0.06516512160634853
-0.6171544298131247 0.3781532006816407 -0.06516512160634853
-0.6331443215272826 0.25563462642150453 -0.06516512160634853
0.3166291802450469 0.24068737665304837 -0.06516512160634853
0.1738035249643324 0.258575202533991 -0.06516512160634853
0.0028183915094744886 0.24419000193938956 -0.06516512160634853
-0.12242897221792735 0.26729918318904095 -0.06516512160634853
-0.2861970684548821 0.24775779234733716 -0.06516512160634853
-0.3814766218835644 0.2998735983520144 -0.06516512160634853
-0.5397708479055858 0.30739202425734685 -0.06516512160634853
0.6470163467892338 0.4153380481982633 -0.06516512160634853
0.6467801232234108 0.24401079785497218 -0.06516512160634853
0.7758885204059891 0.36208185256547487 -0.06467638319430091
-0.11121242566143465 0.22261220104748738 -0.06467638319430091
-0.27968870193444795 0.23228922160603016 -0.06467638319430091
-0.5029199716371958 0.23334000919193257 -0.06467638319430091
-0.6548850352232006 0.32349595493431577 -0.06467638319430091
-0.5029199716371958 0.42526758360303063 -0.06467638319430091
-0.26284351799920685 0.4277438582240719 -0.06467638319430091
-0.09014780010218248 0.43718465521679156 -0.06467638319430091
0.6328673697604554 0.27423112299991625 -0.06353599356618982
0.7396730040732606 0.28215683091528837 -0.06353599356618982
-0.6166249632000732 0.3790573667439287 -0.06353599356618982
0.5732901573318513 0.4233126299548402 -0.06353599356618982
0.06888767917811116 0.42290534794480056 -0.06353599356618982
0.6184821691658541 0.3775096951057779 -0.06353599356618982
-0.6486373291891918 0.2578828231169236 -0.06353599356618982
-0.6486373291891918 0.25842043537017595 -0.06353599356618982
-0.630325930017808 0.40524559998948007 -0.06353599356618982
0.6567259499085798 0.41424653241135695 -0.06353599356618982
0.6506248653981854 0.25394033325973947 -0.06353599356618982
0.5163439866881037 0.37939948363236203 -0.06353599356618982
0.41148516038328786 0.27032936134373614 -0.06353599356618982
0.315830907505369 0.27039452646534246 -0.06353599356618982
0.267730902119683 0.382714759194085 -0.06353599356618982
0.17049639504281017 0.38533765533874054 -0.06353599356618982
0.10650424562537593 0.27411708403710516 -0.06353599356618982
0.01438520059460137 0.3958862593987682 -0.06353599356618982
-0.08578173695455713 0.381215961397139 -0.06353599356618982
-0.12453869302993288 0.38117523319613505 -0.06353599356618982
-0.22173247190580175 0.2758032315586694 -0.06353599356618982
-0.2860585925714686 0.39039609790343344 -0.06353599356618982
-0.3228117211574492 0.26369881022029024 -0.06353599356618982
-0.2122998205532828 0.22261220104748738 -0.06312871155615014
-0.43553109025603054 0.23390205836578734 -0.06312871155615014
-0.6082186625128543 0.23334000919193257 -0.06312871155615014
-0.570308853018361 0.4264568470723465 -0.06312871155615014
-0.330232399380372 0.43718465521679156 -0.06312871155615014
-0.15754482712354848 0.42904716065619886 -0.06312871155615014
-0.5534636690831198 0.3729644278737352 -0.06312871155615014
-0.5829508866099926 0.3923999253928286 -0.062477060340086654
-0.46203700346941284 0.3711723870295605 -0.062477060340086654
0.040418666676337714 0.43718465521679156 -0.062477060340086654
-0.06909132018313105 0.22818381894483028 -0.062477060340086654
0.10359625207369252 0.22261220104748738 -0.062477060340086654
0.58190009902409 0.2983910918354701 -0.062477060340086654
0.5921880425976923 0.4066385044638158 -0.062477060340086654
0.7840993257283888 0.3050949537207231 -0.062477060340086654
-0.5982076707060789 0.32569527778853 -0.061906865526031106
-0.5906322253193409 0.32471780096443487 -0.061906865526031106
0.6289167342630707 0.28077207208115346 -0.061906865526031106
-0.6377547538809317 0.4071842623572689 -0.061906865526031106
0.48166799635332536 0.23658197399184838 -0.061906865526031106
-0.6243470301104255 0.27279749032457656 -0.061906865526031106
0.6329895543634675 0.24090730893846982 -0.061906865526031106
0.637583695436715 0.23139320118394288 -0.061906865526031106
-0.6406057279512095 0.36497355483675664 -0.061906865526031106
-0.6296742788017445 0.27572992079686226 -0.061906865526031106
0.7793178349305231 0.3298169717301316 -0.061906865526031106
0.646340258652568 0.27790480673047424 -0.061906865526031106
0.5276012614456002 0.29116590897736616 -0.061906865526031106
0.4764140584238134 0.39360548014254604 -0.061906865526031106
0.3096646578733682 0.38947564056074363 -0.061906865526031106
0.21642966013508508 0.3894104754391373 -0.061906865526031106
0.16986918074734908 0.27866235126914796 -0.061906865526031106
0.07357956793376831 0.38114265063533187 -0.061906865526031106
0.0798435652481785 0.27866235126914796 -0.061906865526031106
-0.08122832408231354 0.3958862593987682 -0.061906865526031106
-0.18477570231480128 0.38540282046034685 -0.061906865526031106
-0.22417616396603982 0.3818757582534033 -0.061906865526031106
-0.3202295532137976 0.27866235126914796 -0.061906865526031106
-0.3866735403316708 0.3861766562794223 -0.061906865526031106
-0.014336326753396723 0.22261220104748738 -0.06149958351599142
-0.010125030769586481 0.4315804547586457 -0.06149958351599142
-0.6515697596614777 0.24131459094850946 -0.06084793229992794
-0.47343275411032304 0.39288866380487625 -0.06084793229992794
-0.5891415731625956 0.3876591627959667 -0.06084793229992794
-0.5281958931802582 0.2622488862645489 -0.06084793229992794
-0.41025516871296813 0.3962609588480048 -0.06084793229992794
0.12887217361675504 0.22261220104748738 -0.06084793229992794
0.2215369765409827 0.4355392358962313 -0.06084793229992794
0.6048219305491234 0.25479562548082285 -0.06084793229992794
0.5963993385815026 0.37280966070992005 -0.06084793229992794
0.7786010185928534 0.2977150036988042 -0.06084793229992794
-0.5429802301446985 0.27157564429445763 -0.060277737485872396
-0.45771981416299223 0.26612621100012673 -0.060277737485872396
-0.38357819705536916 0.38539467482014617 -0.060277737485872396
-0.27678070838276464 0.382714759194085 -0.060277737485872396
-0.12142705847322982 0.38114265063533187 -0.060277737485872396
-0.18014897868075055 0.39601658964198094 -0.060277737485872396
-0.08889337151126019 0.2784505646239273 -0.060277737485872396
0.011460915762516522 0.27032936134373614 -0.060277737485872396
0.11548888676685119 0.38114265063533187 -0.060277737485872396
0.21180293650103446 0.27821434105810433 -0.060277737485872396
0.27825506925910826 0.27411708403710516 -0.060277737485872396
0.3135256913285445 0.3961143373243905 -0.060277737485872396
0.40985603234312923 0.2784912928249313 -0.060277737485872396
0.5457823303737713 0.28042995519272024 -0.060277737485872396
-0.6074692636143812 0.32093007827106584 -0.060277737485872396
-0.5932795583845988 0.33650454233498317 -0.060277737485872396
0.6444749070465864 0.38897061086829443 -0.060277737485872396
-0.6319306211373643 0.4125440936093911 -0.060277737485872396
0.6217648621667738 0.27968055629424715 -0.060277737485872396
-0.6101084510394383 0.3403737214303601 -0.060277737485872396
0.6278252184761642 0.232810542578881 -0.060277737485872396
0.7528282129975423 0.3780961812002351 -0.060277737485872396
0.5771837733478308 0.22818381894483028 -0.060277737485872396
0.697527461674355 0.4015474793383198 -0.060277737485872396
-0.6324112139092112 0.25602561715114264 -0.060277737485872396
-0.6444586157661848 0.3448130953397926 -0.060277737485872396
-0.6322727380257976 0.38598116091460327 -0.060277737485872396
0.1246608776329448 0.22261220104748738 -0.059870455475832716
0.2369485278008841 0.43718465521679156 -0.059870455475832716
-0.5871621825938028 0.3184049298088198 -0.05921880425976923
-0.4616785953005779 0.3754814306957804 -0.05921880425976923
-0.39633426960981194 0.39855802938462853 -0.05921880425976923
0.5480794009103952 0.3513540444210298 -0.05921880425976923
0.8377465120908154 0.3084428118432493 -0.05921880425976923
-0.5605748129784126 0.38156622392577316 -0.05864860944571367
-0.4593407965629502 0.39092556451648497 -0.05864860944571367
-0.3783486960464597 0.38533765533874054 -0.05864860944571367
-0.387097113622112 0.38135443728055246 -0.05864860944571367
-0.22266922052889299 0.2637558297016957 -0.05864860944571367
-0.11828284135572342 0.27866235126914796 -0.05864860944571367
-0.05034005644090431 0.27039452646534246 -0.05864860944571367
0.016918494697048227 0.2772694467948123 -0.05864860944571367
0.11328141827243614 0.2758032315586694 -0.05864860944571367
0.10611325489573784 0.2784505646239273 -0.05864860944571367
0.27099730384020126 0.26698150322121 -0.05864860944571367
0.3732983991219677 0.27032936134373614 -0.05864860944571367
0.4161118840173387 0.38114265063533187 -0.05864860944571367
0.5205064088307091 0.36744982945779786 -0.05864860944571367
0.5733879050142608 0.2374209749325302 -0.05864860944571367
0.639913348534142 0.38749624999195087 -0.05864860944571367
0.6821159104144535 0.4114362865420832 -0.05864860944571367
0.1167514609979742 0.23941665678172455 -0.05864860944571367
0.35235595816572746 0.42455076726536084 -0.05864860944571367
0.5692091915912537 0.23338073739293652 -0.05864860944571367
0.6232718056039206 0.2825152390841234 -0.05864860944571367
-0.5952263663925885 0.3289209513080443 -0.05864860944571367
-0.5900294479444822 0.4219930362423116 -0.05864860944571367
-0.626497479123435 0.3775096951057779 -0.05864860944571367
-0.6251290115697017 0.24941135730809827 -0.05864860944571367
0.6553086085136417 0.41648658346657513 -0.05864860944571367
0.6484499794645736 0.24729349085589192 -0.05864860944571367
-0.47227607320181036 0.37685804388971444 -0.05758967621961052
0.4110697327330475 0.43859385097152886 -0.05758967621961052
0.5802628253437306 0.36208185256547487 -0.05758967621961052
0.7910964306608707 0.3084428118432493 -0.05758967621961052
-0.5679629086405323 0.2856676018418304 -0.05701948140555497
-0.4498103975280217 0.28042180955251944 -0.05701948140555497
-0.32487256812825 0.2739378799526877 -0.05701948140555497
-0.31741930734452384 0.39360548014254604 -0.05701948140555497
-0.2821731221956901 0.39547897738872856 -0.05701948140555497
-0.18477570231480128 0.38540282046034685 -0.05701948140555497
-0.026685117297799817 0.382714759194085 -0.05701948140555497
0.07357956793376831 0.27866235126914796 -0.05701948140555497
0.07208891577702303 0.3961143373243905 -0.05701948140555497
0.17885382188882434 0.27411708403710516 -0.05701948140555497
0.2738971517516838 0.38947564056074363 -0.05701948140555497
0.315830907505369 0.27709838835059564 -0.05701948140555497
0.4130246863812378 0.27821434105810433 -0.05701948140555497
0.4784260315534095 0.270101283418114 -0.05701948140555497
0.5276175527260017 0.2912718022999764 -0.05701948140555497
0.6162747006714389 0.2861237576930749 -0.05701948140555497
0.7659101111600168 0.2997351224686009 -0.05701948140555497
-0.6171951580141288 0.3224940411896181 -0.05701948140555497
0.2823034524389026 0.23651680887024207 -0.05701948140555497
0.6686756040831441 0.41964709186448307 -0.05701948140555497
0.6343987501182048 0.4217160844754847 -0.05701948140555497
0.7931084037904665 0.32633878336439276 -0.05701948140555497
0.5837247224290679 0.4335679909676393 -0.05701948140555497
-0.6245425254752445 0.3083043359598358 -0.05701948140555497
-0.6247624577606661 0.3550114368711861 -0.05701948140555497
0.6540460342825186 0.2743044337617234 -0.05701948140555497
0.6361419171211746 0.33038716654418715 -0.05701948140555497
0.47845861411421264 0.44791246336123675 -0.05661219939551528
-0.5745282946423721 0.39220443002800953 -0.0559605481794518
0.3764181793188715 0.44791246336123675 -0.0559605481794518
0.4742473181304024 0.22118671401234855 -0.0559605481794518
0.5480794009103952 0.31917061998769447 -0.0559605481794518
0.5921880425976923 0.44791246336123675 -0.0559605481794518
0.7411880931506083 0.2568646180918244 -0.0559605481794518
-0.5449922032742945 0.2734898697416441 -0.055390353365396244
-0.4541194411942415 0.2774160683184266 -0.055390353365396244
-0.32035988345701033 0.2677960672412894 -0.055390353365396244
-0.3230235078026698 0.32437568407600154 -0.055390353365396244
-0.21457245416930418 0.38067020350368586 -0.055390353365396244
-0.2784342733435258 0.27647931969533523 -0.055390353365396244
-0.17924481261846256 0.28016929470629476 -0.055390353365396244
-0.08574100875355319 0.381215961397139 -0.055390353365396244
-0.02481976569181798 0.3280575134467602 -0.055390353365396244
0.007045978773686395 0.27478502653357023 -0.055390353365396244
0.015761813788535573 0.3722801940968685 -0.055390353365396244
0.10611325489573784 0.37401521545963745 -0.055390353365396244
0.27195034374369403 0.3844497805568541 -0.055390353365396244
0.21456430852910346 0.31333019596372536 -0.055390353365396244
0.3125807970652524 0.39591884195957144 -0.055390353365396244
0.3139655558993872 0.2875329534478122 -0.055390353365396244
0.4168612829158116 0.27279749032457656 -0.055390353365396244
0.5214024292527962 0.28844526515030106 -0.055390353365396244
-0.6118516180424082 0.335127929141049 -0.055390353365396244
-0.6169589344483057 0.40501752206385777 -0.055390353365396244
-0.6269047611334747 0.32403356718756815 -0.055390353365396244
0.30868718104927295 0.2349609915918905 -0.055390353365396244
-0.6501198357057364 0.4039015693563491 -0.055390353365396244
0.479827081667946 0.23335630047233413 -0.055390353365396244
-0.6150039808001153 0.3224696042690158 -0.055390353365396244
0.5914549349796209 0.22943824753575245 -0.055390353365396244
0.7762632198552255 0.36019206403889076 -0.055390353365396244
-0.6239804763013899 0.37333912732297164 -0.055390353365396244
-0.647765745687707 0.2564736273621863 -0.055390353365396244
0.6525472364855727 0.38638844292464297 -0.055390353365396244
0.6897646665629986 0.4074775054044975 -0.055390353365396244
0.5669121210546301 0.43903371554237175 -0.05498307135535657
0.4574021341951612 0.2118843929030423 -0.05498307135535657
-0.47299288953948015 0.2612795550806545 -0.05433142013929309
-0.45412758683444227 0.4004152353504094 -0.05433142013929309
0.612446249777066 0.21965533365459933 -0.05433142013929309
0.5480794009103952 0.2977150036988042 -0.05433142013929309
0.794827133872834 0.38560646146536676 -0.05433142013929309
-0.5621713584577681 0.27815732157669876 -0.053761225325237534
-0.45650611377307404 0.3875125412723524 -0.053761225325237534
-0.3793017359499526 0.38813160992761275 -0.053761225325237534
-0.36130801674639956 0.27272417956276945 -0.053761225325237534
-0.22324756098314943 0.27028048750253136 -0.053761225325237534
-0.2787438076711559 0.3078563257487921 -0.053761225325237534
-0.12379743977166072 0.3895978251637556 -0.053761225325237534
-0.1793425603008721 0.3215817294871293 -0.053761225325237534
-0.08567584363194676 0.279134798400794 -0.053761225325237534
-0.024722018009408455 0.2846493968167312 -0.053761225325237534
0.07486657908549371 0.27009313777791316 -0.053761225325237534
0.07089150666750646 0.2983748005550684 -0.053761225325237534
0.17136797854429509 0.3928316443234706 -0.053761225325237534
0.11506531347640987 0.37190549464763195 -0.053761225325237534
0.2131795496949684 0.3957640747957563 -0.053761225325237534
0.2696940014080743 0.3212477582388968 -0.053761225325237534
0.3054207793287549 0.2736690738260615 -0.053761225325237534
0.3148208481204706 0.38796869712359694 -0.053761225325237534
0.4763733302228095 0.26630541508454414 -0.053761225325237534
0.423353358155844 0.38710525926231276 -0.053761225325237534
0.5532355911574977 0.3703985512104851 -0.053761225325237534
-0.6248113316018707 0.3219645745765666 -0.053761225325237534
0.625707352023958 0.28215683091528837 -0.053761225325237534
-0.6133015419981493 0.27663408685915036 -0.053761225325237534
0.6343743131976023 0.28705236067596535 -0.053761225325237534
-0.26280278979820293 0.42066529688958226 -0.053761225325237534
-0.619280441905532 0.350873451649183 -0.053761225325237534
0.5705695135047862 0.2318737939557897 -0.053761225325237534
0.7930432386688603 0.3235611200559221 -0.053761225325237534
0.7927418499814309 0.3424101314805585 -0.053761225325237534
0.6583550779487387 0.39859061194543177 -0.053761225325237534
-0.6418438652617301 0.27771745700585587 -0.053761225325237534
-0.6392861342386809 0.4007329153182404 -0.053761225325237534
0.5921880425976923 0.21809951637624786 -0.053353943315197855
-0.5799532910161006 0.3250354809322658 -0.052702292099134365
-0.3960328809223826 0.36208185256547487 -0.052702292099134365
0.5575446348237174 0.2726019949597575 -0.052702292099134365
0.6982768605728278 0.4264568470723465 -0.052702292099134365
0.5469797394832882 0.37661367468369067 -0.05213209728507883
0.4711438292139 0.2708018084753822 -0.05213209728507883
0.432395018778725 0.38655950136885964 -0.05213209728507883
-0.6177490615477828 0.3773549279419628 -0.05213209728507883
0.6410781750828555 0.23672044987526195 -0.05213209728507883
-0.637111248305069 0.3342074717983593 -0.05213209728507883
-0.6068257580385185 0.3406751101177894 -0.05213209728507883
0.651822274507702 0.24223504829119916 -0.05213209728507883
0.09767437164771568 0.23382060196377938 -0.05213209728507883
-0.6387648132658301 0.24807547231516813 -0.05213209728507883
-0.5973849610457989 0.4145560667389871 -0.05213209728507883
-0.6443934506445785 0.41327720122746253 -0.05213209728507883
-0.6474643570002776 0.32483998556744675 -0.05213209728507883
0.6560091335709101 0.27093213871859484 -0.05213209728507883
0.6587623599587782 0.41703234136002837 -0.05213209728507883
0.3214269623233143 0.38655950136885964 -0.05213209728507883
0.3679467135100462 0.27585210539987415 -0.05213209728507883
0.22202571495303033 0.38655950136885964 -0.05213209728507883
0.26854546613976227 0.27585210539987415 -0.05213209728507883
0.12262446758274641 0.38655950136885964 -0.05213209728507883
0.07278129519409056 0.38429501339303895 -0.05213209728507883
0.015973600433756178 0.3610066280589702 -0.05213209728507883
-0.0810979938391008 0.27256941239895444 -0.05213209728507883
-0.07963992424315873 0.3381336703751418 -0.05213209728507883
-0.11899965769339332 0.38458825644026756 -0.05213209728507883
-0.1244246540671218 0.37445508003048034 -0.05213209728507883
-0.21840090506367715 0.38458825644026756 -0.05213209728507883
-0.22382590143740574 0.37445508003048034 -0.05213209728507883
-0.3178021524339611 0.38458825644026756 -0.05213209728507883
-0.3232271488076896 0.37445508003048034 -0.05213209728507883
-0.45849364998206765 0.26852917485936073 -0.05213209728507883
-0.5683294624495681 0.37526149841035894 -0.05213209728507883
0.603526773757197 0.44791246336123675 -0.051724815275039145
0.6231740579215111 0.44019039645088437 -0.051073164058975655
0.6339018660659563 0.22098307300732878 -0.051073164058975655
-0.45503989853693116 0.25800500771993556 -0.051073164058975655
-0.5891415731625956 0.33823956369775215 -0.051073164058975655
-0.6241922629466105 0.2507716792216308 -0.05050296924492011
-0.630920561752466 0.4028589274106475 -0.05050296924492011
-0.6186206450492676 0.37904922110372796 -0.05050296924492011
-0.6192641506251303 0.32033544653640783 -0.05050296924492011
0.7101939321865888 0.4032091899392817 -0.05050296924492011
-0.6349852362126619 0.34550547475686 -0.05050296924492011
-0.5905589145575337 0.24456470138862613 -0.05050296924492011
0.6253000700139182 0.4306518517757552 -0.05050296924492011
0.6024515492506924 0.4375430633856266 -0.05050296924492011
-0.6442794116817673 0.34576613524328537 -0.05050296924492011
0.7925137720558088 0.3300939234969586 -0.05050296924492011
0.5175169588770177 0.3797497461609962 -0.05050296924492011
0.47861338127802777 0.27548555159083843 -0.05050296924492011
0.46967761397775715 0.38396918778500727 -0.05050296924492011
0.3355922306324941 0.274361453243129 -0.05050296924492011
0.2704596915869489 0.3911699337225088 -0.05050296924492011
0.2687653984251838 0.282963249295167 -0.05050296924492011
0.17481358434923078 0.38431945031364134 -0.05050296924492011
0.11600206209950122 0.3729155540325304 -0.05050296924492011
0.012544285909222032 0.26601217203731553 -0.05050296924492011
0.0452734682360106 0.3854109661005477 -0.05050296924492011
-0.07652014404625483 0.274361453243129 -0.05050296924492011
-0.17930997774006888 0.3879361145627937 -0.05050296924492011
-0.1784139573179816 0.3043048266212462 -0.05050296924492011
-0.28202650067207574 0.38863663962006195 -0.05050296924492011
-0.22454271777507553 0.2876225554900209 -0.05050296924492011
-0.3173378509425158 0.3908115255536738 -0.05050296924492011
-0.32384621746294995 0.3286928733824221 -0.05050296924492011
-0.42324746483323383 0.395421957907323 -0.05050296924492011
-0.5439902895295969 0.38756141511355713 -0.05050296924492011
0.6090332265329336 0.21404298755625262 -0.050095687234880434
-0.5309898477691305 0.3739500503380312 -0.04944403601881695
0.5480794009103952 0.31917061998769447 -0.04944403601881695
0.7968228157220285 0.3513540444210298 -0.04944403601881695
0.7197324768617182 0.2312791622211318 -0.04944403601881695
0.6206000356180603 0.27552627979184247 -0.0488738412047614
0.6263182750390174 0.27206438270650524 -0.0488738412047614
-0.6171218472523216 0.33911929283943787 -0.0488738412047614
-0.6349526536518587 0.31706904481588966 -0.0488738412047614
0.14816104961223417 0.2345129813808469 -0.0488738412047614
0.12056362061194563 0.2341627188522127 -0.0488738412047614
0.6230600189587001 0.4319551542078821 -0.0488738412047614
0.6085689250414882 0.4380969669192804 -0.0488738412047614
-0.6413551268496824 0.2680648733679156 -0.0488738412047614
0.6636578897194552 0.2748909198561806 -0.0488738412047614
0.6675107775344306 0.41465381442139665 -0.0488738412047614
0.5531785716760921 0.2812445192127996 -0.0488738412047614
0.41771657513689503 0.36322224219358595 -0.0488738412047614
0.3690137923763502 0.2755099885114408 -0.0488738412047614
0.31589607262697544 0.3266238807714205 -0.0488738412047614
0.2760638920450948 0.27480946345417256 -0.0488738412047614
0.2676168631568718 0.3320081489441451 -0.0488738412047614
0.1765893339130038 0.2739948994340933 -0.0488738412047614
0.16824005270719034 0.2862866704970908 -0.0488738412047614
0.051700378354436735 0.38350488629356205 -0.0488738412047614
-0.07524942417493098 0.38923127135471997 -0.0488738412047614
-0.026750282419406128 0.35949968462182336 -0.0488738412047614
-0.1845639156695807 0.38891359138688897 -0.0488738412047614
-0.12615152978969008 0.3046062153086755 -0.0488738412047614
-0.2767236889013592 0.37236979613907717 -0.0488738412047614
-0.3784138611680661 0.27653633917674086 -0.0488738412047614
-0.37612493627164306 0.33119358492406575 -0.0488738412047614
-0.46291673261109856 0.38413210058902314 -0.0488738412047614
-0.5673275487048705 0.2779618262118797 -0.0488738412047614
0.6216671144843643 0.44081761074634546 -0.04846655919472172
0.6239560393807874 0.4410619799523693 -0.04781490797865823
0.6339018660659563 0.22001374182343433 -0.04781490797865823
-0.3960328809223826 0.32989842813213954 -0.04781490797865823
-0.4603997297890533 0.28698719555435903 -0.04781490797865823
0.7859646773343707 0.34660513618396716 -0.04724471316460267
0.4529057408043232 0.4292996755024235 -0.04724471316460267
0.6491505045218418 0.4220826382845203 -0.04724471316460267
-0.11778595730347508 0.23553118640594609 -0.04724471316460267
-0.2196146054535954 0.41526473743645614 -0.04724471316460267
0.7116357105021294 0.4110127132516419 -0.04724471316460267
0.658615738435164 0.2783528169415178 -0.04724471316460267
0.7538952918638463 0.3742514390254605 -0.04724471316460267
0.5151302862981854 0.2816843837836424 -0.04724471316460267
0.4194108682986601 0.29435899993607717 -0.04724471316460267
0.31333019596372547 0.273571326143652 -0.04724471316460267
0.36534010864579236 0.3243675384358007 -0.04724471316460267
0.21871043939130727 0.2792081091626012 -0.04724471316460267
0.11629530514672978 0.2790777789193884 -0.04724471316460267
0.11880416232857414 0.3400804783831315 -0.04724471316460267
0.012137003899182377 0.3876998909969707 -0.04724471316460267
0.06713636653494051 0.3380929421741379 -0.04724471316460267
-0.06116561226775891 0.27929771120480984 -0.04724471316460267
-0.18043407608777842 0.2742962881215227 -0.04724471316460267
-0.17560371144870782 0.36294529042675905 -0.04724471316460267
-0.21874302195211048 0.38408322674781836 -0.04724471316460267
-0.22845262507145647 0.37128642599237166 -0.04724471316460267
-0.33650454233498317 0.27929771120480984 -0.04724471316460267
-0.424778845190983 0.3929049550852778 -0.04724471316460267
-0.44620187891907015 0.3206205439434357 -0.04724471316460267
-0.561698911326122 0.28114677153039 -0.04724471316460267
-0.6438558383913261 0.25903135838523544 -0.04724471316460267
-0.6430412743712468 0.4124544915671824 -0.04724471316460267
-0.6367854226970373 0.25479562548082285 -0.04724471316460267
-0.6397097075291222 0.3686390929271138 -0.04724471316460267
-0.4925831542223887 0.37280966070992005 -0.04618577993849952
-0.47192581067317624 0.39892458319366425 -0.04618577993849952
0.6411840684054658 0.3942652769988103 -0.04618577993849952
0.7197324768617182 0.2312791622211318 -0.04618577993849952
0.5536021449665333 0.22735296364434932 -0.04561558512444397
0.6021745974838653 0.22802905178101515 -0.04561558512444397
0.6291855403896968 0.42718180905021713 -0.04561558512444397
0.01606320247596487 0.2373639554511246 -0.04561558512444397
0.11682477175978136 0.42785789718688294 -0.04561558512444397
0.6315803586087302 0.2247463587800953 -0.04561558512444397
0.7458636906258639 0.3778599576344121 -0.04561558512444397
0.6588845445617902 0.3413186156936521 -0.04561558512444397
0.7266644166725935 0.2656456182282798 -0.04561558512444397
0.5284239711058802 0.291092598215559 -0.04561558512444397
0.4231089889498202 0.31599382030938494 -0.04561558512444397
0.3212884864399006 0.2950595249933454 -0.04561558512444397
0.2622733231851514 0.31869002721584755 -0.04561558512444397
0.16287207581486732 0.29775573189980814 -0.04561558512444397
0.07214593525842863 0.381215961397139 -0.04561558512444397
-0.023597919661699013 0.38168026288858425 -0.04561558512444397
-0.12921429050518837 0.2836719199926361 -0.04561558512444397
-0.17324147579047763 0.3691278313391614 -0.04561558512444397
-0.2512033981522729 0.3738115744546177 -0.04561558512444397
-0.3303464383431832 0.3738115744546177 -0.04561558512444397
-0.4331688545978004 0.3847185866834803 -0.04561558512444397
-0.5402188581166294 0.2727893446843759 -0.04561558512444397
-0.639717853169323 0.3246933640438325 -0.04561558512444397
-0.5050215468090005 0.255341383374276 -0.0445566518983408
-0.3960328809223826 0.36208185256547487 -0.0445566518983408
-0.4818634917181444 0.2424305436560182 -0.0445566518983408
-0.43553109025603054 0.40909034216425455 -0.0445566518983408
0.5695350171992853 0.2977150036988042 -0.0445566518983408
0.6231740579215111 0.31917061998769447 -0.0445566518983408
0.6915485617669723 0.4264568470723465 -0.0445566518983408
0.6608150612893783 0.4180016725439228 -0.04398645708428526
0.6171951580141288 0.22578085508559617 -0.04398645708428526
0.1845394787489783 0.42524314668242824 -0.04398645708428526
0.6021583062034638 0.23052976332265881 -0.04398645708428526
0.6023293646476804 0.4260658563427084 -0.04398645708428526
0.6711600243443862 0.24864566712922373 -0.04398645708428526
0.6831992805611589 0.3741618369832518 -0.04398645708428526
0.7848324333464604 0.3183804928882174 -0.04398645708428526
0.6909946582333183 0.28460052297552646 -0.04398645708428526
0.5282936408626676 0.2919315991562407 -0.04398645708428526
-0.4622732270352359 0.3843764697950469 -0.04398645708428526
-0.5436889008421676 0.27089955615779177 -0.04398645708428526
-0.6442631204013658 0.3280819503673626 -0.04398645708428526
-0.5871621825938028 0.31917061998769447 -0.04357917507424557
-0.5891415731625956 0.35411541644909883 -0.04292752385818209
-0.4228972023045997 0.25159438888191094 -0.04292752385818209
-0.4439536822236511 0.4078440592135332 -0.04292752385818209
0.6137984260503978 0.37280966070992005 -0.04292752385818209
0.8270187039463702 0.30637381923224766 -0.04292752385818209
0.7184454657099927 0.25724746318126174 -0.042357329044126535
0.6255362935797412 0.2793954588872194 -0.042357329044126535
0.8035592601680848 0.3271614930246729 -0.042357329044126535
0.6296009680399374 0.38225860334284056 -0.042357329044126535
0.6936664282191787 0.23931890909931502 -0.042357329044126535
0.6237605440159683 0.2346921854652643 -0.042357329044126535
0.6584039517899435 0.3714411931561867 -0.042357329044126535
0.7197732050627221 0.295434224442582 -0.042357329044126535
0.7151790639894746 0.26339742153286083 -0.042357329044126535
0.522404342997494 0.2893575768527899 -0.042357329044126535
-0.4345047395907306 0.3892231257145191 -0.042357329044126535
-0.5687530357400095 0.3756687804203986 -0.042357329044126535
-0.5654621970988888 0.3750904399661423 -0.042357329044126535
-0.6239886219415905 0.34246715096196406 -0.042357329044126535
-0.5891415731625956 0.3835374688543651 -0.04129839581802338
-0.3960328809223826 0.3513540444210298 -0.04129839581802338
0.5802628253437306 0.37152264955819464 -0.04129839581802338
0.8162827501617242 0.28698719555435903 -0.04129839581802338
0.6358975479151507 0.37759115150778594 -0.04072820100396783
0.6179282656322 0.4323461449375202 -0.04072820100396783
0.6601552644331139 0.23202041547940397 -0.04072820100396783
0.670019634716275 0.41382295912091566 -0.04072820100396783
0.42464036930756954 0.2296663254613746 -0.04072820100396783
0.6198669279999889 0.3742025651842557 -0.04072820100396783
0.6773344196165876 0.403274355060888 -0.04072820100396783
0.6587216317577743 0.2853336305935979 -0.04072820100396783
0.7044023820038247 0.27476873525316864 -0.04072820100396783
0.7148288014608404 0.26688375553880045 -0.04072820100396783
0.5444382997406405 0.27790480673047424 -0.04072820100396783
-0.4210074137780156 0.2649125106102085 -0.04072820100396783
-0.5746178966845807 0.3134116523657333 -0.04072820100396783
-0.6081697886716495 0.33287973244562996 -0.04072820100396783
-0.5871621825938028 0.2977150036988042 -0.040320918993928145
-0.47080985796566754 0.3942652769988103 -0.039669267777864656
-0.5033109623668338 0.3835374688543651 -0.039669267777864656
0.6254466915375325 0.34320840422023624 -0.039669267777864656
0.7197324768617182 0.22261220104748738 -0.039669267777864656
0.7966924854788157 0.32042504857861664 -0.03909907296380911
0.8055956702182832 0.3285951257000126 -0.03909907296380911
0.6615481689074497 0.23722547956771114 -0.03909907296380911
0.5167838512589462 0.42806153819190285 -0.03909907296380911
0.7082063959775952 0.32971107840752134 -0.03909907296380911
0.7371478556110149 0.39022503945921677 -0.03909907296380911
0.7794074369727318 0.3041174768966278 -0.03909907296380911
0.6326148549142308 0.3826251571518763 -0.03909907296380911
0.522282158394482 0.3679711504306487 -0.03909907296380911
-0.42690485728339017 0.38993179641198816 -0.03909907296380911
-0.5716284467308895 0.31008823116380957 -0.03909907296380911
-0.5441206197728097 0.3883515422130342 -0.03909907296380911
-0.6458433746003197 0.332562052477799 -0.03909907296380911
-0.5829508866099926 0.28698719555435903 -0.038691790953769435
-0.5891415731625956 0.40500123078345623 -0.03804013973770595
-0.4603997297890533 0.37280966070992005 -0.03804013973770595
0.6231740579215111 0.3084428118432493 -0.03804013973770595
0.7974093018164856 0.36208185256547487 -0.03804013973770595
0.6523110129197497 0.25479562548082285 -0.03804013973770595
0.6858384679862162 0.4176514100152886 -0.0374699449236504
0.6990751333125057 0.24355464200372776 -0.0374699449236504
0.6060356309390416 0.22082830584351365 -0.0374699449236504
0.7216304110285031 0.3334906554606895 -0.0374699449236504
0.7326514622201766 0.27063075003116555 -0.0374699449236504
0.7640040313530313 0.28901545996435657 -0.0374699449236504
0.6317595626931476 0.2822382873172964 -0.0374699449236504
0.5257359098396185 0.2917523950718232 -0.0374699449236504
-0.43337249560282026 0.38951636876174767 -0.0374699449236504
-0.5690299875068363 0.35910869389218525 -0.0374699449236504
-0.5758804709157038 0.30154345459317716 -0.0374699449236504
-0.6288515691414643 0.3175007637465317 -0.0374699449236504
0.6258784104681745 0.3084428118432493 -0.03706266291361072
-0.5891415731625956 0.3513540444210298 -0.03641101169754723
-0.4153380481982633 0.2629412656816164 -0.03641101169754723
-0.4144664646967784 0.27550184287124013 -0.03641101169754723
0.6231740579215111 0.36208185256547487 -0.03641101169754723
0.7811506039757016 0.2801530034258932 -0.03641101169754723
0.794827133872834 0.3942652769988103 -0.03641101169754723
0.7357305142160767 0.39522646254250393 -0.035840816883491694
0.6869544206937248 0.4212762199046418 -0.035840816883491694
0.7636048949831923 0.2759742900028861 -0.035840816883491694
0.7350055522382061 0.28340311386600986 -0.035840816883491694
0.7492685682297957 0.38339084733075085 -0.035840816883491694
0.7766460649446628 0.3108865039034873 -0.035840816883491694
0.6659305233354765 0.38491408204829936 -0.035840816883491694
0.5300856817068422 0.37717572385754544 -0.035840816883491694
-0.42659532295576 0.3815743695659739 -0.035840816883491694
-0.5691032982686436 0.37454468207268904 -0.035840816883491694
-0.5407564703698818 0.27038638082514177 -0.035840816883491694
-0.6136273676061812 0.32347966365391423 -0.035840816883491694
0.7888563796056524 0.28698719555435903 -0.03543353487345201
-0.5871621825938028 0.2977150036988042 -0.03543353487345201
-0.5569581487292603 0.36208185256547487 -0.03478188365738852
-0.4925831542223887 0.4157290389279014 -0.03478188365738852
0.5802628253437306 0.2977150036988042 -0.03478188365738852
0.6553574823548465 0.2118843929030423 -0.03478188365738852
0.7241718507711505 0.4157290389279014 -0.03478188365738852
0.7229988785822362 0.2575651431490927 -0.03421168884333297
0.6667613786359575 0.232533590812054 -0.03421168884333297
0.7175494452879055 0.4001301379433817 -0.03421168884333297
0.7188853302808356 0.41221012236115856 -0.03421168884333297
0.7515004736448131 0.3361950080073529 -0.03421168884333297
0.7484377129293147 0.2926484154939106 -0.03421168884333297
0.6350666926146697 0.3445442892131664 -0.03421168884333297
0.5480712552701944 0.37678473312790733 -0.03421168884333297
-0.4575161731579724 0.38875882422307384 -0.03421168884333297
-0.4328430289897687 0.3816639716081827 -0.03421168884333297
-0.5694209782364744 0.3519975499968924 -0.03421168884333297
-0.6111836755459431 0.33124245876527053 -0.03421168884333297
0.7817207987897571 0.2799330711404718 -0.0338044068332933
-0.46993827446418257 0.3942652769988103 -0.033152755617229815
-0.3960328809223826 0.31917061998769447 -0.033152755617229815
0.6678610400630648 0.2675924262362695 -0.033152755617229815
0.6336819337805347 0.39297826584708495 -0.033152755617229815
0.8081371099609306 0.29900201485052946 -0.033152755617229815
0.7593773077189804 0.2798190321776607 -0.03258256080317426
0.6370379375432618 0.4292263647406163 -0.03258256080317426
0.8091145867850259 0.3291408835934657 -0.03258256080317426
0.6368587334588444 0.22230266671985727 -0.03258256080317426
0.7713513988141469 0.3605586178479265 -0.03258256080317426
0.7443811841093194 0.28346013334741543 -0.03258256080317426
0.6344883521604134 0.37979047436200014 -0.03258256080317426
0.6305540079434301 0.2732455005356203 -0.03258256080317426
0.5454890873265428 0.38380627498099135 -0.03258256080317426
-0.42161833679307514 0.38116708755593426 -0.03258256080317426
-0.5408949462532954 0.2702479049417283 -0.03258256080317426
-0.573778895743899 0.36449296206490983 -0.03258256080317426
0.6272468780219079 0.30531488600614454 -0.032175278793134574
-0.47001158522598974 0.3996739820921373 -0.03152362757707109
-0.5891415731625956 0.2655315792654687 -0.03152362757707109
0.5695350171992853 0.3676371791824161 -0.03152362757707109
0.6918173678935985 0.4021502567131785 -0.03152362757707109
0.7908194788940437 0.28698719555435903 -0.03152362757707109
0.7359585921416989 0.26322636308864417 -0.03095343276301554
0.7337022498060792 0.39789823252836426 -0.03095343276301554
0.7183395723873823 0.2507716792216308 -0.03095343276301554
0.730663926011183 0.2672666006282378 -0.03095343276301554
0.7752531604703272 0.35059649988235597 -0.03095343276301554
0.7826086735716437 0.35695824487917577 -0.03095343276301554
0.6342765655151927 0.2828410646921551 -0.03095343276301554
0.5263223959340757 0.29158133662760666 -0.03095343276301554
-0.42608214762311003 0.3839610421448065 -0.03095343276301554
-0.42215594904632747 0.39691261006406825 -0.03095343276301554
-0.537710000934785 0.27200736322509966 -0.03095343276301554
-0.6079254194656256 0.3360646777641403 -0.03095343276301554
-0.5813461954904362 0.33290416936623235 -0.02989449953691238
-0.5891415731625956 0.25479562548082285 -0.02989449953691238
0.5348264443037041 0.2977150036988042 -0.02989449953691238
0.6768130986437368 0.3513540444210298 -0.02989449953691238
0.8270187039463702 0.35342303703203143 -0.02989449953691238
0.7854677932821222 0.3619107941212583 -0.02932430472285683
0.8046670672353926 0.3187959205384579 -0.02932430472285683
0.7620490777048408 0.2879402354578519 -0.02932430472285683
0.7207343906064158 0.41280475409581646 -0.02932430472285683
0.7886690298810342 0.3467028838663767 -0.02932430472285683
0.6316699606509388 0.2770576601495917 -0.02932430472285683
0.6584854081919513 0.2917361037914216 -0.02932430472285683
0.5546122043514317 0.3843520328744446 -0.02932430472285683
-0.4199892087529164 0.38099602911171754 -0.02932430472285683
-0.5410415677769097 0.27011757469851555 -0.02932430472285683
-0.5407401790894802 0.384335741594043 -0.02932430472285683
-0.5618862610507404 0.34935836257183533 -0.02826537149675366
-0.5745201490021713 0.3120676217326025 -0.02826537149675366
-0.4925831542223887 0.37280966070992005 -0.02826537149675366
0.709004668717273 0.37280966070992005 -0.02826537149675366
0.8270187039463702 0.30637381923224766 -0.02826537149675366
0.7617802715782146 0.2840466194418725 -0.027695176682698122
0.7596298225652051 0.38174542801019057 -0.027695176682698122
0.6342684198749919 0.42694558548439415 -0.027695176682698122
0.8024921813017808 0.3101941244864199 -0.027695176682698122
0.8055305050966768 0.32924677691607607 -0.027695176682698122
0.6326392918348333 0.27344914154064004 -0.027695176682698122
0.5266156389813043 0.36828068475827885 -0.027695176682698122
-0.4530930905289415 0.27089955615779177 -0.027695176682698122
-0.45345149869777646 0.39531606458471275 -0.027695176682698122
-0.5381417198654271 0.26672898837498543 -0.027695176682698122
-0.5569581487292603 0.31917061998769447 -0.026636243456594953
-0.5812240108874244 0.3077504324261819 -0.026636243456594953
-0.3960328809223826 0.4157290389279014 -0.026636243456594953
