0.27685894178459897 0.19861269134431092 -0.2051802513549294
0.7041893744536819 0.24251588923248352 -0.2051802513549294
0.19642649128620587 0.4448021134613151 -0.2051802513549294
0.008789599413938193 0.28517366987444076 -0.2051802513549294
0.3696738860547174 0.4346774984381242 -0.2051802513549294
0.5347588699505503 0.2998588415762193 -0.2051802513549294
0.4005226024483865 0.19766294869611784 -0.20401547263544728
0.00693491329907042 0.5044835830803188 -0.20401547263544728
0.7075672327401802 0.46993445429321795 -0.2033882840941877
0.18518189672505148 0.428253295808365 -0.2033882840941877
0.6743172802171173 0.36563299988174497 -0.2033882840941877
0.17431361528865288 0.5183444498421561 -0.2033882840941877
0.4585017031696855 0.20573576120575937 -0.2033882840941877
0.19995666678986715 0.4490221963603618 -0.2033882840941877
-0.030660559831291297 0.3222046733176688 -0.2033882840941877
0.42253692024659895 0.3141229009717235 -0.2033882840941877
0.5396867799175902 0.4223129243390062 -0.2033882840941877
0.33223968997782244 0.44316246341773635 -0.2033882840941877
-0.09927498624509258 0.30613968682511916 -0.20222350537470551
0.19436572893635296 0.32604844309195985 -0.20222350537470551
0.1915165009917736 0.44855628487256904 -0.20159631683344592
0.24913720826092428 0.5086499069615434 -0.20159631683344592
0.08265448990171277 0.48746885393957595 -0.20159631683344592
0.7062142974583201 0.2318357643584628 -0.20159631683344592
0.7125220222161311 0.4653918172872376 -0.20159631683344592
0.4683127239222466 0.21858416646527762 -0.20159631683344592
0.2136920958434526 0.5153160251715027 -0.20159631683344592
0.3384757360452037 0.44348501752466984 -0.20159631683344592
0.39671467201931043 0.29571939720390583 -0.20159631683344592
0.3199467945691341 0.4591647310561601 -0.20043153811396378
0.13674502166720218 0.1858628442841334 -0.20043153811396378
0.20257293899055012 0.4517280669240819 -0.19980434957270418
0.7135882427362724 0.36512228921243356 -0.19980434957270418
0.4793870815936307 0.5119740062302192 -0.19980434957270418
0.11648683178451681 0.2209316435768493 -0.19980434957270418
0.721042826540958 0.3603466964625568 -0.19980434957270418
0.18088117529927128 0.21733874921906216 -0.19980434957270418
0.17930424410981852 0.5066697831384237 -0.19980434957270418
0.4189798652340264 0.3141229009717235 -0.19980434957270418
0.3390402057323374 0.4492461922679546 -0.19980434957270418
0.4034435090833957 0.5398838963162719 -0.19935635775751873
-0.016665295524898316 0.4926834786683344 -0.19863957085322204
0.18258354419697603 0.4381987141054817 -0.19801238231196244
0.7065458114015574 0.46703146733081635 -0.19801238231196244
0.2926103340065188 0.2155915811398389 -0.19801238231196244
0.33288479819168953 0.20336140458527655 -0.19801238231196244
0.01717600619420948 0.4631428983750068 -0.19801238231196244
0.3218104405203055 0.2050637734829812 -0.19801238231196244
0.3221867536450613 0.5177262211372001 -0.19801238231196244
-0.04857127260240496 0.32985637352103603 -0.19801238231196244
0.4276977859575351 0.42311930960634003 -0.19801238231196244
0.32302001842130623 0.27228046543340384 -0.19801238231196244
0.3444698665323849 0.48088337425634997 -0.19684760359248032
0.11783976706637679 0.17406273987214912 -0.19684760359248032
0.1920899305152109 0.44932683079468794 -0.1962204150512207
0.7030783547520221 0.3458138419779413 -0.1962204150512207
0.683303996029737 0.3742613222422164 -0.1962204150512207
-0.05715479578135788 0.3273565791923013 -0.1962204150512207
0.7209263486690101 0.3651581285576483 -0.1962204150512207
0.19408797401093794 0.44714063073658306 -0.1962204150512207
0.17236037097444434 0.21890672057221114 -0.1962204150512207
0.1924214444584482 0.27981568776482296 -0.1962204150512207
0.4243468071799481 0.30263639083036903 -0.1962204150512207
0.34360076241092513 0.44894155783362844 -0.1962204150512207
-0.040265504348867054 0.2566634707560396 -0.19505563633173859
0.43176555163941893 0.43585123699391004 -0.19505563633173859
0.7101028664141299 0.3439412361904661 -0.19442844779047896
0.30697295160136395 0.2118642892374961 -0.19442844779047896
0.6839132648983893 0.37427924191482376 -0.19442844779047896
-0.03712060180626518 0.30601424911686714 -0.19442844779047896
0.4316132344222557 0.513085025931879 -0.19442844779047896
-0.021763442381708468 0.4248037588314373 -0.19442844779047896
0.3991069483124006 0.20686470058002657 -0.19442844779047896
0.5347588699505503 0.4201536037898124 -0.19442844779047896
0.3730786238501268 0.3001097169927232 -0.19442844779047896
0.38456513399148134 0.1858628442841334 -0.19398045597529354
-0.016665295524898316 0.48088337425634997 -0.19326366907099682
0.6734481760956575 0.3614487563279129 -0.1926364805297372
0.7196540519138832 0.3659197146434636 -0.1926364805297372
0.25400239937383806 0.21348601960846736 -0.1926364805297372
0.13839363154708467 0.21507191063422385 -0.1926364805297372
0.20817283668036804 0.5312376542831929 -0.1926364805297372
0.43060973275624037 0.5151278686091246 -0.1926364805297372
0.09446355415000082 0.23195224223041105 -0.1926364805297372
0.6572756715674632 0.2346312332852199 -0.1926364805297372
0.5473205604483501 0.4217574144881763 -0.1926364805297372
0.3689302196415096 0.29868510302043344 -0.1926364805297372
0.1934607854696784 0.39827368353615566 -0.19147170181025508
-0.13467529948104562 0.3274730570642496 -0.19147170181025508
0.20182031274103854 0.4519610226679783 -0.19084451326899546
0.17209157588533308 0.23301846275055238 -0.19084451326899546
0.6841462206422856 0.3518348519740335 -0.19084451326899546
0.7259528168353904 0.3594238333232747 -0.19084451326899546
-0.0719385256824773 0.3920913964865967 -0.19084451326899546
0.4711798715394333 0.21863792548309988 -0.19084451326899546
0.16605264621663335 0.4945829639647205 -0.19084451326899546
0.5434678308377553 0.3141229009717235 -0.19084451326899546
0.39484206623183526 0.42812785810011317 -0.19084451326899546
0.3609649251675126 0.1858628442841334 -0.19039652145381003
0.06124944097215271 0.5162836874923032 -0.18967973454951334
0.6838057468627449 0.37245143530886726 -0.18905254600825372
0.717172177257756 0.36175339076223906 -0.18905254600825372
0.7151741337620288 0.47643033561340686 -0.18905254600825372
0.37012187786990297 0.4350179722176652 -0.18905254600825372
0.5462095407466903 0.3623805793034986 -0.18905254600825372
0.18084533595405652 0.5120904841021674 -0.18905254600825372
0.20430218739716588 0.2875749060038347 -0.18905254600825372
0.17482432595796416 0.22809951261981626 -0.18905254600825372
0.16400980353938782 0.2721102285436335 -0.18905254600825372
0.4957567025205065 0.506598104447994 -0.18905254600825372
0.3385832540808482 0.1875293738366233 -0.1886045541930683
0.2594410200101892 0.5424464094991326 -0.1878877672887716
0.7305402530228893 0.35912815872525233 -0.187260578747512
0.4276977859575351 0.3054587392660372 -0.187260578747512
0.325331656187663 0.29289704876823763 -0.187260578747512
0.16643791917769288 0.2269705732455489 -0.187260578747512
0.17576510876985363 0.20458890215888464 -0.187260578747512
0.2356526546238426 0.19396253630268606 -0.187260578747512
0.3415847992425907 0.1929142354551522 -0.187260578747512
-0.07847024634788094 0.3609290858222979 -0.187260578747512
0.41444618806434985 0.21157757447577744 -0.187260578747512
-0.05206560876085136 0.48315021284118836 -0.18609580002802986
0.4315684352407372 0.39969829750844543 -0.18609580002802986
0.42600437689613424 0.3141229009717235 -0.18546861148677027
0.34229262631058366 0.45097544067457035 -0.18546861148677027
0.5109615447279002 0.22231145836762042 -0.18546861148677027
0.029406182748771943 0.4731779150351606 -0.18546861148677027
-0.03380546237389304 0.4343191049859759 -0.18546861148677027
0.1626747879301352 0.4545593751960539 -0.18546861148677027
0.162898783837728 0.2717428752551813 -0.18546861148677027
0.3137555476832714 0.17406273987214912 -0.1843038327672881
0.26655513003533404 0.4558585514600916 -0.1843038327672881
0.6763332433854518 0.3610276440216386 -0.1836766442260285
0.3900216743004399 0.4300004638875883 -0.1836766442260285
0.3428212566525024 0.2760346368446579 -0.1836766442260285
0.4814478439434836 0.5063651487040974 -0.1836766442260285
0.18157108269465683 0.5111049021087596 -0.1836766442260285
0.4721744133691451 0.5198765818500902 -0.1836766442260285
0.19485851993305686 0.27688582129351025 -0.1836766442260285
0.36693217614578255 0.5185415662408377 -0.1836766442260285
0.3137555476832714 0.2920727438282964 -0.18251186550654638
-0.1700756127169988 0.3732578205762011 -0.18251186550654638
0.7085617745698918 0.34847491336014275 -0.18188467696528676
0.37690447395181037 0.29864926367521855 -0.18188467696528676
0.5462095407466903 0.3623805793034986 -0.18188467696528676
0.18894502797260915 0.282396120620291 -0.18188467696528676
0.46327729591956246 0.22131691653790872 -0.18188467696528676
0.28462711985991446 0.2102604785391322 -0.18188467696528676
0.02642255725963696 0.46639531895325304 -0.18188467696528676
0.19544986912910167 0.2760435966809615 -0.18188467696528676
0.43176555163941893 0.4454830610203969 -0.18071989824580464
0.13674502166720218 0.17406273987214912 -0.18071989824580464
0.7127818574689386 0.37867852153994475 -0.18009270970454502
0.3405544180676641 0.4472571086085313 -0.18009270970454502
-0.09241175163645167 0.3648714137959297 -0.18009270970454502
0.35343866267239726 0.5180039760626152 -0.18009270970454502
0.25451311004314947 0.519885541686394 -0.18009270970454502
0.3122950943657669 0.5399645348430051 -0.18009270970454502
-0.06882050264878668 0.3906757423506107 -0.18009270970454502
0.2829874698163357 0.5441129390516224 -0.1796447178893596
-0.05206560876085136 0.48315021284118836 -0.1789279309850629
0.7135703230636652 0.37145689347915556 -0.17830074244380328
0.3906757423506107 0.4291671991113434 -0.17830074244380328
0.34410251324393276 0.27642886964202107 -0.17830074244380328
0.17296068000679277 0.21120126135102166 -0.17830074244380328
0.05405469242027451 0.23623504398358378 -0.17830074244380328
0.17534399646357934 0.19461660435285685 -0.17830074244380328
0.1628181453109946 0.5108450668559518 -0.17830074244380328
0.3941252793275385 0.20750980879389364 -0.17830074244380328
0.20755460797541211 0.38647357912417135 -0.17713596372432117
-0.14647540389303007 0.3392731614762339 -0.17713596372432117
0.7094667180365666 0.3802554527293975 -0.17650877518306154
0.3438157984822141 0.28414328869951416 -0.17650877518306154
0.395092941648339 0.42224124564857657 -0.17650877518306154
0.1924662436399667 0.4510919185465186 -0.17650877518306154
0.19029796325446913 0.27183247361821844 -0.17650877518306154
0.18701866316731175 0.43533156648829496 -0.17650877518306154
0.033868181228018795 0.25255986572894107 -0.17650877518306154
0.38842682343837975 0.519580907252068 -0.17650877518306154
0.17214533490315534 0.46262322786939164 -0.1753439964635794
0.00693491329907042 0.2330632619320709 -0.1753439964635794
0.4261477342769935 0.3053243417214816 -0.17471680792231978
0.32689962754081214 0.27540744830339825 -0.17471680792231978
-0.08088044231357851 0.3858911897644303 -0.17471680792231978
0.41087121337917004 0.5150741095913024 -0.17471680792231978
0.22509796745807376 0.5382980052905155 -0.17471680792231978
0.3623626596308912 0.5240787450765296 -0.17471680792231978
0.16448467486348436 0.21006336214045057 -0.17471680792231978
0.43176555163941893 0.39685802940016984 -0.17355202920283766
0.04233522653502359 0.5162836874923032 -0.17355202920283766
0.6879272715624507 0.34998016585916586 -0.17292484066157804
0.34369036077396226 0.4366486624249401 -0.17292484066157804
0.5474907973381206 0.4312548409701075 -0.17292484066157804
0.15490660985481972 0.2666088890531563 -0.17292484066157804
0.23376212916376007 0.18989477062080237 -0.17292484066157804
0.2717607949277887 0.18407087702339164 -0.17292484066157804
0.15023853514058746 0.45516864406470603 -0.17292484066157804
-0.08654305885752246 0.37586513294058027 -0.17292484066157804
0.26655513003533404 0.4336739967721088 -0.17176006194209592
0.24011465310308958 0.17972535641609294 -0.17176006194209592
0.5416131447228876 0.4170087012472107 -0.17113287340083633
0.3905951038238772 0.28180477142424626 -0.17113287340083633
-0.0837744694396765 0.3399361893627083 -0.17113287340083633
0.2672091980855047 0.5412905906159542 -0.17113287340083633
0.1065503733237039 0.51668688012597 -0.17113287340083633
0.15243369503499615 0.5082019151463578 -0.17113287340083633
-0.07383801097886358 0.33286687851908214 -0.17113287340083633
0.43176555163941893 0.46908326984436566 -0.16996809468135418
0.12494491725521786 0.18812968286897172 -0.16996809468135418
0.4276977859575351 0.30512722532280007 -0.1693409061400946
0.3715644115148001 0.43040365652125523 -0.1693409061400946
0.1928783961099372 0.27290765397466354 -0.1693409061400946
0.29663330050688413 0.20377355705524708 -0.1693409061400946
0.16176088462715688 0.2206986878329529 -0.1693409061400946
0.15377767048055252 0.21375481469757862 -0.1693409061400946
0.16203863955257192 0.4478126184593612 -0.1693409061400946
0.21309178681110405 0.45728316543238134 -0.16817612742061247
0.12000804745187435 0.19766294869611784 -0.16817612742061247
0.5522753499243009 0.3039714064396216 -0.16754893887935285
0.3970909851440662 0.43381735415296824 -0.16754893887935285
0.1821624318907016 0.4493178709583842 -0.16754893887935285
0.19086243294160282 0.4565305391828698 -0.16754893887935285
0.2143640835662308 0.5174305465391779 -0.16754893887935285
0.15142123353267709 0.21696243609430638 -0.16754893887935285
-0.07466231591880478 0.330841955514444 -0.16754893887935285
0.12494491725521786 0.5300191165458886 -0.1663841601598707
0.18248498599763516 0.2633743881475174 -0.1663841601598707
0.38994999561001026 0.44053723138074974 -0.16575697161861108
0.3433230074855102 0.2756583237199021 -0.16575697161861108
0.27625863275225054 0.5270713304019683 -0.16575697161861108
0.3505625552189068 0.5183175703332449 -0.16575697161861108
0.16213719775191265 0.5323934731663713 -0.16575697161861108
-0.04427951101292849 0.2999305202666489 -0.16575697161861108
0.22275945018280582 0.546334978454942 -0.16530897980342568
0.07774449960728039 0.5280837919042874 -0.16459219289912896
0.6910273749235339 0.35337594381827137 -0.16396500435786934
0.37374165173660123 0.43344104102821246 -0.16396500435786934
0.33293855720951177 0.4424546363497434 -0.16396500435786934
0.1873053779290304 0.5298578394924218 -0.16396500435786934
-0.009318229755857112 0.4608402204449536 -0.16396500435786934
-0.1108421349131805 0.3583486529668298 -0.16396500435786934
0.14412792678145825 0.4998871870565162 -0.16396500435786934
0.21103998429755477 0.2920727438282964 -0.16280022563838722
-0.1818757171289831 0.35107326588821836 -0.16280022563838722
0.41965185295680474 0.4149837782425725 -0.1621730370971276
0.39584556789785064 0.4301259015958402 -0.1621730370971276
0.17788858997383267 0.27573000241033174 -0.1621730370971276
0.31986615604240076 0.19383709859443418 -0.1621730370971276
0.20203534881232757 0.2082624350434052 -0.1621730370971276
0.17984183428804107 0.19932051841230386 -0.1621730370971276
0.311739584514937 0.5307448632864888 -0.1621730370971276
-0.0874659219968044 0.46908326984436566 -0.16100825837764549
0.6875061592561764 0.3619057079794021 -0.16038106983638586
0.3306089997705475 0.27880322626250387 -0.16038106983638586
0.4213452620182056 0.30459859498088115 -0.16038106983638586
-0.10121927072299737 0.37343701730227524 -0.16038106983638586
-0.01918300952624039 0.2696821129053284 -0.16038106983638586
0.18746665498249718 0.18804904434223835 -0.16038106983638586
0.19631897325056136 0.4501421758983254 -0.16038106983638586
0.39636523840346566 0.45728316543238134 -0.15921629111690375
0.00693491329907042 0.2330632619320709 -0.15921629111690375
0.33968531394620444 0.4443989208276482 -0.15858910257564415
0.3990263097856671 0.29290600860454136 -0.15858910257564415
0.28356089933977313 0.5372049052614629 -0.15858910257564415
0.09317333772226673 0.5127355923160345 -0.15858910257564415
-0.1077957905699195 0.377997573980863 -0.15858910257564415
-0.0051787853835436595 0.26704792103203806 -0.15858910257564415
0.19057571817988417 0.4100737879481401 -0.15742432385616198
-0.07566581758482009 0.28026367958000836 -0.15742432385616198
0.12567962383212192 0.5193569113444753 -0.15679713531490239
-0.03368002466564103 0.4473735864804794 -0.15679713531490239
-0.021978478452997486 0.26556058820562234 -0.15679713531490239
0.24598334588201878 0.5317662846251117 -0.15679713531490239
0.42655092691066027 0.31302084110636746 -0.15679713531490239
0.5529383778107753 0.2945008594666015 -0.15679713531490239
0.21200764661835536 0.26846357516802394 -0.15563235659542024
-0.14647540389303007 0.3392731614762339 -0.15563235659542024
0.16545233718428493 0.5286303419188138 -0.15500516805416065
-0.07243131667918122 0.4150644167693059 -0.15500516805416065
0.05458332276219343 0.22292968707257635 -0.15500516805416065
0.05429660800047466 0.49198461143664507 -0.15500516805416065
0.42253692024659895 0.3141229009717235 -0.15500516805416065
0.37196760414846686 0.295038449644824 -0.15500516805416065
0.3486541100862169 0.26846357516802394 -0.1538403893346785
-0.0874659219968044 0.4336739967721088 -0.1538403893346785
0.2525240263837262 0.5401526914053831 -0.1532132007934189
0.0387154526683253 0.4924953221059566 -0.1532132007934189
0.10379074374216156 0.20433802674238075 -0.1532132007934189
0.25597356336065397 0.5369361101723517 -0.1532132007934189
0.426317971166764 0.3135046722667676 -0.1532132007934189
0.5483599014595801 0.29293288811345247 -0.1532132007934189
0.190118766528395 0.38647357912417135 -0.1520484220739368
0.04233522653502359 0.22059116979730842 -0.1520484220739368
-0.07738610615513211 0.3180383494364442 -0.15142123353267717
0.15336551801058185 0.19495707813239777 -0.15142123353267717
0.1509194826996694 0.21592309508307617 -0.15142123353267717
-0.09370196806418576 0.3405454582313605 -0.15142123353267717
0.5489422908193212 0.42570870229811186 -0.15142123353267717
0.32262578562394306 0.4303050983219143 -0.15142123353267717
0.37276502957949703 0.48088337425634997 -0.15025645481319505
0.19307551250861885 0.17406273987214912 -0.15025645481319505
0.14555254075374785 0.2740186736763234 -0.14962926627193543
0.18670506889668198 0.46058934502844984 -0.14962926627193543
-0.05179681367174009 0.30105945964091624 -0.14962926627193543
0.5434678308377553 0.3141229009717235 -0.14962926627193543
0.39627564004042864 0.29474277504680163 -0.14962926627193543
0.43176555163941893 0.39685802940016984 -0.14846448755245328
-0.1818757171289831 0.3628733703002026 -0.14846448755245328
0.18931238126106117 0.5337016092667128 -0.14783729901119366
-0.03814202314488801 0.4486548430719098 -0.14783729901119366
0.15738848451094703 0.18986789111189123 -0.14783729901119366
-0.10820794303989016 0.3552664692783539 -0.14783729901119366
0.5542733934200279 0.42312826944264365 -0.14783729901119366
0.3438605976637328 0.45043785049634777 -0.14783729901119366
0.3473190944769643 0.4591647310561601 -0.14667252029171154
0.12494491725521786 0.18812968286897172 -0.14667252029171154
0.13535624704012744 0.2688757276379946 -0.14604533175045192
0.1856926073943629 0.4575340408488851 -0.14604533175045192
0.19483164042414575 0.4463969643233752 -0.14604533175045192
0.1785157785150922 0.19595161996210947 -0.14604533175045192
0.3399093098537972 0.437051855058607 -0.14604533175045192
0.4184691545647151 0.42401529323671083 -0.14604533175045192
0.018735017711054854 0.5280837919042874 -0.1448805530309698
0.17718972274214337 0.4379299190163704 -0.14425336448971018
0.181938435983109 0.43871838461109686 -0.14425336448971018
0.25332145181475624 0.5351531027479137 -0.14425336448971018
0.13297293058334086 0.5101103602790478 -0.14425336448971018
0.22435430104486595 0.1919555329706554 -0.14425336448971018
0.331056991585733 0.27846275248296287 -0.14425336448971018
0.5526247835401454 0.30453587612675526 -0.14425336448971018
0.13674502166720218 0.5398838963162719 -0.14308858577022807
0.13988992420980403 0.4521402193940524 -0.14246139722896847
0.19622041505122062 0.5457973882767195 -0.14246139722896847
-0.07868528241916996 0.3040162056211401 -0.14246139722896847
0.2261014691240892 0.538468242180286 -0.14246139722896847
0.42600437689613424 0.4116238396286817 -0.14246139722896847
0.39835432206288907 0.29131115774248123 -0.14246139722896847
0.1892227828980242 0.3628733703002026 -0.14129661850948633
-0.07566581758482009 0.29187562742961476 -0.14129661850948633
-0.02463058999889532 0.26886676780169083 -0.14066942996822673
0.16934090614009448 0.20478601855756615 -0.14066942996822673
0.09007323436118361 0.21572597868439453 -0.14066942996822673
0.42336122518654 0.30655183929508967 -0.14066942996822673
0.3434126058485472 0.28259323701897265 -0.14066942996822673
0.5533684499533533 0.3695394885101619 -0.14066942996822673
0.031780539369254755 0.5044835830803188 -0.13950465124874456
0.1816427613850866 0.4497837824461771 -0.13887746270748497
0.12149538027828996 0.5263545434976717 -0.13887746270748497
0.18731433776533415 0.18329137126496897 -0.13887746270748497
0.17343555133088945 0.3336195047685937 -0.13887746270748497
0.42600437689613424 0.4116238396286817 -0.13887746270748497
0.3946449498331538 0.44761550206067957 -0.13887746270748497
0.19033380259968402 0.3746734747121869 -0.13771268398800285
-0.09035994912290238 0.3038638884039771 -0.13771268398800285
-0.05015716362816146 0.2858635772698263 -0.13708549544674323
0.13080465019784332 0.26518427508086656 -0.13708549544674323
0.1350964117873198 0.451387593144541 -0.13708549544674323
0.11310897349801867 0.5115260144150339 -0.13708549544674323
0.5434678308377553 0.4116238396286817 -0.13708549544674323
0.3907653407136477 0.28460920018730707 -0.13708549544674323
0.5428137627875844 0.41976833082875287 -0.13708549544674323
0.4081653428154501 0.4440584470481073 -0.1359207167272611
0.182243070417435 0.2590378273765224 -0.1359207167272611
0.1997595503911855 0.28616821170415235 -0.1352935281860015
0.06308620741441298 0.5122069619741156 -0.1352935281860015
0.12085923190072666 0.5203693728467943 -0.1352935281860015
0.42425720881691087 0.3059604900990449 -0.1352935281860015
0.33867285244388534 0.2785971500275185 -0.1352935281860015
0.5533684499533533 0.30646224093205254 -0.1352935281860015
0.39636523840346566 0.4531347612237641 -0.13412874946651937
0.09016283272422061 0.19766294869611784 -0.13412874946651937
0.1877892090894307 0.274153071220879 -0.13350156092525975
0.182153472054398 0.5424822488443473 -0.13350156092525975
0.06953728955308323 0.5046090207885706 -0.13350156092525975
0.12436252789547682 0.4466747192487901 -0.13350156092525975
0.42561014409877096 0.29969756452275254 -0.13350156092525975
0.5582605205751784 0.42951663272718804 -0.13350156092525975
0.20755460797541211 0.38647357912417135 -0.13233678220577763
-0.1110750906570769 0.4477498996052352 -0.13233678220577763
0.19682072408356915 0.4535110743485199 -0.131709593664518
0.11850279495285135 0.46165556554859116 -0.131709593664518
-0.04980773001231681 0.45125319559998534 -0.131709593664518
0.0924207114727553 0.5018762707159397 -0.131709593664518
0.1200618064696966 0.20885378423944997 -0.131709593664518
0.5397315790991087 0.299285412052782 -0.131709593664518
0.5453404366252304 0.43385319349818297 -0.131709593664518
0.13061649363546543 0.5398838963162719 -0.13054481494503586
0.3137555476832714 0.2920727438282964 -0.13054481494503586
-0.06777220180125272 0.42859376958790596 -0.12991762640377624
-0.04709289961229297 0.4496404250653177 -0.12991762640377624
-0.06035345734178189 0.2818406107694611 -0.12991762640377624
0.11374512187558197 0.5110690627635446 -0.12991762640377624
0.12454172462155096 0.4462984061240345 -0.12991762640377624
0.41965185295680474 0.3107629623578328 -0.12991762640377624
0.5594611386398752 0.4214706997264576 -0.12991762640377624
0.5389072741591676 0.30357717364225845 -0.12991762640377624
0.26655513003533404 0.4336739967721088 -0.12875284768429412
0.00693491329907042 0.22353895594122852 -0.12875284768429412
0.34268685910794694 0.4375177665463999 -0.1281256591430345
0.4175014922439146 0.4168922233752624 -0.1281256591430345
0.18450990900227332 0.4447573142797965 -0.1281256591430345
0.11914790316671828 0.5140885275978946 -0.1281256591430345
0.10694460612106706 0.22683617570099326 -0.1281256591430345
0.08175850627134196 0.2261014691240892 -0.1281256591430345
0.1880042451607197 0.39827368353615566 -0.12696088042355239
0.1278120648724046 0.1858628442841334 -0.12696088042355239
0.42508151375685216 0.41984000951918266 -0.1263336918822928
0.32704298492167144 0.4341399082599016 -0.1263336918822928
0.40209953363783935 0.34362764191983636 -0.1263336918822928
0.18402607784187303 0.4580447515181965 -0.1263336918822928
0.06782596081907485 0.5086409471252397 -0.1263336918822928
0.19427613057331583 0.549291724435166 -0.1263336918822928
0.107715152043186 0.21244667859723715 -0.1263336918822928
0.3195794412806821 0.45728316543238134 -0.12516891316281065
-0.09927498624509258 0.305897771244919 -0.12516891316281065
0.42600437689613424 0.4116238396286817 -0.12454172462155105
0.5545601081817466 0.2980310349702628 -0.12454172462155105
0.54978451543187 0.4115969601197706 -0.12454172462155105
0.18375728275276174 0.437051855058607 -0.12454172462155105
0.0795723062132369 0.516991514560296 -0.12454172462155105
0.10211525435336806 0.2250800477854664 -0.12454172462155105
0.10625469872568151 0.21108478347907342 -0.12454172462155105
-0.1818757171289831 0.3760980886844767 -0.12337694590206892
0.4081653428154501 0.4440584470481073 -0.12337694590206892
0.33829653931912956 0.43746400752857767 -0.12274975736080931
0.39276338420937484 0.27734277294499926 -0.12274975736080931
0.18894502797260915 0.2716891162373591 -0.12274975736080931
0.12671896484335213 0.2783283549384072 -0.12274975736080931
0.12963987147836123 0.1943298895911381 -0.12274975736080931
0.12065315566574139 0.5205754490817796 -0.12274975736080931
-0.016665295524898316 0.4926834786683344 -0.12158497864132715
0.18394543931513962 0.25878695196001855 -0.12158497864132715
0.5356458937446177 0.4167040668128845 -0.12095779010006755
0.397001386781029 0.29435750208574213 -0.12095779010006755
0.3930500989710934 0.4268018023271643 -0.12095779010006755
0.13000722476681326 0.4566201375459068 -0.12095779010006755
-0.12834965505062726 0.36692321630947894 -0.12095779010006755
0.06619527061179985 0.5168212776705255 -0.12095779010006755
0.07614964874522026 0.22984668069903952 -0.12095779010006755
0.10032328709262629 0.49297915326635666 -0.11979301138058542
0.18739497629206753 0.32021558965824554 -0.11979301138058542
0.34561672557925965 0.2786419492090371 -0.11916582283932581
0.1201245253238226 0.27206542936211486 -0.11916582283932581
0.07525366511484931 0.22792031589374212 -0.11916582283932581
0.1742329767619195 0.18086325562666403 -0.11916582283932581
0.08128363494724529 0.21867376482831474 -0.11916582283932581
0.1029037199480945 0.4336739967721088 -0.11800104411984369
0.40116771066225354 0.27482505894365716 -0.11800104411984369
0.3717794475860891 0.2984790267854482 -0.11737385557858407
0.18187571712898298 0.39913382782131174 -0.11737385557858407
-0.08456293503440279 0.41920386114161934 -0.11737385557858407
0.14698611456234123 0.5393283864654418 -0.11737385557858407
0.18647211315278558 0.18641835413496333 -0.11737385557858407
0.00693491329907042 0.4986417698103006 -0.11620907685910195
0.1783455416253217 0.2605162003666343 -0.11620907685910195
0.3311555497850738 0.28798705847380524 -0.11558188831784234
0.17583678746028336 0.2747892195984423 -0.11558188831784234
0.18106933186164917 0.34255246156339125 -0.11558188831784234
-0.13381515519588955 0.36956636801907305 -0.11558188831784234
0.18649899266169673 0.5393642258106568 -0.11558188831784234
0.03876921168614756 0.266402812818171 -0.11558188831784234
0.080799803786845 0.4794139611025418 -0.11441710959836021
0.3708297049378959 0.4418095281358764 -0.1137899210571006
0.17418817758040087 0.3234232110549731 -0.1137899210571006
0.17719868257844698 0.3941252793275386 -0.1137899210571006
0.17057736355000633 0.5407619602740354 -0.1137899210571006
0.07559413889439034 0.21490167374445332 -0.1137899210571006
0.18938405995149082 0.5347319904416394 -0.1137899210571006
-0.09050330650376177 0.2920727438282964 -0.11262514233761844
0.37088346395571814 0.4418453674810911 -0.11199795379635884
0.17916984656526302 0.44367317408704776 -0.11199795379635884
0.18232370894416838 0.3405902574128791 -0.11199795379635884
-0.12617241482882607 0.34369036077396226 -0.11199795379635884
0.09578065008664606 0.5157281776414732 -0.11199795379635884
0.02593872609923667 0.2717428752551813 -0.11199795379635884
0.08954460401926481 0.17406273987214912 -0.11083317507687672
0.37664463869900283 0.44217688142432837 -0.1102059865356171
0.17757499570320276 0.3709999418276664 -0.1102059865356171
0.18833575910395697 0.27520137206841294 -0.1102059865356171
0.017086407831172472 0.494600883637328 -0.1102059865356171
0.07705459221189483 0.4994571149139382 -0.1102059865356171
0.057441510543076404 0.5008817288862277 -0.1102059865356171
-0.028268283538200982 0.2448633663440552 -0.10904120781613498
0.08954460401926481 0.48315021284118836 -0.10904120781613498
0.1742329767619195 0.32058294294669754 -0.10841401927487537
0.20234894308295734 0.264924439828059 -0.10841401927487537
0.03279300087157384 0.5021898649865694 -0.10841401927487537
0.04166323881224541 0.4798619529177271 -0.10841401927487537
0.01640546027209054 0.469101189516973 -0.10841401927487537
0.17748539734016575 0.2618243364669758 -0.10724924055539324
0.10676540939499292 0.18812968286897172 -0.10724924055539324
0.3818413437551539 0.3935608096404049 -0.10662205201413363
0.182243070417435 0.28822001421770177 -0.10662205201413363
0.17088199798433235 0.1839275196425324 -0.10662205201413363
-0.1411980603101455 0.36992476147122144 -0.10662205201413363
0.0031359427062979967 0.4521939784118747 -0.10662205201413363
-0.040265504348867054 0.23078746351092883 -0.10545727329465152
0.43176555163941893 0.4336739967721088 -0.10545727329465152
0.39868583600612634 0.2803622377793491 -0.1048300847533919
0.19179425591718852 0.3409396910287238 -0.1048300847533919
0.019496603796870036 0.2545758288972755 -0.1048300847533919
0.03623357801219798 0.21749106643622515 -0.1048300847533919
0.02954058029332758 0.23645903989117653 -0.1048300847533919
-0.1511703581161733 0.39827368353615566 -0.10366530603390975
0.40157090329592054 0.27452042450933106 -0.10366530603390975
0.39500334328530207 0.44464083640784835 -0.10303811749265013
0.19758231016938435 0.4486100438903913 -0.10303811749265013
0.05293471288231093 0.21803761645075134 -0.10303811749265013
0.06848002886924552 0.5208173646619796 -0.10303811749265013
-0.004300721425780215 0.4701942895460255 -0.10303811749265013
0.20755460797541211 0.45728316543238134 -0.10187333877316801
0.08954460401926481 0.17406273987214912 -0.10187333877316801
0.3711791385537405 0.44207832322498763 -0.1012461502319084
0.19424925106440472 0.27143824082085527 -0.1012461502319084
0.18259250403327965 0.5420700963743768 -0.1012461502319084
0.09914058870053682 0.21378169420648974 -0.1012461502319084
-0.023232855535516708 0.39671467201931043 -0.1012461502319084
-0.040265504348867054 0.22126315752008646 -0.10008137151242627
0.17687612847151357 0.26164513974090164 -0.10008137151242627
0.3755515386699504 0.29093484461772545 -0.09945418297116666
0.18288817863130205 0.45123527592737783 -0.09945418297116666
0.18848807632112 0.45186246446863754 -0.09945418297116666
0.1182608793726512 0.20836995307904968 -0.09945418297116666
-0.013135120021237038 0.4739036617757609 -0.09945418297116666
0.08954460401926481 0.5516840007282563 -0.09828940425168453
0.06594439519529607 0.28026367958000836 -0.09828940425168453
0.3316573006180814 0.28761074534904946 -0.09766221571042492
0.1743225751249565 0.27432330811064953 -0.09766221571042492
0.16033627065486727 0.5377156159307744 -0.09766221571042492
0.0811133980574749 0.21892464024481853 -0.09766221571042492
0.01932636690709965 0.4877286891923835 -0.09766221571042492
0.03666365015477602 0.5162836874923032 -0.0964974369909428
0.06594439519529607 0.35107326588821836 -0.0964974369909428
0.3745211574950239 0.2902897364038584 -0.09587024844968318
0.18157108269465683 0.4506976857491554 -0.09587024844968318
0.18401711800556939 0.44855628487256904 -0.09587024844968318
0.17096263651106575 0.18036150479365623 -0.09587024844968318
0.1041132978490951 0.5221255007623212 -0.09587024844968318
0.15749600254659155 0.19184801493501089 -0.09587024844968318
0.06594439519529607 0.4454830610203969 -0.09470546973020104
0.3391029245864634 0.4380732763972298 -0.09407828118894142
0.1764998153467578 0.4434222986705439 -0.09407828118894142
0.17374018576521547 0.3281808841322425 -0.09407828118894142
0.028277243374504605 0.5029962502539032 -0.09407828118894142
0.11835943757199197 0.20046737745917856 -0.09407828118894142
0.0994541829711666 0.5194017105259937 -0.09407828118894142
0.10867385452768283 0.4218738923601244 -0.0929135024694593
0.34595719935880054 0.43835999115894847 -0.09228631392819969
0.1814814843316198 0.4456980970916859 -0.09228631392819969
0.14424440465340638 0.275416408139702 -0.09228631392819969
-0.04909990294432375 0.4606431040462721 -0.09228631392819969
0.11892390725912563 0.2001537831885488 -0.09228631392819969
-0.10231237075204982 0.40811158379762796 -0.09228631392819969
0.06594439519529607 0.2920727438282964 -0.09112153520871756
-0.05206560876085136 0.2330632619320709 -0.09112153520871756
0.19334430759773014 0.454586254704965 -0.09049434666745795
0.18339888930061346 0.32706090459427895 -0.09049434666745795
0.023743566204827996 0.24086727935260113 -0.09049434666745795
-0.07919599308848138 0.4428488691471066 -0.09049434666745795
-0.04545324956871434 0.28951023064543574 -0.09049434666745795
-0.11410351532773051 0.4200012865726494 -0.08932956794797584
0.1083692200933568 0.4100737879481401 -0.08932956794797584
0.37131353609829615 0.43732065014771826 -0.08870237940671621
0.18613163937324456 0.44498131018738923 -0.08870237940671621
0.17305923820613364 0.19351454448750063 -0.08870237940671621
-0.01498084629980106 0.4824155062642843 -0.08870237940671621
0.16372308877766917 0.20180239306843117 -0.08870237940671621
-0.05312286944468894 0.3922347538674561 -0.08870237940671621
-0.1818757171289831 0.3392731614762339 -0.0875376006872341
0.06594439519529607 0.3746734747121869 -0.0875376006872341
-0.14126077916427152 0.3691721352217099 -0.08691041214597449
0.12613657548361107 0.20518025135492945 -0.08691041214597449
0.17843513998835883 0.548243423587632 -0.08691041214597449
-0.029576419638542458 0.46120757373340565 -0.08691041214597449
0.18046902282930075 0.30803917212150533 -0.08691041214597449
0.345204573109289 0.45498048750232817 -0.08691041214597449
-0.10230341091574607 0.28026367958000836 -0.08574563342649233
0.19574554372712408 0.35107326588821836 -0.08574563342649233
0.08954460401926481 0.45728316543238134 -0.08574563342649233
0.1802091875764932 0.3145440132779978 -0.08511844488523272
0.1987829282340813 0.28793329945598295 -0.08511844488523272
0.1489841580580684 0.18966181487690598 -0.08511844488523272
0.05561370393711989 0.49582838121093614 -0.08511844488523272
-0.04784552586180452 0.27642886964202107 -0.08511844488523272
-0.12105634829940842 0.3117485443512407 -0.08467045307004731
-0.11544749077328674 0.2920727438282964 -0.08395366616575059
0.43176555163941893 0.26846357516802394 -0.08395366616575059
0.3282525628226722 0.2906929290375253 -0.08332647762449098
0.18009270970454497 0.4153690512036319 -0.08332647762449098
0.05332894567967421 0.5106837898024853 -0.08332647762449098
0.09715150504111342 0.19747479213373995 -0.08332647762449098
0.06301452872398322 0.2146149589827347 -0.08332647762449098
0.08954460401926481 0.45728316543238134 -0.08287848580930554
0.06594439519529607 0.39827368353615566 -0.08287848580930554
-0.08301288335386117 0.26846357516802394 -0.08287848580930554
0.3468263034802602 0.27437706712847176 -0.08153451036374924
0.11346736695016695 0.27107088753240327 -0.08153451036374924
-0.0819556226700236 0.2898238249160655 -0.08153451036374924
-0.05297055222752593 0.2950474094811278 -0.08153451036374924
-0.14275707182699088 0.36265833422891364 -0.08153451036374924
-0.05572122197276452 0.2824230001292022 -0.08153451036374924
0.3207710995090753 0.26846357516802394 -0.0810865185485638
-0.14647540389303007 0.3392731614762339 -0.0810865185485638
0.345267291963415 0.27253134084990777 -0.07974254310300752
0.1785605776966107 0.32316337580216564 -0.07974254310300752
-0.10357570767087268 0.4156916053105654 -0.07974254310300752
0.13108240512325833 0.2070797366513156 -0.07974254310300752
-0.051725134981310456 0.2775130098347698 -0.07974254310300752
-0.07156221255772152 0.4350448517265763 -0.07974254310300752
0.20755460797541211 0.4454830610203969 -0.07929455128782208
-0.07838064798484382 0.45728316543238134 -0.07929455128782208
0.3716181705326223 0.2881931347087906 -0.07795057584226578
0.17744955799495088 0.4452859446217153 -0.07795057584226578
0.01718496603051323 0.2380180514080218 -0.07795057584226578
0.14046335373324134 0.5383338446357302 -0.07795057584226578
-0.13663750363155777 0.3350978777587057 -0.07795057584226578
-0.08080876362314887 0.28812145601836087 -0.07795057584226578
0.3233694520371509 0.4617451639116282 -0.07750258402708034
-0.1818757171289831 0.38647357912417135 -0.07750258402708034
0.3296323776134433 0.27384843678655285 -0.07615860858152401
0.17443905299690476 0.2891070380117688 -0.07615860858152401
-0.05555994491929776 0.4438344511405145 -0.07615860858152401
-0.09890763295664043 0.4310398048988185 -0.07615860858152401
-0.08967004172751683 0.28224380340312805 -0.07615860858152401
-0.08553059735520338 0.43439078367640555 -0.07615860858152401
0.43176555163941893 0.26846357516802394 -0.07535222331419023
-0.1110750906570769 0.26846357516802394 -0.07535222331419023
0.3827552470581322 0.3330998342629787 -0.07436664132078227
0.17428673577974174 0.4223935628657396 -0.07436664132078227
-0.14288250953524279 0.37295318614187495 -0.07436664132078227
0.14428920383492502 0.18160692203987183 -0.07436664132078227
0.0655680820705403 0.22502628876764413 -0.07436664132078227
-0.10394306095932483 0.33771414995938853 -0.07436664132078227
0.1746092898866753 0.2609373126729087 -0.07320186260130015
0.08954460401926481 0.17406273987214912 -0.07320186260130015
-0.055389708029527245 0.4360393935562879 -0.07257467406004053
-0.12170145651327548 0.37143897380654817 -0.07257467406004053
0.012024100319577074 0.24390466385955836 -0.07257467406004053
0.17114183323714 0.4398025248038456 -0.07257467406004053
0.12248096227169791 0.4082549411784872 -0.07257467406004053
0.13157519611996227 0.5463797776364606 -0.07140989534055842
-5.196705056151671E-4 0.2227504903465022 -0.07140989534055842
0.26655513003533404 0.4440584470481073 -0.07140989534055842
0.1155729284815385 0.5256556762659825 -0.07078270679929881
-0.10036808627414505 0.40545051241542635 -0.07078270679929881
0.161420410847616 0.17718076290583973 -0.07078270679929881
0.18296881715803542 0.31592382806876906 -0.07078270679929881
0.34115472710001266 0.4470062331920274 -0.07078270679929881
-0.10746427662668236 0.43187306967506334 -0.06961792807981668
0.029253865531608806 0.20946305310810215 -0.06961792807981668
0.37276502957949703 0.48088337425634997 -0.06961792807981668
0.06360587792002802 0.5105404324216258 -0.06899073953855707
-0.12239136390866104 0.3432154894498657 -0.06899073953855707
0.006397323120848004 0.25007799107281375 -0.06899073953855707
0.17815738506294382 0.3741090050250534 -0.06899073953855707
0.37639376328249896 0.43547492386915426 -0.06899073953855707
0.40550427143324863 0.38647357912417135 -0.06782596081907491
-0.09308373935922985 0.4393007739708379 -0.06782596081907491
-0.12902164277340544 0.31421249933476064 -0.06782596081907491
-0.011943461792843819 0.49140222207690404 -0.0671987722778153
-0.11167539968942544 0.4038735812259736 -0.0671987722778153
-0.028178685175163976 0.2654172308247631 -0.0671987722778153
0.17914296705635188 0.45145031199866686 -0.0671987722778153
0.3332252719712304 0.27683206227568796 -0.0671987722778153
0.19400733548420457 0.34670086577200837 -0.06603399355833318
-0.0017740475881343912 0.2227504903465022 -0.06603399355833318
-0.08764511872287867 0.4135950036154976 -0.06603399355833318
0.03996086991454078 0.5112482594896188 -0.06540680501707356
-0.14381433251082848 0.3858105512376969 -0.06540680501707356
0.12774038618197495 0.19983122908161527 -0.06540680501707356
0.17464512923189002 0.310234332015914 -0.06540680501707356
0.18846119681220888 0.4213452620182056 -0.06540680501707356
0.3725051943266894 0.4297675081436918 -0.06540680501707356
0.12083235239181553 0.5444175734859484 -0.06424202629759145
-0.07838064798484382 0.29288808893193385 -0.06424202629759145
-0.06540680501707366 0.45085000296631844 -0.06361483775633184
-0.11879846955087375 0.41008274778444387 -0.06361483775633184
-0.1273013542030934 0.34499849687430373 -0.06361483775633184
0.07222524044419583 0.2219082657339535 -0.06361483775633184
0.1824312269798129 0.37228119841909674 -0.06361483775633184
0.3750945870184612 0.4366307427523327 -0.06361483775633184
-0.1110750906570769 0.28026367958000836 -0.062450059036849706
0.12083235239181553 0.5516840007282563 -0.062450059036849706
0.26655513003533404 0.4558585514600916 -0.062450059036849706
0.06171535245994549 0.5124309578817084 -0.0618228704955901
-0.1327399748394446 0.37012187786990297 -0.0618228704955901
-0.03044552376000228 0.25532845514678704 -0.0618228704955901
0.1935503838327154 0.4415048937015502 -0.0618228704955901
0.32885287185502055 0.2902359773860361 -0.0618228704955901
-0.13467529948104562 0.3186028191235779 -0.060658091776107974
0.10134470843124913 0.2330632619320709 -0.060658091776107974
-0.06631174848374824 0.4506528865676368 -0.06003090323484836
-0.1286094903034349 0.34999808553177325 -0.06003090323484836
0.1548618106733012 0.1810334925164344 -0.06003090323484836
0.18205491385505712 0.44600273152601205 -0.06003090323484836
0.17199301768599232 0.3150995231288279 -0.06003090323484836
0.3719317648032521 0.433638157426894 -0.06003090323484836
-0.13467529948104562 0.31567295265226514 -0.05886612451536621
0.10578878723788859 0.28026367958000836 -0.05886612451536621
-0.026001444953362676 0.46667307387866797 -0.05823893597410659
-0.12120866551657145 0.41441930855543885 -0.05823893597410659
0.0029209066350089795 0.22606562977887434 -0.05823893597410659
0.18163380154878284 0.2663490538003488 -0.05823893597410659
0.1214595409330752 0.39473454819619075 -0.05823893597410659
0.32524205782462606 0.43227626230873023 -0.05823893597410659
0.3137555476832714 0.28026367958000836 -0.057074157254624475
-0.1341377093028231 0.4111848076497999 -0.057074157254624475
0.0871523277261745 0.5272326074554351 -0.05644696871336486
-0.1434559390586802 0.33628953598709893 -0.05644696871336486
-0.05876756631602551 0.28897264046721316 -0.05644696871336486
0.1796357580530558 0.40999314942140674 -0.05644696871336486
0.13059857396285807 0.34907522239249117 -0.05644696871336486
0.3769582329696326 0.29717985052141044 -0.05644696871336486
-0.09422163856980081 0.31567295265226514 -0.055282189993882735
-0.016665295524898316 0.5162836874923032 -0.055282189993882735
-0.02597456544445155 0.47715608235400714 -0.05465500145262313
-0.15668065744295423 0.36254185635696534 -0.05465500145262313
-0.06828291247056414 0.27529993026775373 -0.05465500145262313
0.17808570637251417 0.45178182594190414 -0.05465500145262313
0.1690631512146796 0.28212732553117975 -0.05465500145262313
0.34161167875150183 0.4473467069715683 -0.05465500145262313
-0.06474377713059924 0.4309950057172999 -0.05349022273314097
0.06594439519529607 0.4218738923601244 -0.05349022273314097
0.06594439519529607 0.45728316543238134 -0.05349022273314097
-0.1199901277792671 0.31857593961466674 -0.05286303419188136
0.12286623523275744 0.20410507099848435 -0.05286303419188136
0.17031752829719868 0.4180032430769224 -0.05286303419188136
0.12081443271920815 0.2937123938718752 -0.05286303419188136
0.37823052972475935 0.4433954191616327 -0.05286303419188136
-0.0979489304721436 0.4100737879481401 -0.051698255472399264
0.10518847820554017 0.2920727438282964 -0.051698255472399264
0.19574554372712408 0.3274730570642496 -0.051698255472399264
0.0674765272032302 0.512995427568842 -0.05107106693113966
-0.049171581634753506 0.2726388588855523 -0.05107106693113966
0.172862121807452 0.318997051920941 -0.05107106693113966
0.17578302844246113 0.42259963910072484 -0.05107106693113966
0.3410382492280644 0.27681414260308046 -0.05107106693113966
-0.1818757171289831 0.3628733703002026 -0.0499062882116575
0.06986880349632038 0.1858628442841334 -0.0499062882116575
0.3137555476832714 0.4454830610203969 -0.0499062882116575
0.013036561821896154 0.4940274541138907 -0.04927909967039789
0.09197271965756976 0.19247520347627045 -0.04927909967039789
0.11439918992575265 0.2682664587693424 -0.04927909967039789
0.1870903418577414 0.37195864431216324 -0.04927909967039789
0.06986880349632038 0.1858628442841334 -0.048831107855212476
-0.14647540389303007 0.3287811931645909 -0.0481143209509158
0.20755460797541211 0.4336739967721088 -0.0481143209509158
-0.016163544691890526 0.4658308492661194 -0.047487132409656185
0.08927580893015355 0.19615769619709472 -0.047487132409656185
0.13705861593783206 0.27773700574236254 -0.047487132409656185
0.17557695220747574 0.3712776967530814 -0.047487132409656185
0.4004598835942605 0.28032639843413437 -0.047487132409656185
-0.09927498624509258 0.3179397912371035 -0.04632235369017403
0.4081653428154501 0.3038728482402809 -0.04632235369017403
-0.05772822530479531 0.4433864593253291 -0.04569516514891442
-0.13108240512325847 0.31977655767936375 -0.04569516514891442
-0.056536567076401964 0.25815080358245523 -0.04569516514891442
0.12748055092916744 0.2864997256473896 -0.04569516514891442
0.38068552487197554 0.4303050983219143 -0.04569516514891442
-0.046313393853870406 0.2448633663440552 -0.044530386429432266
0.104579209336888 0.35107326588821836 -0.044530386429432266
0.13822339465731415 0.538217366763782 -0.04390319788817265
-0.025876007245110792 0.4716099436820115 -0.04390319788817265
0.07349753719932242 0.19714327819050267 -0.04390319788817265
0.13587591754574246 0.4541651423986906 -0.04390319788817265
0.18695594431318588 0.3625060170117506 -0.04390319788817265
0.05597209738926829 0.1858628442841334 -0.043455206072987244
0.06523656812730302 0.5360132470330699 -0.04273841916869056
0.19574554372712408 0.3274730570642496 -0.04273841916869056
-0.013251597893185299 0.46791849112488354 -0.04211123062743095
0.042908656058460885 0.21597685410089842 -0.04211123062743095
0.1357952790190091 0.2780774795219034 -0.04211123062743095
0.170926797165851 0.4064271345725307 -0.04211123062743095
0.06523656812730302 0.1858628442841334 -0.04166323881224548
-0.0874659219968044 0.4676586558720759 -0.040946451907948794
0.4110056109237258 0.389313847232447 -0.040946451907948794
0.1147665432142048 0.5236397130976481 -0.04031926336668918
-0.1378112421873436 0.36359911704080305 -0.04031926336668918
-0.07273595111350736 0.2673435956300603 -0.04031926336668918
0.1129028972630334 0.2638223799627028 -0.04031926336668918
0.372487274654082 0.291687470867237 -0.04031926336668918
0.030535122123039157 0.5187566023121267 -0.03915448464720709
0.07582709463828673 0.4454830610203969 -0.03915448464720709
0.11311793333432242 0.53458863306078 -0.038527296105947476
-0.14161917261641993 0.36107244320315723 -0.038527296105947476
0.05190433170738447 0.20064657418525284 -0.038527296105947476
0.11128116689206202 0.26464668490264415 -0.038527296105947476
0.3476864477654163 0.28122238206450517 -0.038527296105947476
0.04207539128221607 0.5280837919042874 -0.038079304290762006
0.1041312175217026 0.3746734747121869 -0.038079304290762006
0.40807574445241307 0.39827368353615566 -0.038079304290762006
-0.12137890240634196 0.4097781133501177 -0.03673532884520571
0.12707735829550051 0.18528941476069613 -0.03673532884520571
0.1784888990061811 0.26816790057000167 -0.03673532884520571
0.37585617310427655 0.43720417227577013 -0.03673532884520571
-0.07566581758482009 0.4100737879481401 -0.0362873370300203
0.10397890030453945 0.3746734747121869 -0.0362873370300203
0.19574554372712408 0.3355458695738911 -0.0362873370300203
