0.5021476836824855 -0.09445147971704745 -0.14228048884828787
0.3920112028748028 -0.09826459681818167 -0.14228048884828787
0.2063294737082333 0.015491499625801472 -0.14228048884828787
0.017096423540010383 0.007728676154238861 -0.14228048884828787
-0.13184279218637748 0.06612058877757633 -0.14228048884828787
-0.1478465015720328 -0.12736949361698746 -0.14228048884828787
0.8858041762521169 0.04320773885344798 -0.14080077176426567
0.5628160841273955 -0.09459945142544975 -0.14080077176426567
0.21780297232895918 -0.07960877912039405 -0.14080077176426567
0.3855801247788602 0.03547906269920896 -0.14080077176426567
0.8316806782942282 0.013841045955161379 -0.14000400102671526
0.5852622540481015 -0.18951761114591956 -0.14000400102671526
0.8675581263622124 -0.029264250946315993 -0.14000400102671526
0.6758778517857988 -0.1899159965146947 -0.14000400102671526
0.5770327505731163 -0.20276677026747214 -0.14000400102671526
0.6889562743207335 0.10256715880095374 -0.14000400102671526
0.4864740650309582 0.017756605008266195 -0.14000400102671526
0.49935898610105917 0.024768187498709817 -0.14000400102671526
0.4921652845848897 0.01121170252124508 -0.14000400102671526
-0.1745724685972952 -0.023402294805766527 -0.14000400102671526
0.6083003108024162 -0.2073425107888331 -0.13943487907132213
0.9007948485571726 -0.019646089900171745 -0.1385242839426931
0.6515763442905114 -0.049627434510282814 -0.1385242839426931
0.09463359874277333 -0.019646089900171745 -0.1385242839426931
-0.15433449186351483 0.05531865406421433 -0.1385242839426931
0.8075840547028823 0.0410678403011697 -0.13772751320514268
0.5890639887101278 -0.1902916170052542 -0.13772751320514268
0.8685370161254887 -0.02785282849694087 -0.13772751320514268
0.6709037258956629 -0.19237460336199322 -0.13772751320514268
0.5015330319706609 -0.1738781398117158 -0.13772751320514268
0.693338513377261 0.09069527481145252 -0.13772751320514268
0.48484637623853377 -0.08784966503448692 -0.13772751320514268
0.5501815767176677 -0.1119349061867251 -0.13772751320514268
0.507019367620651 -0.07157277711024287 -0.13772751320514268
-0.1760521856813175 -0.022833172850373246 -0.13772751320514268
0.6024155897836511 0.14526268789454802 -0.13715839124974952
-0.16359979729731525 0.02532592701499518 -0.13624779612112045
0.10801934713362028 -0.021410367961890366 -0.13624779612112045
0.34344233520155126 -0.09381406312700716 -0.13624779612112045
0.2728143005372612 0.023003909436991037 -0.13624779612112045
0.03739131246933018 0.02458606847298411 -0.13624779612112045
0.390838811646693 -0.10611847980260714 -0.13624779612112045
0.6363352583250829 -0.10959012373050528 -0.13624779612112045
0.7238548326254416 0.11528134328443662 -0.13624779612112045
0.74559529132146 0.08651791965886689 -0.13545102538357007
0.6583602779987978 -0.11270891204605976 -0.13545102538357007
0.662173395099932 -0.1056176524818612 -0.13545102538357007
0.6688548868562475 0.10409240564140738 -0.13545102538357007
0.6389532193198912 0.12947524485194198 -0.13545102538357007
0.6917791192194838 -0.1734228422474012 -0.13545102538357007
0.5404040615240132 -0.10623230419368582 -0.13545102538357007
0.5053006193153636 -0.0985036280394468 -0.13545102538357007
0.37687255886134496 -0.028467480208765498 -0.13545102538357007
-0.1412219220112566 0.07087844832466299 -0.13545102538357007
-0.13349324585701758 -0.1251157706736305 -0.13545102538357007
0.26473276877067853 0.02532592701499518 -0.13397130829954787
0.1433276732462113 -0.021410367961890366 -0.13397130829954787
0.3610964982578469 0.024574686033876192 -0.13397130829954787
0.09701252851631674 -0.09248231775138714 -0.13397130829954787
-0.14903027523925055 -0.11814971793961838 -0.13397130829954787
0.6159606923220081 -0.21441100547481598 -0.13397130829954787
0.6909140538472862 0.14526268789454802 -0.13397130829954787
0.7943462780204374 0.05506824040384128 -0.13317453756199746
0.6802487084032185 -0.180923869619483 -0.13317453756199746
0.6793267308354817 0.04933149109347826 -0.13317453756199746
0.6004464278179907 0.13217288292050547 -0.13317453756199746
0.8159842947644852 0.048420895964849234 -0.13317453756199746
0.7874485199210726 -0.12008473258795511 -0.13317453756199746
0.4793372757103281 -0.08168038303802513 -0.13317453756199746
0.384601235015584 -0.034613997327011606 -0.13317453756199746
0.5540629884534487 -0.11948146331523825 -0.13317453756199746
-0.13098910925328772 0.06352539266098345 -0.13317453756199746
-0.13098910925328772 -0.13276476975411441 -0.13317453756199746
-0.14022026736976473 -0.11531549060176038 -0.13169482047797526
0.6909140538472862 0.14526268789454802 -0.13169482047797526
0.6677963200192164 -0.1413812761587668 -0.13169482047797526
-0.16359979729731525 0.07030932636926987 -0.13169482047797526
0.5582175787278189 0.12065385454334808 -0.13089804974042485
0.5973276395024363 -0.1921355721407281 -0.13089804974042485
0.7040493885777601 0.1112633422793612 -0.13089804974042485
0.7972601824320504 -0.1349843453801478 -0.13089804974042485
0.5505344323300112 -0.198122735111464 -0.13089804974042485
0.8539219643109927 -0.05651381017053999 -0.13089804974042485
0.49911995487979405 0.021046129910438627 -0.13089804974042485
0.3917607892144299 -0.09484986508582278 -0.13089804974042485
0.5054485910237658 0.04412971642118492 -0.13089804974042485
-0.1358835580696689 0.05419179259253585 -0.13089804974042485
0.6318391948774768 0.14526268789454802 -0.1303289277850317
0.9157855208622283 -0.04673629497688571 -0.12941833265640265
0.6694467736898563 0.07210775174831224 -0.12941833265640265
0.2669864917140353 -0.02253722943356885 -0.12941833265640265
0.7983870439037287 0.054487736009340246 -0.12862156191885224
0.6243381675053952 0.1232262857817251 -0.12862156191885224
0.5625429055888067 -0.19576657021613642 -0.12862156191885224
0.6881139738267519 -0.12302140187778372 -0.12862156191885224
0.6564821755460005 0.05337225697676968 -0.12862156191885224
0.8558683613984371 -0.055921923336931204 -0.12862156191885224
0.5098763598367247 0.02763656215389141 -0.12862156191885224
0.38627445356443996 -0.038916559309783834 -0.12862156191885224
0.5012257061147487 0.040658072493286616 -0.12862156191885224
-0.1318541746254854 0.058130116523856495 -0.12862156191885224
-0.14870018450512257 -0.13276476975411441 -0.12862156191885224
0.9007948485571726 -0.019646089900171745 -0.12714184483483004
0.6524755569800327 -0.004655417595116049 -0.12714184483483004
0.4810332591373997 -0.10959012373050528 -0.12714184483483004
0.8630165331581751 -0.015605324016880324 -0.12634507409727963
0.6092109059310451 -0.1977471146209045 -0.12634507409727963
0.69009451823152 0.09362056166217338 -0.12634507409727963
0.5634648831565439 0.1296459814385598 -0.12634507409727963
0.6833105845232337 0.12301001943867565 -0.12634507409727963
0.6926897143481127 -0.11055763105467373 -0.12634507409727963
0.5181627755072488 0.03544491538188537 -0.12634507409727963
0.38650210234659715 -0.02770485678853875 -0.12634507409727963
0.5193124018571429 0.02582675433574112 -0.12634507409727963
-0.1425878147042002 0.06575635072612458 -0.12634507409727963
0.6481616125581526 0.14223495909185624 -0.12577595214188647
0.9157855208622283 -0.09459945142544975 -0.12486535701325743
0.5624176987586202 0.02532592701499518 -0.12486535701325743
-0.12604913068047519 0.07030932636926987 -0.12486535701325743
0.6846992420943928 0.1129593257064328 -0.12406858627570704
0.676048588372417 0.11608949646109488 -0.12406858627570704
0.8732493459161439 -0.021592486987616236 -0.12406858627570704
0.7349868580729317 -0.17535785689573793 -0.12406858627570704
0.5767481895954201 -0.202197648312079 -0.12406858627570704
0.6996102373256934 0.05547800821172436 -0.12406858627570704
0.4886936406569914 0.01110926056927431 -0.12406858627570704
0.5040940807699301 -0.09795727096226935 -0.12406858627570704
0.48828387284910846 -0.0998581382932825 -0.12406858627570704
-0.13351601073523325 0.05585362870228386 -0.12406858627570704
0.8279130909495254 0.05531865406421433 -0.12258886919168482
0.6459420369321192 -0.07960877912039405 -0.12258886919168482
0.402380604902066 0.006192046874677454 -0.12258886919168482
0.8758559244718447 -0.03594574270263147 -0.12179209845413441
0.6376214739442714 -0.1989536531663381 -0.12179209845413441
0.6926214197134655 0.053121843316396626 -0.12179209845413441
0.5863322033242405 0.11657894134273307 -0.12179209845413441
0.6497893013505771 0.13167205559975936 -0.12179209845413441
0.869663877597167 -0.04071498468882621 -0.12179209845413441
0.5112650174078839 0.03246271633562525 -0.12179209845413441
0.38728749064503976 -0.0860057098990132 -0.12179209845413441
0.3778286837464055 -0.02632758165648722 -0.12179209845413441
-0.14390817764071231 0.07002476539157322 -0.12179209845413441
0.8108508147268387 0.11528134328443662 -0.12031238137011223
0.6382019783387726 -0.09862883486963324 -0.12031238137011223
0.42107056991717723 -0.019646089900171745 -0.12031238137011223
0.8666020014771518 -0.05454464820487967 -0.11951561063256182
0.6228243031040496 -0.1988853585316909 -0.11951561063256182
0.6671247561118525 0.11460977937707274 -0.11951561063256182
0.651109664287089 0.1277337316684387 -0.11951561063256182
0.749340113787947 0.10106467683871576 -0.11951561063256182
0.8354824129562546 0.013624779612111919 -0.11951561063256182
0.38646795502927356 -0.02632758165648722 -0.11951561063256182
0.4776185274050407 -0.09140098603614016 -0.11951561063256182
0.3832808720790719 -0.09826459681818167 -0.11951561063256182
-0.13928690736291988 0.05338363941587759 -0.11951561063256182
0.8458062852270861 0.04031659932005072 -0.11803589354853962
0.6459420369321192 -0.049627434510282814 -0.11803589354853962
0.42107056991717723 -0.004655417595116049 -0.11803589354853962
0.8239861494573126 0.038484026623684914 -0.1172391228109892
0.6871806138199071 -0.18439551354738115 -0.1172391228109892
0.8147891386581594 -0.12216771894469397 -0.1172391228109892
0.7060640802998518 -0.18883466479944774 -0.1172391228109892
0.7031160285709152 -0.17061137978775903 -0.1172391228109892
0.39531211021608315 -0.02632758165648722 -0.1172391228109892
0.3882094682127767 -0.08573253136042448 -0.1172391228109892
0.5144862476754093 -0.0944742445952633 -0.1172391228109892
0.10584530126401841 -0.03661730660999552 -0.1172391228109892
-0.14870018450512257 -0.12997607217268808 -0.1172391228109892
0.8408321593369501 -0.11597567207001651 -0.11575940572696701
0.511014603747511 0.053508846246064036 -0.11575940572696701
-0.14448868203521337 0.04674767741599346 -0.11575940572696701
0.67065331223529 -0.11408618717811128 -0.1149626349894166
0.6538869794294077 0.05181286281899244 -0.1149626349894166
0.659498521909584 0.048705456942545876 -0.1149626349894166
0.6883643874871247 0.10490055881806563 -0.1149626349894166
0.6984833758540151 -0.11319835692769793 -0.1149626349894166
0.5116064905811197 0.03411317000626551 -0.1149626349894166
0.5080551695794663 0.026839791416340915 -0.1149626349894166
0.3801620837635174 -0.03061876120015169 -0.1149626349894166
-0.06904587562829718 -0.04076051444525755 -0.1149626349894166
-0.1478465015720328 -0.12735811117787954 -0.1149626349894166
0.7808694701167277 -0.16667305585643838 -0.1134829179053944
0.402380604902066 -0.07547695372423976 -0.1134829179053944
-0.16359979729731525 -0.12458079603556096 -0.1134829179053944
0.6924848304441711 -0.18337109402767343 -0.112686147167844
0.6596692584962022 -0.11805865842675536 -0.112686147167844
0.6609668565544986 -0.10224845050593366 -0.112686147167844
0.6570968272578251 0.056456897975000565 -0.112686147167844
0.6736241288424423 0.017221630370196667 -0.112686147167844
0.47902994985441577 -0.08187388450285893 -0.112686147167844
0.38612648185603765 -0.08342189622152825 -0.112686147167844
0.5422707815377026 -0.11213979009066663 -0.112686147167844
0.4921652845848897 0.011200320082137163 -0.112686147167844
-0.13533720099249147 -0.13067040095826765 -0.112686147167844
0.9157855208622283 -0.04673629497688571 -0.11120643008382179
0.5612453075305103 0.04031659932005072 -0.11120643008382179
0.21618666597564268 -0.02253722943356885 -0.11120643008382179
0.7514344825837938 0.09294899775480948 -0.11040965934627138
0.6546723677278501 0.050936415007687 -0.11040965934627138
0.65818954141218 0.05381617210197635 -0.11040965934627138
0.6579163628735913 0.05392999649305504 -0.11040965934627138
0.7168318676958902 -0.10450217344929062 -0.11040965934627138
0.5397552624948652 0.037562049055947976 -0.11040965934627138
0.5079868749448192 -0.09619299290055057 -0.11040965934627138
0.38594436283031197 -0.09990366804971385 -0.11040965934627138
-0.13545102538356998 0.06350262778276779 -0.11040965934627138
-0.14390817764071231 -0.12347669944209833 -0.11040965934627138
0.8177258079479882 -0.13958285077972443 -0.1089299422622492
0.402380604902066 -0.002845609776965758 -0.1089299422622492
-0.16359979729731525 0.07030932636926987 -0.1089299422622492
0.7089210725159255 -0.1640209475443064 -0.10813317152469878
0.6597717004481728 -0.19789508632930677 -0.10813317152469878
0.6605798536248311 -0.20222041319029468 -0.10813317152469878
0.6995191778128307 -0.0027659327032108216 -0.10813317152469878
0.727736244361223 0.08657483185440616 -0.10813317152469878
0.5109007793564321 0.03282695438707699 -0.10813317152469878
0.498869541219421 -0.0916058699400817 -0.10813317152469878
0.3823019823157957 -0.09796865340137711 -0.10813317152469878
-0.13533720099249147 0.0628310638754039 -0.10813317152469878
-0.1412219220112566 -0.12262301650900856 -0.10813317152469878
0.6909140538472862 0.13449490049850962 -0.10665345444067659
0.511014603747511 0.05223401306598344 -0.10665345444067659
0.6379174173610759 0.05531865406421433 -0.10665345444067659
0.7119488013186169 0.05007134963548933 -0.10585668370312616
0.6554805209045086 0.04467607349836237 -0.10585668370312616
0.7107536452122915 0.05751546481203187 -0.10585668370312616
0.6577342438478653 0.11492848767209281 -0.10585668370312616
0.6995077953737228 -0.05823255847582727 -0.10585668370312616
0.859453829717414 -0.06873854977238486 -0.10585668370312616
0.3848288837977412 -0.02984475534081687 -0.10585668370312616
0.3974633912074692 -0.09152619286632677 -0.10585668370312616
0.37735062130387526 0.01868996501511105 -0.10585668370312616
-0.1478465015720328 0.06613197121668409 -0.10585668370312616
0.6542625999199669 -0.06461810681533851 -0.10528756174773303
0.8108508147268387 0.08529999867432556 -0.10437696661910398
0.6542625999199669 -7.967707375504964E-4 -0.10437696661910398
0.04545007935769719 -0.02253722943356885 -0.10437696661910398
0.7114138266805474 0.11114951788828235 -0.10358019588155357
0.6527259706404056 0.13037445754146326 -0.10358019588155357
0.8668524151375251 -0.07379235273627609 -0.10358019588155357
0.6522023784414439 -0.2086287264080216 -0.10358019588155357
0.8790771547393698 -0.04127272420511141 -0.10358019588155357
0.7443432230195952 -0.15865981872450288 -0.10358019588155357
0.7265297058157896 0.0596667458034179 -0.10358019588155357
0.3863313657599792 -0.02632758165648722 -0.10358019588155357
0.5420089854382218 -0.10742746030001132 -0.10358019588155357
0.5185383959978084 -0.0948157177684992 -0.10358019588155357
-0.13912755321540982 0.05338363941587759 -0.10358019588155357
0.6494933579337725 -0.06461810681533851 -0.1030110739261604
0.8708135039470613 -0.13958285077972443 -0.10210047879753137
0.6460672437623056 -0.02349335431862938 -0.10210047879753137
0.48315039281146216 0.04031659932005072 -0.10210047879753137
0.773197706158028 -0.15302551136611064 -0.10130370805998097
0.7168887798914295 0.10174762318518757 -0.10130370805998097
0.7340307331878712 -0.18281335451138825 -0.10130370805998097
0.7372633458945043 0.09370023873592848 -0.10130370805998097
0.6533064750349068 -0.052860047216915985 -0.10130370805998097
0.511253634968776 0.03445464317950125 -0.10130370805998097
0.48608706210129077 0.01823466745079646 -0.10130370805998097
0.37848886521466163 -0.03199603633220306 -0.10130370805998097
0.2107344776429763 -0.034613997327011606 -0.10130370805998097
-0.13349324585701758 -0.1251157706736305 -0.10130370805998097
0.9157855208622283 -0.03463676220522728 -0.09982399097595876
0.6459420369321192 -0.07960877912039405 -0.09982399097595876
0.42107056991717723 -0.10959012373050528 -0.09982399097595876
0.6930311875213485 -0.18741185991096487 -0.09902722023840835
0.7042428900425938 0.11467807401171992 -0.09902722023840835
0.7263475867900638 0.0914806631098951 -0.09902722023840835
0.7450830815616063 0.09574907777534374 -0.09902722023840835
0.6606936780159098 -0.10918035592262235 -0.09902722023840835
0.39708777071690987 -0.08251130109289923 -0.09902722023840835
0.3955283765591326 -0.09144651579257167 -0.09902722023840835
0.519073370635878 -0.10130370805998105 -0.09902722023840835
0.49197178312005607 -0.08202185621126104 -0.09902722023840835
-0.13841045955161443 0.07086706588555523 -0.09902722023840835
0.7116870052191362 0.13027201558949233 -0.09754750315438616
-0.12453526627912946 -0.12619710238887746 -0.09754750315438616
0.42107056991717723 -0.07547695372423976 -0.09754750315438616
0.6542284526026435 0.1303403102241395 -0.09675073241683575
0.7444115176542424 0.08799763674288903 -0.09675073241683575
0.7409057264090206 -0.15175067818603002 -0.09675073241683575
0.7436944239904472 0.0968645568079143 -0.09675073241683575
0.6661003365921447 -0.005987162970736074 -0.09675073241683575
0.4790413322935235 -0.08188526694196668 -0.09675073241683575
0.38839158723850237 -0.08613091672919965 -0.09675073241683575
0.5042079051610087 -0.09999472756257687 -0.09675073241683575
0.5080096398230349 0.0161858284113812 -0.09675073241683575
-0.13904787614165473 0.05338363941587759 -0.09675073241683575
-0.14903027523925055 0.04891034084648742 -0.09527101533281356
0.5022273607562406 0.05198359940561039 -0.09527101533281356
0.7528345225940611 0.11528134328443662 -0.09527101533281356
-0.13545102538356998 -0.13274200487589874 -0.09447424459526313
-0.13841045955161443 0.07086706588555523 -0.09447424459526313
0.5156131091470876 -0.09936869341164431 -0.09447424459526313
0.6656791863451538 -0.1064827178540587 -0.09447424459526313
0.6668629600123717 0.12492226920879672 -0.09447424459526313
0.7530052591806788 0.08045107961437589 -0.09447424459526313
0.7456180561996758 0.08796348942556545 -0.09447424459526313
0.6979142538986218 -0.17717904715299598 -0.09447424459526313
0.9007948485571726 -0.015389057673830864 -0.09299452751124095
0.7131325749858348 0.08529999867432556 -0.09299452751124095
0.09463359874277333 -0.03463676220522728 -0.09299452751124095
-0.14870018450512257 -0.13276476975411441 -0.09219775677369053
0.1016907109896483 -0.028467480208765498 -0.09219775677369053
0.5202685267422035 0.027955270448911478 -0.09219775677369053
0.654023568698702 -0.0686019605030905 -0.09219775677369053
0.7030704988144838 0.11630576280414434 -0.09219775677369053
0.725903671664857 -0.17297892712219454 -0.09219775677369053
0.7617469724155177 -0.17229598077572272 -0.09219775677369053
0.8632214170621165 -0.07239231272600888 -0.09219775677369053
0.735886070762453 -0.21453621230500258 -0.09071803968966835
0.7206222199188086 -0.09459945142544975 -0.09071803968966835
0.369064205633351 -0.06461810681533851 -0.09071803968966835
0.4140703698658414 0.03434081878842272 -0.09071803968966835
-0.13184279218637748 -0.12738087605609522 -0.08992126895211794
0.3773278564256596 -0.03661730660999552 -0.08992126895211794
0.501612709044416 -0.11342600570985516 -0.08992126895211794
0.7052217798058698 -0.12548000872508208 -0.08992126895211794
0.7551110104156336 -0.1630192929028144 -0.08992126895211794
0.8086881512963447 -0.13759092393584843 -0.08992126895211794
0.8752754200773435 0.009265305433800428 -0.08992126895211794
0.8015058322192832 0.0643676931549653 -0.08992126895211794
0.7394032444467826 -0.14822212206259247 -0.08844155186809576
0.6009700200169524 0.08529999867432556 -0.08844155186809576
0.4199550908846067 -0.10520788467397811 -0.08844155186809576
0.7282029243646453 0.07030932636926987 -0.08844155186809576
-0.1384787541862616 -0.14011782541779394 -0.08764478113054534
0.5003151109861196 -0.11178693447832298 -0.08764478113054534
0.6590659892234855 0.05723090383433523 -0.08764478113054534
0.6754225542214845 0.12412549847124638 -0.08764478113054534
0.7096836959361524 -0.1795124471701079 -0.08764478113054534
0.7793556057153818 -0.16385021095768845 -0.08764478113054534
0.7882908204150543 0.06353677510009137 -0.08764478113054534
0.7357836288104821 -0.004655417595116049 -0.08616506404652312
-0.14903027523925055 0.04892172328559517 -0.08616506404652312
0.8108508147268387 -0.172443952484125 -0.08616506404652312
-0.1478465015720328 0.05814149896296425 -0.0853682933089727
0.512323584244915 0.03345298853800937 -0.0853682933089727
0.6688321219780317 -0.07070771173804519 -0.0853682933089727
0.6615815082663229 0.054009673566809975 -0.0853682933089727
0.7778986535095754 -0.14879124401798557 -0.0853682933089727
0.87923650888688 -0.0011040965934628099 -0.0853682933089727
0.671643584437674 0.13885437467682094 -0.0853682933089727
0.7433643332563188 0.05531865406421433 -0.08388857622495052
0.8858041762521169 -0.11248126326390254 -0.08388857622495052
-0.13065901851915973 -0.11814971793961838 -0.08388857622495052
0.29046846359355677 -0.023789297735433777 -0.08388857622495052
0.11390406815238542 -0.04545007935769719 -0.08388857622495052
-0.06266032728878594 -0.023789297735433777 -0.08388857622495052
-0.13984464687920523 0.06663279853743018 -0.0830918054874001
-0.14689037668697244 -0.1260605131195831 -0.0830918054874001
0.5180034213597389 -0.06155623069532329 -0.0830918054874001
0.6604432643555367 -0.013738604003190769 -0.0830918054874001
0.8920076055659021 -0.041989817868906806 -0.0830918054874001
0.6755819083689947 -0.18906231358160497 -0.0830918054874001
0.8261829602051304 -0.1325826507283887 -0.0830918054874001
0.7202693643064647 -0.19954553999994687 -0.08161208840337791
0.6532040330829358 -0.045290725210187156 -0.08161208840337791
0.002082986356739014 -0.023789297735433777 -0.08161208840337791
0.3257881721452557 -0.04545007935769719 -0.08161208840337791
0.6248048475088175 0.08529999867432556 -0.08161208840337791
-0.14129021664590377 0.0664051497552728 -0.0808153176658275
0.5194603735655452 0.03722057588271207 -0.0808153176658275
0.6626856048597857 -0.11437074815580776 -0.0808153176658275
0.6603408224035661 -0.008878302504133177 -0.0808153176658275
0.8168835074540062 0.05997407165933022 -0.0808153176658275
0.6722582361494986 -0.20334727466197317 -0.0808153176658275
0.8946483314389266 -0.05599021797157838 -0.0808153176658275
-0.13520061172319708 0.04674767741599346 -0.07933560058180532
0.7173668423339598 -0.09459945142544975 -0.07933560058180532
0.6498803608634398 -0.020181064538241273 -0.07933560058180532
0.8108508147268387 -0.172443952484125 -0.07933560058180532
-0.1412219220112566 -0.12262301650900856 -0.0785388298442549
0.5178782145295521 0.02614546263076135 -0.0785388298442549
0.6571878867706878 -0.12120021162052569 -0.0785388298442549
0.7557598094447816 -0.16784544708454838 -0.0785388298442549
0.6626059277860307 0.12269131114365558 -0.0785388298442549
0.7026379661283848 -0.1786587642370183 -0.0785388298442549
0.8287440090043995 0.039679182730010414 -0.0785388298442549
0.7449464922923119 0.08529999867432556 -0.07705911276023272
0.4810332591373997 -0.03463676220522728 -0.07705911276023272
0.9157855208622283 -0.09459945142544975 -0.07705911276023272
-0.1391617005327334 -0.1356559092875117 -0.07626234202268231
0.5151350467045573 -0.09982399097595891 -0.07626234202268231
0.6632433443760711 0.008855537625917342 -0.07626234202268231
0.6762420898372506 -0.0940986241047038 -0.07626234202268231
0.809598746424974 0.05939356726482918 -0.07626234202268231
0.8019838946618135 0.06254650289770725 -0.07626234202268231
0.848492540856542 -0.01067672788317555 -0.07626234202268231
0.9007493188007409 -0.06461810681533851 -0.07478262493866009
0.4926547294665279 -0.03463676220522728 -0.07478262493866009
0.7508767430675087 0.02532592701499518 -0.07478262493866009
-0.14039100395638268 0.06213673508982417 -0.07398585420110967
-0.13098910925328772 -0.12997607217268808 -0.07398585420110967
0.540244707376503 -0.12026685161368082 -0.07398585420110967
0.6599879667912222 -0.0012634507409728444 -0.07398585420110967
0.7479856035341113 -0.17205694955445758 -0.07398585420110967
0.7093422227629165 0.11723912281098904 -0.07398585420110967
0.8123646791281847 -0.1069380154183733 -0.07398585420110967
0.8338091944073984 -0.09971016658488022 -0.07398585420110967
0.8790316249829384 0.029719548510630262 -0.07250613711708749
0.646807102304317 -0.004655417595116049 -0.07250613711708749
0.7179131994111372 -0.09459945142544975 -0.07250613711708749
0.5563167113968057 0.05907485896980911 -0.07250613711708749
-0.13098910925328772 -0.12997607217268808 -0.07170936637953707
0.5490091854895577 -0.10378507978549523 -0.07170936637953707
0.6577228614087574 -0.12140509552446722 -0.07170936637953707
0.6717687912678604 0.12612880775423013 -0.07170936637953707
0.8240772089701757 -0.12588977653296515 -0.07170936637953707
0.6852455991715702 0.13334527414861547 -0.07170936637953707
0.8303261680403925 0.04653141107294401 -0.07170936637953707
-0.13065901851915973 0.04892172328559517 -0.07022964929551488
0.7180839359977553 -0.10959012373050528 -0.07022964929551488
0.6540918633333491 -0.049627434510282814 -0.07022964929551488
0.861377461926643 -0.11632852768236034 -0.07022964929551488
-0.14390817764071231 0.07002476539157322 -0.06943287855796447
0.5411097727487009 -0.10826976079399317 -0.06943287855796447
0.6687752097824924 0.018462316232953836 -0.06943287855796447
0.6728615054222153 -0.07766238203294955 -0.06943287855796447
0.8286529494915368 -0.11812695306140254 -0.06943287855796447
0.895866252423468 -0.05224539550509136 -0.06943287855796447
0.8275602353371819 0.06589293999541895 -0.06943287855796447
0.6407288798207179 0.06097572630082226 -0.06886375660257131
0.6436655491105466 -0.13327697951396827 -0.06886375660257131
0.64769493255473 -0.019646089900171745 -0.06886375660257131
0.861377461926643 -0.11632852768236034 -0.06886375660257131
-0.14641231424444218 0.06808975074323664 -0.06715639073639187
0.5191075179532014 -0.10683557346640253 -0.06715639073639187
0.6681491756315602 0.016174445972273282 -0.06715639073639187
0.6751835230002194 -0.08156655864694662 -0.06715639073639187
0.8361198295462947 0.045472844235912704 -0.06715639073639187
0.6818650147565349 -0.20296027173230577 -0.06715639073639187
0.6848358313636872 -0.20720592151953873 -0.06715639073639187
0.8573366960433514 0.017335454761275355 -0.06715639073639187
0.861377461926643 -0.12038067600475952 -0.06658726878099872
0.4924839928799099 0.04031659932005072 -0.06658726878099872
0.560209505571695 0.0385181739410085 -0.06658726878099872
-0.1357924985568059 0.05423732234896735 -0.06487990291481928
0.5136553296205352 0.03744822466486929 -0.06487990291481928
0.6736582761597657 0.0197940616085737 -0.06487990291481928
0.64854861548782 -0.12652719312300545 -0.06487990291481928
0.6793494957136972 0.12536618433400323 -0.06487990291481928
0.6722582361494986 0.12231569065309593 -0.06487990291481928
0.6678418497756476 0.11929934428951237 -0.06487990291481928
0.8862025616208921 -0.05065185402999053 -0.06487990291481928
-0.12453526627912946 -0.12619710238887746 -0.06431078095942612
-0.14448868203521337 -0.11598705450912443 -0.06431078095942612
0.6459420369321192 -0.008855537625917505 -0.06431078095942612
-0.1357924985568059 0.05423732234896735 -0.06260341509324664
0.5135984174249959 0.03750513686040855 -0.06260341509324664
0.6738403951854917 0.020351801124859063 -0.06260341509324664
0.6602725277689189 -0.031893594380232294 -0.06260341509324664
0.8435184149664057 -0.1102047754423299 -0.06260341509324664
0.7389820941997917 0.10840635006328753 -0.06260341509324664
0.6906636401869131 0.12821179411096897 -0.06260341509324664
0.7361820141792572 0.11927657941129655 -0.06260341509324664
0.6415711803147 0.05531865406421433 -0.06203429313785352
0.6442005237486162 -0.13348186341790982 -0.06203429313785352
0.6459420369321192 -0.019646089900171745 -0.06203429313785352
-0.1436008517848 0.05950739165590787 -0.06032692727167404
0.5433065834965183 0.03962227053447115 -0.06032692727167404
0.6749444917789542 0.04646311643829682 -0.06032692727167404
0.665087299511545 0.020909540641144267 -0.06032692727167404
0.6854618655146197 -0.1937518784940446 -0.06032692727167404
0.8558342140811135 0.03531970855169893 -0.06032692727167404
0.8605579263108768 -0.09456530410812615 -0.06032692727167404
0.6891953055419988 -0.20705794981113645 -0.06032692727167404
0.8834252464785735 -0.034488790496825 -0.06032692727167404
0.7189831486872762 0.010335254709939486 -0.058847210187651856
0.49223357921953687 -0.07960877912039405 -0.058847210187651856
0.9157855208622283 -0.049627434510282814 -0.058847210187651856
-0.1395714683406165 -0.13089804974042488 -0.05805043945010144
0.5083624954353788 0.026657672390615207 -0.05805043945010144
0.6537162428427898 0.05329257990301458 -0.05805043945010144
0.6629474009592665 0.05515929991670413 -0.05805043945010144
0.8535691086986489 -0.11203734813869587 -0.05805043945010144
0.8794983049863607 -0.09251646506871072 -0.05805043945010144
0.7467449176713541 0.10067767390904851 -0.05805043945010144
0.8708135039470613 -0.13958285077972443 -0.056570722366079254
0.8469672940160882 -0.07732090885971366 -0.056570722366079254
-0.13520061172319708 -0.11598705450912443 -0.056570722366079254
-0.12453526627912946 -0.12619710238887746 -0.056570722366079254
-0.13710147905421025 -0.13499572781925556 -0.05577395162852884
0.5129723832740634 0.027841446057832953 -0.05577395162852884
0.6698451590586317 0.034716439278982214 -0.05577395162852884
0.6995191778128307 0.021205484057948823 -0.05577395162852884
0.785422445759873 -0.14535374740741103 -0.05577395162852884
0.8728851078646924 -0.01809807818150226 -0.05577395162852884
0.7675861636778515 0.1015313568421381 -0.05577395162852884
0.8672621829454081 -0.10289724953508188 -0.05429423454450666
0.8456127837622525 0.011530410816265149 -0.05429423454450666
-0.14448868203521337 -0.11598705450912443 -0.05429423454450666
-0.12435314725340359 -0.13599738246074758 -0.05429423454450666
-0.1395714683406165 -0.13184279218637765 -0.05349746380695624
0.5145545423100564 -0.10038173049224411 -0.05349746380695624
0.6700272780843575 0.021512809913861137 -0.05349746380695624
0.6996899143994485 0.044539484229068005 -0.05349746380695624
0.7984781034165918 -0.1369876546631317 -0.05349746380695624
0.9079885500733421 -0.03030005290513146 -0.05349746380695624
0.6912896743378456 0.133129007805566 -0.05349746380695624
0.861377461926643 0.018246049889904376 -0.05201774672293402
0.8793389508388506 -0.10477535198787935 -0.05201774672293402
0.7142366715792974 -0.20431478198614145 -0.05201774672293402
-0.1253320370166798 -0.12458079603556096 -0.05201774672293402
-0.1260605131195831 -0.13958285077972443 -0.05201774672293402
-0.13545102538356998 -0.12999883705090376 -0.0512209759853836
0.5484742108514882 0.03501238269578661 -0.0512209759853836
0.6616498029009701 0.014979289865947617 -0.0512209759853836
0.6998720334251742 0.03572947635958201 -0.0512209759853836
0.7748026300722365 -0.16233634655634258 -0.0512209759853836
0.8908352143377924 -0.013693074246759262 -0.0512209759853836
0.8822642376895714 0.015411822552046536 -0.0512209759853836
0.7683260222198626 0.08621059380295458 -0.0512209759853836
0.8804430474323134 0.025712929944662594 -0.04974125890136142
0.735886070762453 -0.20242529709423623 -0.04974125890136142
0.6500055676936263 -0.019646089900171745 -0.04974125890136142
0.6662255434223312 -0.13506402245390273 -0.04974125890136142
0.6662255434223312 0.06577911560434042 -0.04974125890136142
-0.1384787541862616 -0.14011782541779394 -0.04894448816381101
0.5405975629888469 -0.11371056668755179 -0.04894448816381101
0.6673182575766861 -0.022764878215726064 -0.04894448816381101
0.699803738790527 3.414731732359039E-5 -0.04894448816381101
0.6972996021867972 -0.19998945512515356 -0.04894448816381101
0.8994061909860132 -0.024597450912092027 -0.04894448816381101
0.8208218313853268 0.0637644238822486 -0.04894448816381101
0.7083519505605322 -0.2096417634886214 -0.04837536620841785
0.5604143894756365 0.02693085092920393 -0.047464771079788824
0.49202869531559534 0.04400450959099848 -0.047464771079788824
0.8602733653331802 -0.004655417595116049 -0.047464771079788824
0.7337006424537432 -0.19954553999994687 -0.047464771079788824
-0.1425878147042002 -0.13499572781925556 -0.046668000342238405
0.5034794290581055 0.04181908128228869 -0.046668000342238405
0.6677166429454613 0.005190392233185416 -0.046668000342238405
0.675718497638289 -0.047498918397112455 -0.046668000342238405
0.6869757299159656 -0.03445464317950141 -0.046668000342238405
0.7109243817989093 -0.19809997023324832 -0.046668000342238405
0.7094105173975637 0.11948146331523808 -0.046668000342238405
0.85430896724066 0.0523706023352778 -0.046668000342238405
0.7123358042482842 0.06453842974158325 -0.04518828325821622
0.5347014595309738 -0.1278703209377334 -0.04518828325821622
0.7172871652602046 0.14526268789454802 -0.04518828325821622
0.8858041762521169 -0.12458079603556096 -0.04518828325821622
-0.1395714683406165 -0.13089804974042488 -0.04439151252066581
0.5079982573839271 0.02699914556385111 -0.04439151252066581
0.6554577560262927 0.04113613493581689 -0.04439151252066581
0.6633913160844733 0.055830863824068024 -0.04439151252066581
0.6866456391818376 -0.03487579342649241 -0.04439151252066581
0.6824455191510361 -0.2067050941987928 -0.04439151252066581
0.890288857260615 -0.02402832895669891 -0.04439151252066581
0.8555155057860934 0.05184701013631603 -0.04439151252066581
0.6442915832614792 -0.10099638220406873 -0.04291179543664363
-0.16359979729731525 -0.10959012373050528 -0.04291179543664363
0.7808694701167277 0.13027201558949233 -0.04291179543664363
0.796281292668774 -0.16956419538983566 -0.04291179543664363
-0.1442382683748403 -0.13274200487589874 -0.04211502469909321
0.5404154439631211 0.04459639642460727 -0.04211502469909321
0.6637441716968172 0.010824699591577669 -0.04211502469909321
0.6786096371716861 -0.08775860552162407 -0.04211502469909321
0.69291736313027 -0.19729181705659007 -0.04211502469909321
0.723001149692352 -0.1952998902127139 -0.04211502469909321
0.7130642803511876 0.12337425749012738 -0.04211502469909321
0.8071401395776755 0.0851178796485997 -0.04211502469909321
0.5240474965260139 -0.03463676220522728 -0.04063530761507099
-0.16359979729731525 -0.019646089900171745 -0.04063530761507099
0.8858041762521169 0.05531865406421433 -0.04063530761507099
0.8625953829111843 -0.07960877912039405 -0.04063530761507099
-0.1318541746254854 -0.13537134830981504 -0.03983853687752057
0.5373990975995373 -0.11758059598422527 -0.03983853687752057
0.7087731008075232 -0.12260025163079273 -0.03983853687752057
0.7009988948968529 -0.02853577484341268 -0.03983853687752057
0.8002651463565263 -0.154072695764034 -0.03983853687752057
0.8936352943583266 -0.041716639330318085 -0.03983853687752057
0.6984833758540151 0.1361908839255812 -0.03983853687752057
0.7508767430675087 -0.15457352308478012 -0.03835881979349839
-0.1560190928514785 -0.13174035023440686 -0.03835881979349839
0.7808694701167277 0.11816110037872614 -0.03835881979349839
0.8258414870318944 -0.16956419538983566 -0.03835881979349839
-0.1388202273594975 -0.14011782541779394 -0.037562049055947976
0.503274545154164 -0.11133163691400838 -0.037562049055947976
0.6700728078407888 0.003255377584848681 -0.037562049055947976
0.6653490956110257 0.05546662577261645 -0.037562049055947976
0.8553675340776911 -0.1221449540664783 -0.037562049055947976
0.7053697515142721 0.12534341945578772 -0.037562049055947976
0.7554411011497616 0.12116606430320177 -0.036992927100554816
0.560118446058832 0.027215411906900407 -0.03608233197192579
0.49172136945968303 0.044266305690479284 -0.03608233197192579
0.8558228316420058 0.04031659932005072 -0.03608233197192579
-0.13545102538356998 0.06075945995777279 -0.03528556123437537
-0.1412219220112566 -0.12262301650900856 -0.03528556123437537
0.51788959696866 -0.09824183193996583 -0.03528556123437537
0.6978573417030826 0.041671109573886415 -0.03528556123437537
0.7573533509198827 -0.1771448998356724 -0.03528556123437537
0.8880465167563659 -0.05180148037988468 -0.03528556123437537
0.690583963113158 0.11515613645425019 -0.03528556123437537
0.6437679910625173 0.05531865406421433 -0.03380584415035319
0.5553036743162059 -0.12931589070443195 -0.03380584415035319
0.6496640945203903 -0.019646089900171745 -0.03380584415035319
0.8708135039470613 -0.078208739110127 -0.03380584415035319
-0.13098910925328772 0.060736695079557125 -0.03300907341280278
0.5079868749448192 -0.09719464754204245 -0.03300907341280278
0.6704256634531327 -0.07076462393358461 -0.03300907341280278
0.7100137866702804 0.05807320432831707 -0.03300907341280278
0.8292220714469297 -0.13996985370939183 -0.03300907341280278
0.749852323547801 0.10592497833777334 -0.03300907341280278
0.7508767430675087 0.12794999801148818 -0.03243995145740962
0.9157855208622283 -0.09459945142544975 -0.031529356328780594
0.6538186847947605 -0.027204029467792653 -0.031529356328780594
0.5343372214795223 -0.1282117941109693 -0.031529356328780594
0.7508767430675087 0.05531865406421433 -0.031529356328780594
-0.1442382683748403 -0.13274200487589874 -0.03073258559123018
0.5181513930681408 -0.10774616859503156 -0.03073258559123018
0.6637783190141406 -0.07111747954592827 -0.03073258559123018
0.6658726878099874 -0.12496779896522839 -0.03073258559123018
0.842585054959561 -0.1295549219256971 -0.03073258559123018
0.7569891128684308 0.10298830904794458 -0.03073258559123018
0.48469840453013147 -0.019646089900171745 -0.03016346363583702
0.7508767430675087 -0.09459945142544975 -0.029252868507207954
0.48469840453013147 -7.967707375504964E-4 -0.029252868507207954
0.8657938483004936 -0.07201669223544954 -0.029252868507207954
0.7191538852738943 0.06131719947405816 -0.029252868507207954
-0.1425878147042002 -0.13499572781925556 -0.02845609776965754
0.5010777344063465 -0.04949084524098862 -0.02845609776965754
0.6713704058990853 -0.08463981720606958 -0.02845609776965754
0.7140659349926796 0.053668200393574075 -0.02845609776965754
0.8427330266679632 -0.129566304364805 -0.02845609776965754
0.762555125592176 0.10038173049224394 -0.02845609776965754
0.8108508147268387 -0.18455486769489135 -0.02788697581426442
0.8708135039470613 0.07030932636926987 -0.02788697581426442
0.7213165487043883 -0.004655417595116049 -0.02788697581426442
0.49147095579930994 0.04031659932005072 -0.02788697581426442
-0.1442382683748403 0.06075945995777279 -0.02617960994808494
0.542407370806997 0.040464571028452995 -0.02617960994808494
0.5165123218366088 0.027443060689057625 -0.02617960994808494
0.7052217798058698 -0.1064827178540587 -0.02617960994808494
0.8484470111001103 -0.11916275502021818 -0.02617960994808494
0.889867707013624 0.014239431323936546 -0.02617960994808494
0.848492540856542 0.04984370085333211 -0.02617960994808494
0.7833394594031338 -0.1821987027995636 -0.02561048799269178
0.859032679470423 -0.10598189053331278 -0.02469989286406276
0.8500746998925347 0.06366198193027782 -0.02469989286406276
0.7508767430675087 -0.019646089900171745 -0.02469989286406276
0.4810332591373997 -0.017836282082021454 -0.02469989286406276
-0.1385470488209088 0.05338363941587759 -0.023903122126512345
0.517980656481523 0.03862061589297928 -0.023903122126512345
0.5184701013631612 0.029639871436875326 -0.023903122126512345
0.7054038988315958 -0.1065510124887059 -0.023903122126512345
0.8135143054780788 -0.135211994162305 -0.023903122126512345
0.8906872426293901 0.017540338665216895 -0.023903122126512345
0.8175095416049387 0.07439562200899263 -0.023903122126512345
0.8672621829454081 -0.1224408974832827 -0.023334000171119182
0.8108508147268387 0.11528134328443662 -0.02242340504249016
0.8522145984448132 -0.09099121822825708 -0.02242340504249016
0.6459420369321192 -0.004655417595116049 -0.02242340504249016
0.5597542080073803 0.027545502641028397 -0.02242340504249016
-0.1260605131195831 -0.13958285077972443 -0.02242340504249016
-0.13545102538356998 -0.12999883705090376 -0.021626634304939746
0.5009297626979442 -0.0649595799885744 -0.021626634304939746
0.6595668165442312 -0.08173729523356457 -0.021626634304939746
0.713200869620482 -0.12699387312642796 -0.021626634304939746
0.8413898988532356 -0.13105740388793508 -0.021626634304939746
0.7743245676297063 0.09492954215957757 -0.021626634304939746
0.8108508147268387 0.09269858409443643 -0.021057512349546587
0.6553780789525377 -0.055068240403841444 -0.021057512349546587
0.5576598392115335 -0.09459945142544975 -0.020146917220917562
0.42107056991717723 -0.07960877912039405 -0.020146917220917562
0.6459420369321192 -0.038848264675136655 -0.020146917220917562
0.9307761931672837 -0.06461810681533851 -0.020146917220917562
-0.1395714683406165 0.061658672647293904 -0.019350146483367147
-0.13841045955161443 -0.12263439894811631 -0.019350146483367147
0.4997459890307264 -0.11516751889335826 -0.019350146483367147
0.6622986019301185 -0.1166017062209489 -0.019350146483367147
0.7561126650571255 -0.17703107544459387 -0.019350146483367147
0.9047787022449246 -0.032496863652949 -0.019350146483367147
0.738367442487967 0.11898063599449231 -0.019350146483367147
0.8622425272988405 0.03232612706633089 -0.018781024527973988
0.48977497237223855 0.010335254709939486 -0.018781024527973988
0.9157855208622283 0.02532592701499518 -0.017870429399344922
0.4877488982110388 -0.049627434510282814 -0.017870429399344922
0.7222043789548016 0.010335254709939486 -0.017870429399344922
-0.1395714683406165 0.06260341509324667 -0.017073658661794507
-0.13349324585701758 -0.1251157706736305 -0.017073658661794507
0.4983231841422436 -0.11221946716442173 -0.017073658661794507
0.6649507102422506 -0.11653341158630172 -0.017073658661794507
0.7755652534924634 -0.16826659733153923 -0.017073658661794507
0.8817634103688257 -0.09025135968624601 -0.017073658661794507
0.8242820928741172 0.058209793597611435 -0.017073658661794507
0.858793648249158 0.011837736672177463 -0.01650453670640139
0.5588777601960748 -0.10959012373050528 -0.015593941577772325
0.42107056991717723 -0.10959012373050528 -0.015593941577772325
0.8408776890933815 0.029184573872560734 -0.015593941577772325
0.8229503474984974 -0.15818175628197262 -0.015593941577772325
-0.14395370739714367 -0.13924137760648853 -0.01479717084022191
0.5026371285641237 0.042604469580731275 -0.01479717084022191
0.6962751826670894 0.048694074503437955 -0.01479717084022191
0.764467375362297 0.0992776338987813 -0.01479717084022191
0.9035949285777067 -0.028126007035529595 -0.01479717084022191
0.7741652134821964 -0.17333178273453834 -0.01479717084022191
0.8519414199062244 -0.12266854626543991 -0.01479717084022191
0.8955361616893397 0.02532592701499518 -0.013317453756199726
-0.16359979729731525 0.04031659932005072 -0.013317453756199726
0.6459420369321192 0.02532592701499518 -0.013317453756199726
-0.1425878147042002 -0.13499572781925556 -0.01252068301864931
0.5071559568899454 0.012258886919168465 -0.01252068301864931
0.515749698416382 -0.10799658225540444 -0.01252068301864931
0.6720419698064491 -0.04839813108663372 -0.01252068301864931
0.7153293857336522 -0.1240230565192756 -0.01252068301864931
0.8098150127680235 0.0739858542011097 -0.01252068301864931
0.9162749657438661 -0.03564979928582707 -0.01252068301864931
0.8271504675292988 0.0733029078546379 -0.01252068301864931
0.9157855208622283 -0.09459945142544975 -0.011040965934627129
-0.16359979729731525 0.010335254709939486 -0.011040965934627129
0.6459420369321192 0.02532592701499518 -0.011040965934627129
-0.1425878147042002 -0.13499572781925556 -0.010244195197076712
0.5039119617442045 0.00712540688152215 -0.010244195197076712
0.5156814037817348 -0.10805349445094387 -0.010244195197076712
0.6727932107875682 0.0032781424630645155 -0.010244195197076712
0.6667149883039694 0.05662763456161852 -0.010244195197076712
0.871416773219778 0.027556885080136314 -0.010244195197076712
0.8743079127531753 -0.08112264352173994 -0.010244195197076712
0.8439850949698281 -0.12963459899945218 -0.010244195197076712
0.8708135039470613 -0.12573042238545512 -0.00876447811305453
-0.14448868203521337 -0.11598705450912443 -0.00876447811305453
-0.12435314725340359 -0.13599738246074758 -0.00876447811305453
-0.13908202345897833 0.05787970286348345 -0.007967707375504115
0.5056990046841388 -0.0085937415264367 -0.007967707375504115
0.49945004561392203 -0.11545207987105474 -0.007967707375504115
0.6659751297619583 -0.12634507409727974 -0.007967707375504115
0.9105040691161795 -0.03002687436654274 -0.007967707375504115
0.9164798496478077 -0.03137000218127052 -0.007967707375504115
0.8041465580923074 0.09294899775480948 -0.007967707375504115
0.8554927409078775 -0.13327697951396827 -0.0064879902914818915
0.7231035916443226 0.04686150180707199 -0.0064879902914818915
0.4810332591373997 -0.019646089900171745 -0.0064879902914818915
-0.1412219220112566 -0.12262301650900856 -0.005691219553931475
0.5032631627150561 0.004154590274369948 -0.005691219553931475
0.49898336561049966 -0.08236332938449695 -0.005691219553931475
0.6624921033949521 -0.12444420676626661 -0.005691219553931475
0.8050571532209366 -0.15129538062171544 -0.005691219553931475
0.8324546841535627 -0.1386722556510954 -0.005691219553931475
0.7966341482811179 0.09672796753861994 -0.005691219553931475
0.9157855208622283 0.010335254709939486 -0.004211502469909293
-0.14022026736976473 -0.11531549060176038 -0.004211502469909293
0.5023525675864271 -0.017676927934511418 -0.004211502469909293
-0.14518301082079293 0.04697532619815068 -0.004211502469909293
-0.1478465015720328 0.05814149896296425 -0.0034147317323588774
0.5155106671951166 -0.10822423103756182 -0.0034147317323588774
0.7069405281111573 -0.10535585638238022 -0.0034147317323588774
0.6691849775903754 -0.06050904629739991 -0.0034147317323588774
0.8123191493717533 0.06732712732300974 -0.0034147317323588774
0.854400026753523 -0.12114329942498626 -0.0034147317323588774
0.9307761931672837 -0.06461810681533851 -0.0019350146483366943
0.5544727562613319 -0.13010127900287452 -0.0019350146483366943
0.5237743179874251 -0.019646089900171745 -0.0019350146483366943
0.5544727562613319 0.06081637215331206 -0.0019350146483366943
-0.13349324585701758 0.06838569416004105 -0.001138243910786279
0.5068600134731408 -0.0973653841286604 -0.001138243910786279
0.7098089027663388 0.03554735733385614 -0.001138243910786279
0.6667946653777245 0.05716260919968805 -0.001138243910786279
0.8065937825004981 0.08015513619757132 -0.001138243910786279
0.9171627959942795 -0.04807942279161349 -0.001138243910786279
0.8813308776827268 -0.10574285931204763 3.414731732359039E-4
0.7508767430675087 -0.07960877912039405 3.414731732359039E-4
0.5200181130818305 -0.06048628141918423 3.414731732359039E-4
-0.1357924985568059 -0.1392641424847042 0.0011382439107863193
0.539265817613227 0.040737749567041716 0.0011382439107863193
0.5463912244947493 -0.11816110037872614 0.0011382439107863193
0.7023647875897965 0.04025968712451145 0.0011382439107863193
0.814231399141874 -0.14011782541779394 0.0011382439107863193
0.8066506946960373 -0.14074385956872648 0.0011382439107863193
0.8849163460017035 -0.10133785537730464 0.001707365866179479
0.42107056991717723 -0.07960877912039405 0.0026179609948085024
0.4947490982623746 0.052427514530817065 0.0026179609948085024
-0.13065901851915973 0.04892172328559517 0.0026179609948085024
-0.1478465015720328 0.06613197121668409 0.0034147317323589177
0.507019367620651 -0.09810524267067147 0.0034147317323589177
0.7072364715279618 0.03320257487763632 0.0034147317323589177
0.6657019512233696 -0.04720297498030806 0.0034147317323589177
0.8786673869314867 -0.0842300493981865 0.0034147317323589177
0.8226430216425848 -0.12369296578514762 0.0034147317323589177
0.9157855208622283 0.010335254709939486 0.004894448816381141
0.7272467994795848 -0.07960877912039405 0.004894448816381141
0.4810332591373997 -0.12170103894127163 0.004894448816381141
-0.13831940003875157 -0.14007229566136262 0.005691219553931557
0.5462774001036704 0.04899001792024235 0.005691219553931557
0.49428241825895214 -0.07724123178595856 0.005691219553931557
0.6964459192537076 0.04031659932005072 0.005691219553931557
0.8729761673775551 0.023493354318629218 0.005691219553931557
