0.24771795992436108 0.24184493748579874 -0.26587045823491756
0.15424606143724218 -0.1616084654654398 -0.26587045823491756
0.6219963845027413 -0.07092519633763808 -0.26587045823491756
0.19182917984804213 0.04323959955441544 -0.2651310489350986
0.3566857647376869 0.20275131150536854 -0.2651310489350986
0.06198890679982571 -0.06781967727839831 -0.2651310489350986
0.439985503857296 -0.13562351007180057 -0.2651310489350986
0.4216375902317873 -0.2127439000429223 -0.2651310489350986
0.21211012064307758 0.21719091883183408 -0.2651310489350986
0.6865151274069479 0.07934389936557754 -0.2651310489350986
0.5746213743643385 0.13785230096125511 -0.2651310489350986
0.4047473692259218 -0.21725429677181812 -0.2646028994352279
0.4103351909345541 -0.09070967660279508 -0.2637578602354348
0.6324009296501946 0.07789676973593178 -0.2637578602354348
0.01833206914051251 0.04498249290398886 -0.26301845093561577
0.16728079109405133 0.0777066359159783 -0.26301845093561577
0.19580086408706993 -0.02757468538824986 -0.26301845093561577
0.38844867565991165 0.22405686233015312 -0.26301845093561577
0.39139574986919023 -0.19752263145664828 -0.26301845093561577
0.4290950611699618 -0.1896954558685643 -0.26301845093561577
0.4454888216459487 0.17741069850157168 -0.26301845093561577
0.250696723103632 0.22161681164075048 -0.26301845093561577
0.5448654315416224 -0.1388240960410171 -0.26301845093561577
0.5936347563596843 0.12316974486484941 -0.26301845093561577
0.4170321265929148 0.24184493748579874 -0.26249030143574503
0.09477642775179963 -0.07498138449664517 -0.26164526223595186
0.1520067075577903 0.1049274611393149 -0.26164526223595186
0.07433704210680313 0.09583272675154116 -0.2609058529361329
0.05390821945180377 -0.07724186435609182 -0.2609058529361329
0.1991282059362554 0.11414895140705762 -0.2609058529361329
0.13853889531108704 0.20105067011578484 -0.2609058529361329
0.5793747198631748 -0.12947584989330552 -0.2609058529361329
0.3433658343509475 0.20916304643379902 -0.2609058529361329
-0.1534432741974386 -0.1308807275629616 -0.2609058529361329
-0.18201616214044422 0.18385412239999452 -0.2609058529361329
0.651224177825587 0.11595522269661539 -0.2609058529361329
0.004716375033845482 0.18288232732023227 -0.2609058529361329
0.24771795992436108 0.11653618714647324 -0.25953266423646904
0.04489798898400944 0.0583552382407154 -0.25953266423646904
0.13505310861194034 -0.16924550723357032 -0.25953266423646904
0.11603972661659465 -0.06434445356924894 -0.25879325493665
0.22419418120011955 0.053570203771886704 -0.25879325493665
0.1887553497587946 0.06890766524813223 -0.25879325493665
0.4414220704969443 0.2048005315648671 -0.25879325493665
0.663899765822484 0.0805058282652931 -0.25879325493665
0.6431751794475573 0.07914320255562661 -0.25879325493665
0.7057925841522291 0.012258349891999417 -0.25879325493665
0.5048422624414197 -0.1862730471094021 -0.25879325493665
0.39751172107769317 0.19892750912630464 -0.25742006623698616
0.4046628653059426 0.27235085259833125 -0.25742006623698616
0.6191126882334473 -0.1278597124237011 -0.2566806569371672
0.6167254524940317 0.11722278149630515 -0.2566806569371672
0.24322868917546003 0.2123953213730079 -0.2566806569371672
0.3658966920154321 -0.22409911429014268 -0.2566806569371672
-0.14639775986916326 -0.15557699817691611 -0.2566806569371672
0.18991727865851016 0.016737057650902994 -0.2566806569371672
0.03757783691580137 -0.03063795248750007 -0.2566806569371672
0.30952201439923205 -0.21494100196238444 -0.25530746823750333
0.6903178038060171 0.002054501554497131 -0.25530746823750333
0.247612330024387 0.11201522742757995 -0.25530746823750333
0.08468877230426901 0.0665838074487011 -0.25530746823750333
0.6088243359759659 0.11112793626779713 -0.2545680589376843
0.6226935418425708 -0.12397253210465269 -0.2545680589376843
0.32188071269620677 -0.2259370745496927 -0.2545680589376843
0.06262268619967058 -0.18804762942896777 -0.2545680589376843
0.17870994627125353 0.05444693194167207 -0.2545680589376843
0.02664514226847762 -0.06317196167953605 -0.2545680589376843
0.390751407479348 0.24160198871585825 -0.2540399094378136
0.5934763115097229 0.14753856278888405 -0.2531948702380205
0.5298765487352917 -0.27291069106819404 -0.2531948702380205
0.23551770647734754 0.08523804778413463 -0.2531948702380205
0.6027400537374553 -0.1553446123969731 -0.2531948702380205
0.1520067075577903 0.21277558901291485 -0.2524554609382015
0.4484570218352222 -0.10115647371023771 -0.2524554609382015
0.7278269812868351 -0.006554335293395487 -0.2524554609382015
0.3441580586007536 0.21640925757202528 -0.2524554609382015
0.18872366078880234 0.08160437922502417 -0.2524554609382015
0.08333670958459999 0.07403071539687815 -0.2524554609382015
0.6485517413562409 -0.06551694545896196 -0.25192731143833075
0.04629230366366818 -0.05198575527227435 -0.2510822722385376
0.2149410019623846 -0.2311657545984128 -0.2510822722385376
0.5020536330821023 -0.06421769768927996 -0.2510822722385376
0.3159548753076574 0.22614833434964124 -0.2510822722385376
0.12000084786562501 -0.22009574108112262 -0.2503428629387186
0.42001088977218554 -0.19207212861798245 -0.2503428629387186
0.654287444924837 -0.08803724013344927 -0.2503428629387186
0.497532673363209 0.18446677581984447 -0.2503428629387186
0.0401868954451627 0.099857225940556 -0.2503428629387186
0.18738216105913078 0.060140383550278384 -0.2503428629387186
0.6682834066714108 -0.0755412229665081 -0.2498147134388479
0.003205867464215232 0.01925104927028759 -0.2498147134388479
0.2121629355930646 -0.05030623986268541 -0.24896967423905475
0.07030197992779082 -0.07812915551587464 -0.24896967423905475
0.6645757971823184 -0.07896363172567031 -0.24896967423905475
0.19527271458719925 -0.016494108880962206 -0.24823026493923575
0.020972816639866082 0.05776371080086008 -0.24823026493923575
0.35370700155841606 0.24264772472560248 -0.24823026493923575
0.7218377659583015 8.978541497814991E-5 -0.24823026493923575
0.4315562378393594 -0.13083847560297188 -0.24823026493923575
-0.15942192653597512 0.028884496147929484 -0.24823026493923575
0.6309960519805383 0.11664181704644744 -0.24770211543936502
0.04016576946516776 -3.7498614490804623E-4 -0.24770211543936502
0.21632475365204587 0.06098542275007151 -0.2468570762395719
0.5535693352994918 0.16870679474370248 -0.2468570762395719
0.5285456119956173 -0.202666807585389 -0.2468570762395719
0.6805470380584088 0.05069707049258996 -0.2461176669397529
0.4491436161850541 -0.12367676838472502 -0.2461176669397529
0.2173282377018002 0.2091419204538044 -0.2461176669397529
0.19631845059694317 0.07996711577542495 -0.2461176669397529
0.0794284032855568 -0.0658972130988689 -0.2461176669397529
0.2246695157500032 0.029771787307712315 -0.2461176669397529
0.2419611303757704 -0.2125220772529766 -0.24558951743988217
0.025683910178712833 -0.012501298661939605 -0.24474447824008905
0.5420768021823051 0.1861991061794206 -0.24474447824008905
0.21106438463333352 0.08075934002523105 -0.24474447824008905
0.6072821394363432 0.1561896515967665 -0.24400506894027005
0.5587135114282326 -0.1491230112884961 -0.24400506894027005
0.3206237168865145 -0.23172559306827573 -0.24400506894027005
0.1804845285908192 0.2181732769015935 -0.24400506894027005
0.1975331944466459 -0.01284987733185429 -0.24400506894027005
0.1705553179932498 -0.014825156461370885 -0.24400506894027005
0.12755338571377625 -0.0761538763863582 -0.24347691944039931
0.3099867859591184 0.2240357363501585 -0.24347691944039931
0.2549852970425821 0.2574359107219825 -0.2426318802406062
0.7524704369508026 0.1583761905262312 -0.2426318802406062
0.08736120877361483 0.07703060455614387 -0.2418924709407872
0.1702701172633196 -0.011550629562172433 -0.2418924709407872
0.17713606076163893 0.09739604927115858 -0.2418924709407872
0.23588741112725717 -0.2189655011513993 -0.2418924709407872
0.45595674473338627 -0.21902887909138377 -0.2418924709407872
0.7289994731765483 -0.03718700628589682 -0.2418924709407872
0.4059198611156349 0.211835482903145 -0.2418924709407872
0.490645603884895 0.20011056400601498 -0.24136432144091646
0.3490170339995641 -0.022483324209496183 -0.24051928224112332
0.661174514403151 0.09069911361279792 -0.24051928224112332
0.24431667714519378 -0.10641684272895008 -0.24051928224112332
0.5693610053456263 0.18330484692012908 -0.23977987294130432
0.6335417325699154 -0.1345249591120695 -0.23977987294130432
0.37911099250219743 -0.21967322148122612 -0.23977987294130432
0.11989521796565081 -0.20987076676362554 -0.23977987294130432
0.1701539243733481 0.09205117633246696 -0.23977987294130432
0.04602822891373277 -0.09098431434272782 -0.23977987294130432
0.6464285803667608 -0.10460000844939485 -0.2392517234414336
0.32119411834637485 -0.07812915551587464 -0.23840668424164047
0.6337424293798662 -0.11543763618674187 -0.23840668424164047
0.15424606143724218 -0.05763695492089096 -0.23840668424164047
0.06757672850845797 -0.0658760871188741 -0.23766727494182147
0.017962364490603046 -0.05674966376110812 -0.23766727494182147
0.23618317484718468 -0.11762417511620671 -0.23766727494182147
0.19533609252718373 0.22584200763971626 -0.23766727494182147
0.466297911940855 -0.2192929538413192 -0.23766727494182147
0.7242144387077196 0.05323218809196948 -0.23766727494182147
0.29215645884348307 0.24028161496618147 -0.23766727494182147
0.35694983948762227 0.22793347965920435 -0.23713912544195073
0.5465766359212035 0.16047822553571678 -0.2362940862421576
0.6768711175393088 -0.05456312483164343 -0.2362940862421576
0.5344080714441823 -0.19155454210810924 -0.2362940862421576
0.04019745843516001 0.08982238544301255 -0.23555467694233861
0.0212368913898015 -0.08657954751380605 -0.23555467694233861
0.04149670620484202 -0.08604083502393789 -0.23555467694233861
-0.14603861820925126 0.17607976176189744 -0.23555467694233861
0.4729948475992155 0.18732934610914392 -0.23555467694233861
0.7230947617679938 0.0129660702218261 -0.23555467694233861
0.3228313817959741 0.21620856076207437 -0.23555467694233861
0.6191232512234448 0.11860653318596642 -0.23502652744246788
0.2362254268071744 0.01678987260089017 -0.23418148824267476
0.8498612047269624 -0.03639478203609072 -0.23418148824267476
0.15424606143724218 -0.05030623986268541 -0.23418148824267476
0.04298608779447749 -0.07901644667565748 -0.23344207894285576
0.0778439547859446 -0.07819253345585914 -0.23344207894285576
0.34669317620013296 0.21944083570128325 -0.23344207894285576
0.3082755815795372 -0.21078974689340063 -0.23344207894285576
0.5268660965860283 -0.16788288152390382 -0.23344207894285576
0.6374394758789612 0.1427640913100528 -0.23344207894285576
0.6690016899912351 -0.08497397303419905 -0.23291392944298503
0.6817934708781036 -0.03647928595607014 -0.2320688902431919
0.29140648655366663 0.2696784161289856 -0.2320688902431919
0.19869512334636147 -0.08428737868436716 -0.2313294809433729
0.21620856076207437 0.0798614858754509 -0.2313294809433729
0.19091019971826703 -0.05779539977085218 -0.2313294809433729
0.5292638953154414 -0.19057218403834966 -0.2313294809433729
0.5173699685783528 -0.16940395208353154 -0.2313294809433729
0.6418019907478931 0.14131696168040705 -0.2313294809433729
0.34256304711114394 0.22555680690978622 -0.2313294809433729
0.7611320887486825 -0.020212281360052074 -0.22995629224370903
0.599444400858262 0.25575639531239347 -0.22995629224370903
0.7189012547390201 -0.06303464280956961 -0.22921688294389003
0.2716536952585019 -0.24361951980536428 -0.22921688294389003
0.4660549631709144 0.21016653048355335 -0.22921688294389003
0.20870883786391015 -0.021162950459819398 -0.22921688294389003
0.05230264497219679 -0.07092519633763808 -0.22921688294389003
0.20493785043483323 0.10725131893874604 -0.22921688294389003
0.7224292933981565 -0.020022147540098612 -0.22921688294389003
0.5535798982894893 0.21402202183260968 -0.22868873344401933
0.6061202105366278 -0.1692032552735806 -0.22784369424422618
0.2804843548963402 -0.25509092694255614 -0.22784369424422618
0.4718540446794947 0.18140350872059444 -0.22710428494440718
0.3112754707388029 -0.2123530694130179 -0.22710428494440718
0.6057505058867184 -0.15635865943672492 -0.22710428494440718
0.3876458884201081 0.24953479420391644 -0.22710428494440718
0.22012743005111501 0.07487575459667127 -0.22710428494440718
0.18923068430867826 -0.06455571336919733 -0.22710428494440718
0.11520525040679899 0.07853054913577666 -0.22710428494440718
0.08268180420476032 0.10273035921985274 -0.22657613544453645
0.7119719333007163 -0.005170583603734213 -0.22573109624474333
0.32119411834637485 0.06098542275007151 -0.22573109624474333
0.019472872060233296 0.003406564274166161 -0.22499168694492433
0.17310099858262662 -0.08821681096340526 -0.22499168694492433
0.2327924550580147 0.11064203872791599 -0.22499168694492433
0.6307214142406058 0.11544819917673962 -0.22499168694492433
0.33874980772207747 0.22507090936990493 -0.22499168694492433
0.525017573336481 -0.19342419133765149 -0.22499168694492433
0.7196934789888263 -0.008941571032811107 -0.22499168694492433
0.7385589791242083 0.06244311536971474 -0.2244635374450536
0.18384355940999692 0.06478809914914065 -0.22361849824526048
0.555079842869122 -0.20131474486571996 -0.22361849824526048
0.014740652541391619 0.01133936976222434 -0.22287908894544148
0.25364379731291053 -0.11626154940654021 -0.22287908894544148
0.1464717007991452 0.0766925888762265 -0.22287908894544148
0.4646183965312661 0.12468025243447967 -0.22287908894544148
0.6793111682287114 -0.0833472725745973 -0.22287908894544148
0.2940366710630228 -0.23801057211673723 -0.22287908894544148
0.45927352359257445 0.2382429578966807 -0.22287908894544148
0.2149410019623846 0.02910631893787519 -0.22150590024577763
0.5409888142125714 -0.20938486922374458 -0.22150590024577763
0.08510072891416819 0.10212826879000012 -0.22076649094595863
0.2015471306456633 0.10642740571894768 -0.22076649094595863
0.22763771593927656 0.012437920721955417 -0.22076649094595863
0.4351159654684879 -0.22921160144889113 -0.22076649094595863
0.6287355721210918 -0.11467710090692801 -0.22076649094595863
0.7096692014812801 0.08115017065513544 -0.22076649094595863
0.08315713875464399 0.11059978676792644 -0.21939330224629475
0.7362773732847667 0.07411521931685741 -0.21939330224629475
-0.18033664673085545 -0.006395890443434267 -0.21865389294647575
0.057774273790857394 -0.07311173526710292 -0.21865389294647575
0.6022858451675664 0.15031662915820404 -0.21865389294647575
0.6404499280282243 -0.11114906224779175 -0.21865389294647575
0.448171821105292 -0.23114462861841803 -0.21865389294647575
0.20589908252459801 0.10751539368868145 -0.21865389294647575
0.5645020299468155 -0.1476970076388451 -0.21812574344660504
0.4775791852580933 0.24184493748579874 -0.2172807042468119
0.630805918160585 0.10740976378870726 -0.2172807042468119
0.3575941818774645 0.24803484962428365 -0.2165412949469929
0.036109581306160675 0.10311062685975968 -0.2165412949469929
0.1956424192371087 0.002603777034362745 -0.2165412949469929
0.40287771999637956 -0.24104215024599518 -0.2165412949469929
0.5934234965597359 -0.17249890815277386 -0.2165412949469929
0.6013457390577966 0.14796108238878083 -0.2165412949469929
0.6409675145380976 0.16488299236463855 -0.21601314544712216
0.5195459445178203 -0.21725429677181812 -0.21516810624732904
0.4324963439491293 0.10273035921985274 -0.21516810624732904
-0.17490726987218438 0.004716375033845632 -0.21442869694751004
0.03314138111688735 0.08833300385337708 -0.21442869694751004
0.17755858036153543 0.08394936300445009 -0.21442869694751004
0.44478110131612203 0.10848718876844356 -0.21442869694751004
0.6765647908293838 -0.10106140680026098 -0.21442869694751004
0.49503980772381934 0.23131363645837685 -0.21442869694751004
0.36241090531628545 0.2696784161289856 -0.2139005474476393
0.06153469822993697 0.07904813564564987 -0.2130555082478462
0.6226512898825812 0.1549960337270587 -0.2130555082478462
-0.1323278571926075 -0.0051600206137367485 -0.2123160989480272
0.03139848776731393 -0.07299554237713125 -0.2123160989480272
0.18309358712018053 -0.047771122263306036 -0.2123160989480272
0.4207714250519994 0.12346550858477708 -0.2123160989480272
0.745847442222424 -4.0667511490029024E-4 -0.2123160989480272
0.5699630957754788 0.20011056400601498 -0.21178794944815646
0.003881898824049822 -0.008571866382901493 -0.21094291024836334
0.28984316403404925 0.10273035921985274 -0.21094291024836334
0.5590409641181524 -0.19072006589831358 -0.21094291024836334
0.33617243816270836 0.24154917376587123 -0.21020350094854434
0.1243422367545623 -0.07053436570773383 -0.21020350094854434
0.2905403213738786 -0.25124599858349733 -0.21020350094854434
0.6703009377609169 -0.12444786665453635 -0.21020350094854434
0.5779064642535343 0.16631955900428685 -0.21020350094854434
0.4607312162122177 0.2508762939335882 -0.2096753514486736
0.022346005339529892 -0.016895502500864065 -0.20883031224888046
0.6723501578204155 -0.1476970076388451 -0.20883031224888046
0.4903709661449621 0.21787751318166598 -0.20883031224888046
0.0885231376733304 0.08057976919527506 -0.20809090294906146
0.19251577419787402 -0.08326276865461803 -0.20809090294906146
0.4245635384610711 -0.1272893109638407 -0.20809090294906146
0.7545090940203037 -0.006586024263387731 -0.20809090294906146
0.29611758009251343 0.23677470228704 -0.20809090294906146
0.5467562067511595 -0.17956554846104397 -0.20756275344919076
0.7283656937767035 -0.08217478068488426 -0.2067177142493976
0.18382243343000212 -0.008571866382901493 -0.2067177142493976
0.40331080258627355 0.24746444816442326 -0.2059783049495786
0.026592327318490445 0.0028572887943006976 -0.2059783049495786
0.22215552413061862 0.09556865200160589 -0.2059783049495786
0.4830402510867564 0.187308220129149 -0.2059783049495786
0.7184153571991391 -0.03250760171704232 -0.2059783049495786
0.45599899669337596 0.23995416227626187 -0.2059783049495786
0.039373545215361815 0.11664181704644744 -0.20460511624991476
0.5535798982894893 -0.16287602426512943 -0.20460511624991476
0.4358448117783095 0.2593372489215169 -0.20460511624991476
0.691923378285624 -0.06708026797857923 -0.20386570695009576
0.44252062145667537 0.13810581272119307 -0.20386570695009576
0.19603324986701295 -0.07329130609705892 -0.20386570695009576
0.0751081403766143 -0.09124838909266324 -0.20386570695009576
0.22285268147044784 -0.004431174303915136 -0.20386570695009576
0.6823744353279615 0.12428942180457526 -0.20386570695009576
0.4115710607642515 0.2696784161289856 -0.20333755745022503
0.7107360634710189 -0.1894313811186289 -0.2024925182504319
0.5020536330821023 0.1861991061794206 -0.2024925182504319
0.17594244289193114 0.08898790923321674 -0.2017531089506129
0.15892546600609667 -0.08962168863306132 -0.2017531089506129
0.2338276280777613 0.10707174810879003 -0.2017531089506129
0.44591134124584536 0.138126938701188 -0.2017531089506129
0.6981555423840985 -0.10412467389951119 -0.2017531089506129
0.5176762952882781 0.22391954346018697 -0.2017531089506129
0.5437880065618861 0.17691423797169323 -0.20122495945074217
0.6272673165114513 0.2306164791185475 -0.20037992025094906
0.7331718542255268 8.714466747867866E-4 -0.20037992025094906
0.18484704345975125 -0.004515678223894553 -0.20037992025094906
0.03164143653725456 -0.08538592964409823 -0.19964051095113006
0.19145947519813267 0.07509757738661699 -0.19964051095113006
0.3161766980976031 -0.23886617430652782 -0.19964051095113006
0.5618718454374595 -0.17757970634153006 -0.19964051095113006
0.611127067795402 0.15115110536799986 -0.19964051095113006
0.6355064487094345 -0.13475734489201266 -0.19911236145125932
0.13075397168299277 -0.08673799236376727 -0.19911236145125932
0.7301614020762638 0.021976300689620577 -0.19826732225146618
0.48803654535553354 -0.21297628582286546 -0.19826732225146618
0.22694055859944717 -0.0010510175047426362 -0.19752791295164718
0.147971645378778 0.09945583232065429 -0.19752791295164718
0.23895067822650723 -0.09316029028219519 -0.19752791295164718
0.44328115673648927 0.13204265646267746 -0.19752791295164718
0.7562414243798795 -0.027817634158190347 -0.19752791295164718
0.40910988409485405 0.22922216443888876 -0.19752791295164718
0.6385591528186871 -0.13992264700074816 -0.19699976345177647
0.6371965271090207 0.16523157103455308 -0.19615472425198333
0.4997509012626661 -0.22537723607982976 -0.19615472425198333
0.18738216105913078 -0.062369174439732486 -0.19541531495216433
0.012606928561913953 0.08834356684337455 -0.19541531495216433
0.20013168998600975 -0.11211029433755638 -0.19541531495216433
0.46198821202191 0.11882835597591213 -0.19541531495216433
0.7649981430877361 -0.02412058765909541 -0.19541531495216433
0.39276893856885403 0.227954605639199 -0.19541531495216433
0.12529290585432962 0.07956572215552324 -0.19404212625250047
0.710714937491024 0.10935335394823145 -0.19404212625250047
0.14702097627901067 -0.08679080731375428 -0.19330271695268147
0.022007989659612672 -0.09095262537273557 -0.19330271695268147
0.23374312415778203 -0.09830446641093589 -0.19330271695268147
0.44665075054566444 0.12134234759529672 -0.19330271695268147
0.4166941109129974 -0.22646522404956337 -0.19330271695268147
0.6822582424379899 0.10578306332910549 -0.19330271695268147
0.4661922820408808 0.25575639531239347 -0.19192952825301762
0.0020228125845048873 0.013198456001769275 -0.19192952825301762
0.017782793660646896 -0.0033326233441840583 -0.19119011895319862
0.07955515916552577 -0.08109735570514812 -0.19119011895319862
0.15039057008818585 -0.09422715227193403 -0.19119011895319862
0.44609091207580137 0.12982442856322035 -0.19119011895319862
0.6112115717153815 -0.16826314916381074 -0.19119011895319862
0.33414434408320476 -0.24096820931601323 -0.19119011895319862
0.777515286234672 0.04453884732409744 -0.1906619694533279
0.5346404572241255 -0.18238586679035368 -0.18981693025353477
0.2087616528138973 -0.05333781799194338 -0.18907752095371577
0.206025838404567 0.04145445424485246 -0.18907752095371577
0.18543857089960644 0.037260947215879074 -0.18907752095371577
0.525809797586287 0.22169075257073242 -0.18907752095371577
0.5672378443561458 -0.1934664432976412 -0.18907752095371577
0.5296124739853563 -0.21335655346277224 -0.18907752095371577
0.6612484553331329 -0.14315492193995705 -0.18907752095371577
0.4552701503835544 0.25575639531239347 -0.18854937145384504
0.49349761118419666 0.25575639531239347 -0.1877043322540519
0.04294383583448778 0.04522544167392935 -0.1877043322540519
0.6171162831239361 0.17694592694168562 -0.1869649229542329
0.6472313676065642 0.13093354251294892 -0.1869649229542329
0.48947311199518184 -0.21165591207318868 -0.1869649229542329
0.48145580258714454 -0.13012019228314772 -0.1869649229542329
0.2113495853632637 0.10828649195849262 -0.1869649229542329
0.25267200223314845 -0.12105714686536623 -0.1869649229542329
0.03275055048698296 -0.07996711577542465 -0.1869649229542329
0.03396529433668569 0.03441950290657458 -0.1864367734543622
0.7474424537120334 -0.053665270681863136 -0.18559173425456904
0.011371058732216433 0.03072245640747964 -0.18559173425456904
0.6345135276496773 -0.12493376419441732 -0.18485232495475004
0.771800708646071 0.014275880981505572 -0.18485232495475004
0.4727202098592829 -0.09873754900082984 -0.18485232495475004
0.21058905008344986 0.0930546603822213 -0.18485232495475004
0.23169390409828364 -0.11331447519726166 -0.18485232495475004
0.05290473540204942 -0.08851257468333293 -0.18485232495475004
0.5110744265398942 0.18431889395988058 -0.1834791362550862
0.08385429609447335 -0.06458740233918957 -0.1834791362550862
0.17579456103196722 0.008244413692982037 -0.1827397269552672
0.229306668358868 0.11092723945784619 -0.1827397269552672
0.15929517065600612 0.08400217795443726 -0.1827397269552672
0.4463127348657471 -0.13209547141266417 -0.1827397269552672
0.7640897259479587 0.05514408928150144 -0.1827397269552672
0.39900110266732847 0.24680954278458375 -0.1827397269552672
0.5461118643613172 -0.17267847898272984 -0.18136653825560334
0.7014828842332839 -0.11987409198565588 -0.18136653825560334
0.05387653048181153 -0.08411837084440847 -0.18062712895578434
0.22427868512009883 0.0709780112876254 -0.18062712895578434
0.1901285384584584 0.054024412341775435 -0.18062712895578434
0.4469782032355842 0.11160327081768079 -0.18062712895578434
0.6086236391660149 -0.15654879325667823 -0.18062712895578434
0.3718964703339634 0.24321812618546287 -0.18062712895578434
0.6835152382476823 0.08523804778413463 -0.1792539402561205
0.23277132907801995 0.05136253886242708 -0.1792539402561205
0.5519320718498926 0.22132104792082297 -0.1785145309563015
0.728735398426613 -0.08305150885466964 -0.1785145309563015
0.5120567846096536 0.19860005643638473 -0.1785145309563015
0.1683793420537824 0.08407611888441906 -0.1785145309563015
0.22255691775052033 -0.07072449952768715 -0.1785145309563015
0.016789872600890016 0.053601892741878945 -0.1785145309563015
0.20947993613372146 0.026402193498537133 -0.1771413422566376
0.5980712121585982 -0.17567836814199556 -0.1771413422566376
0.42689795925049967 0.2599499023413671 -0.1764019329568186
0.7180879045092192 -0.05858762402065828 -0.1764019329568186
0.43916159063749766 0.13114480231289716 -0.1764019329568186
0.4859556363260429 0.08635772472386063 -0.1764019329568186
0.19910707995626065 -0.02316991855932809 -0.1764019329568186
0.03324701101686155 -0.01745534097072699 -0.1764019329568186
0.20859264497393862 0.13633123040162756 -0.17502874425715476
0.6660018008319696 -0.09205117633246665 -0.17502874425715476
0.8498612047269624 0.06098542275007151 -0.17502874425715476
0.7352316372750225 0.07937558833556978 -0.17428933495733576
0.45266109185419307 -0.09014983813293216 -0.17428933495733576
0.4498407735248835 -0.21778244627168894 -0.17428933495733576
0.23532757265739424 0.12291623310491145 -0.17428933495733576
0.010631649432397505 0.07294272742714454 -0.17428933495733576
0.18581883853951336 0.038253868275635955 -0.1729161462576719
0.43509483948849315 0.03316250709688228 -0.1729161462576719
0.5460379234313355 -0.20334283894522356 -0.1729161462576719
0.0176032228306909 -0.08986463740300196 -0.1721767369578529
0.1953783444871733 0.0054029693836775364 -0.1721767369578529
0.43941510239743564 -0.12201837895513101 -0.1721767369578529
0.5552065987490911 -0.21352556130273093 -0.1721767369578529
0.5571079369486254 0.22078233543095466 -0.1721767369578529
0.750209957091356 -0.03852850601556854 -0.17164858745798217
0.3490170339995641 0.020930564679876525 -0.17080354825818905
0.7109156343009749 -0.054056101311767524 -0.17080354825818905
0.5699630957754788 0.21402202183260968 -0.17080354825818905
0.1521123374577645 0.08972731853303582 -0.17006413895837005
0.25074953805361905 -0.0982305254809541 -0.17006413895837005
0.5213627787973756 -0.2130713527328422 -0.17006413895837005
0.6448335688771512 -0.1639745752248605 -0.17006413895837005
0.5948811891793792 0.1725834120727534 -0.17006413895837005
0.7338267596053666 -0.07981923391546089 -0.16953598945849932
0.4150040325134111 0.005339591443693049 -0.1686909502587062
0.7912154842613183 -0.05030623986268541 -0.1686909502587062
0.5639738804469447 0.2104517312134837 -0.1686909502587062
0.029666157407737967 -0.018046868410582166 -0.1679515409588872
0.21008202656357408 -0.05812285246077193 -0.1679515409588872
0.5390029720930574 0.20192739828557021 -0.1679515409588872
0.602454853007525 -0.19058274702834713 -0.1679515409588872
0.6035639669572537 0.2009661661958057 -0.1679515409588872
0.12642314578405295 -0.10596263415906135 -0.16742339145901647
0.6808744907483287 0.1722876483528259 -0.16657835225922332
0.5471364743910664 -0.2311657545984128 -0.16657835225922332
0.005867740943563583 -0.04293327284449016 -0.16657835225922332
0.1039873550295449 0.0996776551106 -0.16583894295940432
0.22631734218959976 -0.011719637402130969 -0.16583894295940432
0.44019676365724425 -0.2440103504352685 -0.16583894295940432
0.5777268934235784 0.1807169143707625 -0.16583894295940432
0.6778534756090682 -0.13857058428107913 -0.16583894295940432
0.5068175415709361 0.24199281934576267 -0.16583894295940432
0.18763567281906873 -0.03550749087630804 -0.16531079345953362
0.7823636986434852 0.05791159266082399 -0.16446575425974047
0.7323479410057284 0.08823793694340035 -0.16446575425974047
0.419208102532382 0.15377072688735852 -0.16446575425974047
0.1745270022322776 -0.01546949885121308 -0.16372634495992147
0.007515567383160273 -0.06534793761900327 -0.16372634495992147
0.20240273283545387 -0.020317911260026272 -0.16372634495992147
0.4970679018033226 -0.07259414875722955 -0.16372634495992147
0.5084864939905277 0.008592992362896722 -0.16372634495992147
0.5855223800416701 -0.20944824716372906 -0.16319819546005074
0.7463122137823102 -0.02525082758881873 -0.16235315626025762
0.6093102335158469 -0.1741678605723653 -0.16235315626025762
0.7742618853154685 0.05719330934099984 -0.16161374696043862
0.1597071272659053 -0.07932277338558245 -0.16161374696043862
0.04501418187398096 -0.07328074310706145 -0.16161374696043862
0.20374423256512544 -0.09574822283156159 -0.16161374696043862
0.20464208671490572 -0.02447972931900741 -0.16161374696043862
0.487973167415549 0.09923400953070859 -0.16161374696043862
0.5209402591974791 0.2217013155607299 -0.16161374696043862
0.7229046279480403 0.13055327487304197 -0.1610855974605679
0.6326966933701221 -0.15736214348647926 -0.16024055826077477
0.47110407238967833 0.13246517606257394 -0.16024055826077477
0.22165906360074003 0.12263103237498127 -0.15950114896095577
0.479279826647677 0.10346976851967182 -0.15950114896095577
0.4972897245932685 0.13324683732238257 -0.15950114896095577
0.6806737939383778 -0.13909873378094995 -0.15950114896095577
0.6283024895311978 0.18735047208913855 -0.15950114896095577
0.5044197428415229 -0.2320213567882034 -0.15812796026129192
0.6272673165114513 0.1766501632217578 -0.15812796026129192
0.22393010645018416 0.07681934475619548 -0.15738855096147292
0.5121518515196302 0.12982442856322035 -0.15738855096147292
0.4888287696053395 0.06567539030892348 -0.15738855096147292
0.5853216832317192 -0.1988746941763173 -0.15738855096147292
0.66902281597123 0.16132326473550976 -0.15738855096147292
0.5918179220801287 0.20018450493599693 -0.15686040146160218
0.7765540541449072 0.03159918457726501 -0.15601536226180904
0.5271196083459663 0.08062202115526461 -0.15601536226180904
0.20019506792599426 0.07451661293675928 -0.15527595296199
0.5052859080213111 -0.12251483948500945 -0.15527595296199
0.4178137878527234 -0.257636607531933 -0.15527595296199
0.704028564822661 -0.10962799168816403 -0.15527595296199
0.4588510039926778 0.24375683867533085 -0.15527595296199
0.427954258250241 0.055196904231488465 -0.15474780346211933
0.8081268312471785 -0.07812915551587464 -0.15390276426232619
0.7461009539823621 -0.03614127027615292 -0.1531633549625072
0.5183945786081021 -0.022536139159483205 -0.1531633549625072
0.5119722806896742 0.12794421634368064 -0.1531633549625072
0.49083573770484845 -0.2315671482183145 -0.1531633549625072
0.19118483745819992 -0.06935131082802334 -0.1531633549625072
0.19569523418709575 0.13055327487304197 -0.15179016626284333
0.4989586770128598 -0.24507721242500735 -0.15179016626284333
0.6994653531437778 0.11053640882794195 -0.15105075696302434
0.4464078017757238 -0.05033792883267766 -0.15105075696302434
0.5674385411660967 0.1938572739275459 -0.15105075696302434
0.6409992035080897 0.1724144042327949 -0.15105075696302434
0.24885876284408184 -0.1195255133157412 -0.15105075696302434
0.777515286234672 0.032856180386957305 -0.1505226074631536
0.5044619948015128 0.05305261726201333 -0.14967756826336048
0.5173171536283658 -0.024680426128958335 -0.14893815896354148
0.49756436233320106 -0.1059415081790664 -0.14893815896354148
0.6503791386257937 0.1585029464062002 -0.14893815896354148
0.7899901774216184 -0.009607039402648232 -0.14893815896354148
0.732052177285801 0.07035479487777799 -0.14893815896354148
0.20111404805576932 0.012881566301846835 -0.14893815896354148
0.673744472500074 -0.10733582285872514 -0.14756497026387763
0.5095216670102741 -0.05804891153079013 -0.14756497026387763
0.2161346198320924 0.08488946911422009 -0.14682556096405863
0.44037633448720026 -0.12685622837394675 -0.14682556096405863
0.5789733262432732 0.1975965723866304 -0.14682556096405863
0.5118877767696951 -0.21777188328169148 -0.14682556096405863
0.5166516852585289 0.2182577808215729 -0.14682556096405863
0.6955887358147268 -0.13378554981225058 -0.1462974114641879
0.5031838730118255 -0.2066807437844065 -0.14545237226439475
0.21783526122167612 -0.024268469519059165 -0.14471296296457573
0.5425310107521938 -0.2234019569503133 -0.14471296296457573
0.6146022915045515 -0.10775834245862163 -0.14471296296457573
0.7916696928312073 0.04396844586423705 -0.14471296296457573
0.4894519860151872 0.11132863307774805 -0.14471296296457573
0.44974570661490676 0.04088405278499206 -0.14471296296457573
0.32119411834637485 0.07489688057666605 -0.1433397742649119
0.6027400537374553 0.20538149601472466 -0.1433397742649119
0.20401887030505816 -0.05801722256079788 -0.1426003649650929
0.5153735634688417 -0.03521172715638038 -0.1426003649650929
0.4989903659828522 0.039468612125338545 -0.1426003649650929
0.5964973266489834 -0.1601930248057863 -0.1426003649650929
0.764892513187762 -0.06894991720812163 -0.1426003649650929
0.5098913716601835 -0.24261603575560992 -0.14207221546522217
0.4324963439491293 -0.1632774178850311 -0.14122717626542905
0.673744472500074 0.1276907045837427 -0.14122717626542905
0.2048322205348592 0.10125154062021474 -0.14048776696561005
0.49494474081384243 -0.0807276510552385 -0.14048776696561005
0.5394783066429412 -0.22483852358996162 -0.14048776696561005
0.7973103294898264 0.014888534401355524 -0.14048776696561005
0.750209957091356 -0.09806151764099541 -0.13995961746573932
0.6628223408427477 0.11306096343732386 -0.1391145782659462
0.25768942248192017 0.13010962929315056 -0.1383751689661272
0.4990854328928288 0.01413856211153913 -0.1383751689661272
0.45468918593369667 -0.13321514835239018 -0.1383751689661272
0.6702164338409379 -0.12255709144499916 -0.1383751689661272
0.7497557485214671 0.08202689882492081 -0.1383751689661272
0.71645064105962 -0.06421769768927996 -0.13700198026646335
0.6027400537374553 0.19790289909655537 -0.13700198026646335
0.6590091014536812 0.172139766492862 -0.13626257096664435
0.6631286675526726 -0.13288769566247027 -0.13626257096664435
0.504113416131598 0.11653618714647324 -0.13626257096664435
0.48811048628551545 -0.10071282813034645 -0.13626257096664435
0.19654027338688887 0.03157805859727008 -0.13626257096664435
0.5870751395712899 0.20011056400601498 -0.13488938226698047
0.43038374594964635 0.014370947891482305 -0.13488938226698047
0.20080772134584435 0.04186641085475163 -0.13414997296716144
0.5149193548989528 -0.06735490571851212 -0.13414997296716144
0.4796072793375969 0.11876497803592764 -0.13414997296716144
0.636721192559137 -0.11190959752760546 -0.13414997296716144
0.6492700246760653 0.18017820188089423 -0.13414997296716144
0.32119411834637485 0.01925104927028759 -0.13277678426749762
0.7065108674720532 0.09150190085260133 -0.13277678426749762
0.22427868512009883 0.12372958333471235 -0.13203737496767862
0.5031204950718411 0.1215113554352554 -0.13203737496767862
0.4473373448954963 0.1118356565976238 -0.13203737496767862
0.6459743717968719 -0.11321940828728493 -0.13203737496767862
0.48567043559611284 0.23122913253839744 -0.13203737496767862
0.23771480839680986 -0.008571866382901493 -0.13066418626801476
0.7608363250287548 -0.05633770715120895 -0.13066418626801476
0.45230195019428104 0.07980867092546373 -0.12992477696819577
0.5585233776082791 0.20566669674465501 -0.12992477696819577
0.6495024104560083 0.15145743207792484 -0.12992477696819577
0.22511316132989448 -0.006744469113348951 -0.12992477696819577
0.4368905477880536 0.005339591443693049 -0.1285515882685319
0.7229046279480403 -0.09860023013086355 -0.1285515882685319
0.5205071766075852 0.09237862902238671 -0.12781217896871291
0.488638635785386 -0.09906500169074975 -0.12781217896871291
0.6567697475742292 -0.10066001318035926 -0.12781217896871291
0.4817938182670616 0.2468517947445733 -0.12781217896871291
0.6808850537383262 0.1583761905262312 -0.12728402946884218
0.6416012939379425 -0.1641963980148062 -0.12643899026904906
0.515352437488847 0.02421565456907244 -0.12643899026904906
0.515690453168764 -0.035327920046351886 -0.12569958096923006
0.4935398631441865 -0.11725447046629708 -0.12569958096923006
0.7021377896131237 0.1080541061785496 -0.12569958096923006
0.5293378362454233 0.22822924337913186 -0.12569958096923006
0.6792055383287374 0.1861991061794206 -0.12517143146935933
0.7641847928579352 0.08523804778413463 -0.12432639226956617
0.22796516862919647 0.10678654737885984 -0.12432639226956617
0.2051491102347815 0.11815232461607769 -0.12358698296974717
0.5223979518171223 0.02930701574782612 -0.12358698296974717
0.5242464750666697 0.13151450696280662 -0.12358698296974717
0.6711671029407049 -0.030806960327458603 -0.12358698296974717
0.5043563649015385 0.22485964956995683 -0.12358698296974717
0.49084630069484564 0.24184493748579874 -0.12221379427008332
0.19031867227841187 0.10324794572972612 -0.12221379427008332
0.7845713635529449 -0.06421769768927996 -0.12221379427008332
0.4683471320003533 0.2623582640607774 -0.12147438497026432
0.484962715266286 -0.03549692788631058 -0.12147438497026432
0.6927367285154249 0.0957482228315619 -0.12147438497026432
0.21472974216243634 -0.026455008448524005 -0.12147438497026432
0.5645020299468155 -0.20334283894522356 -0.1209462354703936
0.5437880065618861 -0.1918503058280369 -0.12010119627060047
0.8116971218663045 0.06098542275007151 -0.12010119627060047
0.7926943028609564 0.042067107664702556 -0.11936178697078147
0.68809957590656 -0.08144593437506266 -0.11936178697078147
0.4796706572775814 0.10914209414828321 -0.11936178697078147
0.2765021076673151 0.1088463304283557 -0.11936178697078147
0.6191232512234448 0.1722876483528259 -0.11883363747091075
0.5891032336507935 0.24184493748579874 -0.11798859827111763
0.5310701666049995 6.60186874838543E-4 -0.11798859827111763
0.6024442900175275 -0.17242496722279188 -0.11724918897129862
0.786979725272355 0.012110468032035662 -0.11724918897129862
0.5198628342177428 -0.020349600230018517 -0.11724918897129862
0.497944629973108 0.09168147168255748 -0.11724918897129862
0.22335970499032376 0.12640201980405816 -0.11724918897129862
0.4989586770128598 0.2670799205896216 -0.11587600027163478
0.5000889169425832 -0.22956018011880583 -0.11587600027163478
0.1999415561660563 -0.039870005745240106 -0.11513659097181576
0.6910572131058361 0.1550594116670432 -0.11513659097181576
0.448045065225323 0.05781652575084725 -0.11513659097181576
0.5415486526824344 -0.23474660820753623 -0.11513659097181576
0.7265066075371583 0.12584218133419522 -0.11513659097181576
0.7961061486301211 0.035084971276411706 -0.11460844147194504
0.6628223408427477 0.1861991061794206 -0.11376340227215188
0.5114969461397907 -0.0069768548932919745 -0.11376340227215188
0.21879649331144077 0.0665838074487011 -0.11302399297233288
0.45252377298422675 0.12468025243447967 -0.11302399297233288
0.5124053632795682 0.14365138246983564 -0.11302399297233288
0.629221469660973 -0.18824832623891855 -0.11302399297233288
0.5422141210522713 -0.20672299574439607 -0.11302399297233288
0.5481188324608258 -0.21111719958332054 -0.11249584347246219
0.7065108674720532 0.1458484843892978 -0.11165080427266903
0.23307765578794493 -0.013251270951756147 -0.11165080427266903
0.20096616619580557 -0.11140257400772971 -0.11091139497285003
0.5147186580890021 -0.13672206103153164 -0.11091139497285003
0.7888388115119002 0.018205313260543685 -0.11091139497285003
0.7117923624707603 0.09160753075257554 -0.11091139497285003
0.7737337358155977 -0.008571866382901493 -0.11038324547297931
0.4603192596023185 0.1861991061794206 -0.10953820627318618
0.25030589247372764 -0.11909243072584724 -0.10879879697336718
0.5932967406797669 0.21737048966179007 -0.10879879697336718
0.44015451169725456 0.14145428055037348 -0.10879879697336718
0.5627908255672344 -0.19744869052666633 -0.10879879697336718
0.7205385181886194 -0.03193720025718193 -0.10879879697336718
0.8220382890737733 0.07757988003600932 -0.10742560827370334
0.21678952521193207 0.0960756755214818 -0.10668619897388433
0.2746324584377727 0.1365108012315837 -0.10668619897388433
0.7693184059966784 -0.03260266862701905 -0.10668619897388433
0.49545176433371835 0.25923161902154285 -0.10668619897388433
0.4862197110759783 0.05492226649155573 -0.10668619897388433
0.8157533100253118 0.04707396492347682 -0.10615804947401361
0.7977856640397102 0.07489688057666605 -0.10531301027422049
0.2516262662234044 -0.10945898384820535 -0.10457360097440148
0.6896417724461827 0.1502743771982145 -0.10457360097440148
0.6601182154034096 0.15805930082630876 -0.10457360097440148
0.5096378599002456 0.14429572485967798 -0.10457360097440148
0.5214050307573652 -0.010864035212340528 -0.10457360097440148
0.7010498016433899 -0.1616084654654398 -0.1032004122747376
0.20228653994548235 -0.029433771627794796 -0.1024610029749186
0.546460443031232 0.2296869359987751 -0.1024610029749186
0.7271615129169982 0.10381834718958637 -0.1024610029749186
0.6949549564148819 0.15106660144802045 -0.1024610029749186
0.48782528555558513 0.01968413186018169 -0.1024610029749186
0.555259413699078 -0.24507721242500735 -0.10193285347504791
0.6272673165114513 -0.2311657545984128 -0.10108781427525475
0.2069553815243394 -0.05196462929227942 -0.10034840497543575
0.5019374401921307 -0.03369065659675266 -0.10034840497543575
0.5000255390025986 -3.3273418491848753E-4 -0.10034840497543575
0.49405744965405957 -0.22631734218959962 -0.10034840497543575
0.7446326983727214 -0.11739178933626353 -0.10034840497543575
0.7010498016433899 0.1676821847139532 -0.09982025547556503
0.5076097658207422 0.22793347965920435 -0.0989752162757719
0.25489023013260537 -0.12455349655451038 -0.0982358069759529
0.6807688608483546 -0.15302075459754197 -0.0982358069759529
0.6838426909376022 -0.13445101818208754 -0.0982358069759529
0.5032578139418076 -0.11377924675714786 -0.0982358069759529
0.5080005964506467 0.12918008617337817 -0.0982358069759529
0.6091729146458804 0.2146452382424571 -0.09770765747608218
0.7954934952102711 0.07917489152561885 -0.09686261827628906
0.2033534019352212 0.03735601412585581 -0.09612320897647005
0.5216902314872955 0.0899702673029763 -0.09612320897647005
0.4900118244850501 -0.10101915484027142 -0.09612320897647005
0.6624209472228461 -0.1443379768196674 -0.09612320897647005
0.7602342345989023 0.017487029940719538 -0.09612320897647005
0.2516262662234044 -0.008571866382901493 -0.09475002027680621
0.5543509965593003 -0.24843624324418523 -0.09475002027680621
0.22196539031066517 -0.07043929879775711 -0.0940106109769872
0.46329802278158927 0.10678654737885984 -0.0940106109769872
0.5008917041823868 -0.2229160594104322 -0.0940106109769872
0.7370695975345727 0.13122930623287657 -0.0940106109769872
0.5863568562514656 0.18629417308939716 -0.09348246147711647
0.6573612750140845 0.17365027406249225 -0.09263742227732331
0.6550902321646405 -0.13781004900126542 -0.09263742227732331
0.23588741112725717 -0.11482498276689192 -0.09189801297750431
0.45548141018350274 0.09323423121217729 -0.09189801297750431
0.5841069393820164 -0.2071666413242875 -0.09189801297750431
0.7370801605245701 -0.08740346073360439 -0.09189801297750431
0.6628223408427477 0.20011056400601498 -0.09136986347763362
0.6027400537374553 -0.19418472661746533 -0.09052482427784046
0.24474975973508775 0.1060048861190512 -0.08978541497802146
0.5060147543311326 0.011413310692206292 -0.08978541497802146
0.49552570526370027 0.04370437111430178 -0.08978541497802146
0.6371965271090207 -0.1818260283204906 -0.08978541497802146
0.7068277571719755 0.1539502977173145 -0.08978541497802146
0.7556710229200192 0.11075823161788766 -0.08841222627835761
0.5245739277565896 0.06098542275007151 -0.08841222627835761
0.6995815460337492 0.12765901561375045 -0.08767281697853861
0.5328447489245648 -0.2207295204809675 -0.08767281697853861
0.48500496722627556 -0.032750550486982805 -0.08767281697853861
0.20971232191366448 -0.10214939476999474 -0.08767281697853861
0.808211335167158 0.05591518755131261 -0.08629962827887473
0.4324963439491293 -0.09205117633246665 -0.08629962827887473
0.5414324597924628 0.2220287682506498 -0.08556021897905573
0.22372940964023322 -0.10256135137989392 -0.08556021897905573
0.4895998678751508 -0.07386170755691931 -0.08556021897905573
0.6558718934244492 -0.1798718751709691 -0.08556021897905573
0.8119189446562504 -0.031556932617275 -0.08418703027939192
0.7119402443307241 0.13055327487304197 -0.08418703027939192
0.23603529298722092 -0.10519153588925002 -0.08344762097957291
0.5873709032912174 0.21849016660151593 -0.08344762097957291
0.4519956234843559 0.032729424506988326 -0.08344762097957291
0.6838849428975917 -0.15085534164807204 -0.08344762097957291
0.41908134665241303 0.14446473269963653 -0.08207443227990903
0.7942153734205839 -0.10596263415906135 -0.08207443227990903
0.21907113105137363 -0.07516095532660116 -0.08133502298009003
0.4709350645497198 0.2729106910681942 -0.08133502298009003
0.5048105734714273 -0.10599432312905359 -0.08133502298009003
0.7773462783947135 -0.0422044265346687 -0.08133502298009003
0.28132939409613333 0.14705266524900307 -0.07996183428042622
0.6924304018054999 -0.1514257431079323 -0.07996183428042622
0.5859660256215615 0.21485649804240547 -0.07922242498060722
0.555407295559042 -0.2042301301050064 -0.07922242498060722
0.4856915615761075 -0.11243774702747629 -0.07922242498060722
0.22390898047018937 0.0895688736830746 -0.07922242498060722
0.839805238249424 0.023233296499312876 -0.07784923628094333
0.20780042072413252 -0.037102502365917556 -0.07784923628094333
0.204779405584872 0.07286878649716258 -0.07710982698112433
0.4859133843660533 0.034757518586491794 -0.07710982698112433
0.46407968404139793 0.09242088098237641 -0.07710982698112433
0.70411306874264 0.1588303990961201 -0.07710982698112433
0.32119411834637485 0.04707396492347682 -0.07573663828146045
0.7838742062131154 -0.02481774499892478 -0.07573663828146045
0.19913876892625287 0.014782904501381477 -0.07499722898164143
0.4912582573047449 -0.09925513551070321 -0.07499722898164143
0.4822057748769609 0.033468833806807256 -0.07499722898164143
0.7274150246769361 0.14383095329979165 -0.07499722898164143
0.5073562540608043 -0.23464097830756203 -0.07499722898164143
0.5371967008034996 -0.2589992332415995 -0.07362404028197764
0.5716109222150754 0.2591154261315713 -0.07362404028197764
0.19987817822607182 0.10240290652993284 -0.07288463098215862
0.4964763743634676 0.11740235232626114 -0.07288463098215862
0.5166411222685314 0.04145445424485246 -0.07288463098215862
0.8189222070245359 -0.023845949919162678 -0.07288463098215862
0.48958930488515334 -0.1198529660056611 -0.07235648148228786
0.568262454385895 -0.1931178646277265 -0.07151144228249474
0.25149951034343543 0.13494747871196627 -0.07077203298267574
0.4556504180234613 -0.12211344586510775 -0.07077203298267574
0.4821423969369764 0.06943581474800291 -0.07077203298267574
0.7101656620111585 0.12738437787381773 -0.07077203298267574
0.5262323171861837 -0.21678952521193193 -0.07077203298267574
0.5352953626039649 -0.11853259225598431 -0.06939884428301193
0.8079261344372276 -0.05811228947077462 -0.06939884428301193
0.20521248817476598 -0.11067372769790809 -0.06865943498319294
0.4489640453550981 -0.013779420451626832 -0.06865943498319294
0.5281019664157259 0.2535804193729262 -0.06865943498319294
0.6902755518460276 -0.12529290585432948 -0.06865943498319294
0.23178897100826037 0.08880833840326074 -0.06728624628352904
0.7348196806651235 0.11574396289666714 -0.06728624628352904
0.2144867933924957 0.004568493173881877 -0.06654683698371004
0.45179492667440513 -0.12738437787381743 -0.06654683698371004
0.5437880065618861 -0.24439061807517545 -0.06654683698371004
0.81412660956571 0.04439096546413369 -0.06654683698371004
0.5645020299468155 0.25421419877277107 -0.06601868748383936
0.6550902321646405 -0.21725429677181812 -0.06517364828404616
0.8032256038883784 -0.04944007468289751 -0.06443423898422715
0.5234225618468713 0.027564122398252695 -0.06443423898422715
0.481772692287067 0.13529605738188097 -0.06443423898422715
0.23806338706672456 -0.11929312753579817 -0.06443423898422715
0.6550902321646405 -0.13378554981225058 -0.06306105028456335
0.43632014632819316 0.030828086307453685 -0.06306105028456335
0.21213124662307234 0.09555808901160842 -0.062321640984744346
