0.5470284080740362 0.5134340915398294 -0.1115995182993238
0.6587805410992392 0.46137339317421305 -0.1115995182993238
0.4950630939120945 0.2366959014186086 -0.1115995182993238
0.5595046619146784 0.2898535181264831 -0.1115995182993238
0.4514057438902136 0.22288426872652128 -0.1115995182993238
0.6949311542919264 0.21683691021354937 -0.1115995182993238
0.6069678416631772 0.4597423232913769 -0.1115995182993238
0.5188614527289162 0.2523866029230862 -0.1115995182993238
0.6855739639114444 0.2522149113564718 -0.1115995182993238
0.4933938703477883 0.5236402013330154 -0.1115995182993238
0.3404452997555099 0.5249088112418882 -0.1115995182993238
0.3842838797643725 0.3221696863314497 -0.1115995182993238
0.3043614555053952 0.46578014338398127 -0.1115995182993238
0.2825375497046385 0.3059448332863941 -0.1115995182993238
0.34394590003036907 0.5080830377136822 -0.1115995182993238
0.2766332674971786 0.3237244488513462 -0.1115995182993238
0.40387579519914274 0.5599052755701118 -0.1115995182993238
0.4125080656316973 0.4575389481864927 -0.1115995182993238
0.1127727440045218 0.4685749005516482 -0.1115995182993238
0.14289507552497177 0.533283544324521 -0.11112259728095063
0.23572298254112728 0.30715621267306203 -0.11035952365155355
0.3789709796196953 0.4677832116611487 -0.11035952365155355
0.23967188857325722 0.4327867473329247 -0.11035952365155355
0.4624321578350017 0.5730873725179465 -0.11035952365155355
0.7039068078577093 0.40099519224816865 -0.11035952365155355
0.715276604935726 0.2857329205277388 -0.10969183422583109
0.612729047565125 0.32608043868210973 -0.10969183422583109
0.673174017433742 0.222836576624684 -0.10969183422583109
0.4719705782024653 0.5353438431238932 -0.10969183422583109
0.713855380300974 0.24130295845609356 -0.10969183422583109
0.43987379366595025 0.25714627468645046 -0.10969183422583109
0.542955502577129 0.2838729285560834 -0.10969183422583109
0.5015682966027045 0.22144396725103432 -0.10969183422583109
0.49967015094957945 0.24450786769956132 -0.10969183422583109
0.5380718313489876 0.2763757301472571 -0.10969183422583109
0.6870905727498713 0.25509551430744587 -0.10969183422583109
0.16236299149496491 0.49593109016553366 -0.10969183422583109
0.4540765015931034 0.48248191744741004 -0.10969183422583109
0.3358382427180249 0.32270383787202767 -0.10969183422583109
0.3008227015490662 0.3954342931739374 -0.10969183422583109
0.3948619879518896 0.4434507013037491 -0.10969183422583109
0.3001073200215064 0.40704255076114054 -0.10969183422583109
0.27674772854158813 0.3325761029523524 -0.10969183422583109
0.4342652024898816 0.5445293419377606 -0.10969183422583109
0.11306843503591323 0.48132776858294685 -0.10969183422583109
0.059042822074599516 0.2694699138012134 -0.10921491320745791
0.5719904541756883 0.4704730462047734 -0.10921491320745791
0.27947571676668276 0.4704730462047734 -0.10845183957806083
0.4042954856953111 0.6086656804885855 -0.10845183957806083
0.1894234900774591 0.2945941130491125 -0.10845183957806083
0.4491546766834923 0.33548532116442886 -0.10845183957806083
0.4227618675267205 0.2602081076244064 -0.10778415015233839
0.7090480164357723 0.2781117226541355 -0.10778415015233839
0.6904194814581159 0.3967792104457498 -0.10778415015233839
0.6001478711004407 0.49647478012647894 -0.10778415015233839
0.6009586368316752 0.24217095470953268 -0.10778415015233839
0.48649759242211227 0.3306970341399622 -0.10778415015233839
0.5134913220620341 0.24100726742470213 -0.10778415015233839
0.459971245380196 0.22474426069817674 -0.10778415015233839
0.4393873342272096 0.273104051961217 -0.10778415015233839
0.5318337044286665 0.2748972749903002 -0.10778415015233839
0.6866613438333353 0.4182215794318078 -0.10778415015233839
0.49118095682253676 0.5290580241017347 -0.10778415015233839
0.21615968236745947 0.423820632187509 -0.10778415015233839
0.30949312566309056 0.4417528624783405 -0.10778415015233839
0.3194321596859876 0.3134324932748531 -0.10778415015233839
0.35793876270943814 0.5204352920895474 -0.10778415015233839
0.26291701900876596 0.33150779987119655 -0.10778415015233839
0.40130042169992747 0.5939669747023242 -0.10778415015233839
0.2693268374957014 0.3080719010283386 -0.10778415015233839
0.36224059029516414 0.5353438431238932 -0.10778415015233839
0.12497238365450768 0.4826249937529219 -0.10778415015233839
0.5693673885746358 0.4372125743834278 -0.10730722913396519
0.2282830146545057 0.293802424158613 -0.10730722913396519
0.49093295789298286 0.4955972454526725 -0.10654415550456811
0.29085505226506675 0.40766254808502567 -0.10654415550456811
0.15476087046209647 0.5443385735304112 -0.10654415550456811
0.2704046789972248 0.297608253885231 -0.10654415550456811
0.3806974337062062 0.4704730462047734 -0.10654415550456811
0.6781626112859253 0.21178154741879368 -0.10587646607884565
0.7004443612643201 0.2920187395498973 -0.10587646607884565
0.6953603832084622 0.4112966862450293 -0.10587646607884565
0.6709229502270203 0.20040221192040963 -0.10587646607884565
0.6082555284127847 0.23298545589566533 -0.10587646607884565
0.43230028789418407 0.28512246162422117 -0.10587646607884565
0.4649789160731144 0.32575613238961604 -0.10587646607884565
0.48886312067324317 0.2964541050207679 -0.10587646607884565
0.49986091935692856 0.24779862272633624 -0.10587646607884565
0.6597820752378231 0.24321064252958616 -0.10587646607884565
0.542478581558756 0.5178026880681277 -0.10587646607884565
0.2842830806318843 0.27969510043513435 -0.10587646607884565
0.3375837736452708 0.5342469247816348 -0.10587646607884565
0.3053057591217741 0.43538119767287486 -0.10587646607884565
0.41075299628408385 0.5591612787814496 -0.10587646607884565
0.29622518293194877 0.30937866461868097 -0.10587646607884565
0.4130708324333776 0.5977728044289422 -0.10587646607884565
0.27378127980730693 0.3079955936653988 -0.10587646607884565
0.34353574795456804 0.5316715512824198 -0.10587646607884565
0.12706129771498229 0.4882622001900929 -0.10587646607884565
0.06425079959523455 0.2813834008401755 -0.10587646607884565
0.14411599333200711 0.4885197375400146 -0.10539954506047249
0.5540773007255915 0.3448425115449106 -0.10463647143107538
0.5144070104173106 0.5133196304954198 -0.10463647143107538
0.23967188857325722 0.4327867473329247 -0.10463647143107538
0.21296431154435924 0.4330252078421114 -0.10463647143107538
0.059042822074599516 0.2662363892966432 -0.10463647143107538
0.6140071958943653 0.21894490111475887 -0.10396878200535295
0.5957601977314074 0.5031421359633361 -0.10396878200535295
0.6776475365860822 0.22868362830993919 -0.10396878200535295
0.6274182149310191 0.2144332282809486 -0.10396878200535295
0.597686958645635 0.27549819547345045 -0.10396878200535295
0.5046778216424976 0.33434071072033317 -0.10396878200535295
0.5087411887190373 0.33786038783592726 -0.10396878200535295
0.5203303694655056 0.24368756354795945 -0.10396878200535295
0.519309758486187 0.32132076691874545 -0.10396878200535295
0.6774758450194679 0.24029188589714234 -0.10396878200535295
0.6015500188944578 0.3198327733414211 -0.10396878200535295
0.2474361627523725 0.45751987134575783 -0.10396878200535295
0.4119929909318542 0.5363453772624768 -0.10396878200535295
0.28589507367398576 0.428923687084102 -0.10396878200535295
0.4093508484900668 0.5272361858115492 -0.10396878200535295
0.27510712023838446 0.33541855222185657 -0.10396878200535295
0.4569189508626076 0.5554985253603437 -0.10396878200535295
0.2745825071181739 0.31764847507727195 -0.10396878200535295
0.3448138962838082 0.531099246060372 -0.10396878200535295
0.17546878107985994 0.4252037031407912 -0.10396878200535295
0.5853156274290348 0.3332628692188098 -0.10349186098697977
0.28495077005760683 0.40766254808502567 -0.10349186098697977
0.4930791024756621 0.35858737529442564 -0.10272878735758267
0.4532466590211342 0.3699667107928096 -0.10272878735758267
0.352606785724026 0.564970176785235 -0.10272878735758267
0.22844516780075252 0.27879848892059284 -0.10272878735758267
0.12810098553503577 0.5458456439484706 -0.10272878735758267
0.48727974289224424 0.21770490646698865 -0.10206109793186022
0.6945686943179626 0.3031786913798297 -0.10206109793186022
0.6483932013190714 0.4653032223656081 -0.10206109793186022
0.6020937088554034 0.2829190865193371 -0.10206109793186022
0.7032486568523545 0.300488856836205 -0.10206109793186022
0.4613257010723758 0.3070989821508573 -0.10206109793186022
0.5295063298590054 0.25954995661905134 -0.10206109793186022
0.4370313443964461 0.25158537561221916 -0.10206109793186022
0.5135199373231366 0.3119158844364263 -0.10206109793186022
0.4884243533363399 0.3191078533934939 -0.10206109793186022
0.6640839028235491 0.24251433784276138 -0.10206109793186022
0.14529875745757256 0.5026270612634931 -0.10206109793186022
0.23518883100054935 0.2824707807620662 -0.10206109793186022
0.35979875468109346 0.5469139470296265 -0.10206109793186022
0.3105137366424091 0.43954948737345645 -0.10206109793186022
0.4497651355870099 0.5369749130067294 -0.10206109793186022
0.31699986249228446 0.38724079007828627 -0.10206109793186022
0.3536750888051819 0.5268928026783205 -0.10206109793186022
0.39963119813562137 0.5277989526132295 -0.10206109793186022
0.09568943312639457 0.4259000078276161 -0.10206109793186022
0.07978888637383276 0.3400637629408114 -0.10206109793186022
0.5621181890953635 0.4704730462047734 -0.10158417691348705
0.18727734549477984 0.5081593450766221 -0.10158417691348705
0.18879395433320648 0.5081593450766221 -0.10082110328408997
0.08642762694958739 0.27090067685633296 -0.10082110328408997
0.2548189001167893 0.38252881041675924 -0.10082110328408997
0.4163615874601525 0.5097904149594582 -0.10082110328408997
0.5756436691764268 0.40766254808502567 -0.10082110328408997
0.5046968984832326 0.34937326121945583 -0.10015341385836751
0.6926514718241026 0.26658931085023946 -0.10015341385836751
0.48573451879271506 0.32728227964841017 -0.10015341385836751
0.4683459784628289 0.3214829200649923 -0.10015341385836751
0.5498613189231728 0.272197902026308 -0.10015341385836751
0.6238985378154251 0.24919123209998592 -0.10015341385836751
0.6080266063239655 0.5007479924511027 -0.10015341385836751
0.7133021519196611 0.28964367287839893 -0.10015341385836751
0.6339424944623642 0.24377340933126648 -0.10015341385836751
0.6109453629564096 0.37231316220320576 -0.10015341385836751
0.4621078515425078 0.28756429723829185 -0.10015341385836751
0.522524206150022 0.28840367823062857 -0.10015341385836751
0.4245741673965387 0.571475379475845 -0.10015341385836751
0.24928661630366047 0.4545248073503743 -0.10015341385836751
0.30506729861258747 0.27243636253549464 -0.10015341385836751
0.381517737857808 0.5433465778121951 -0.10015341385836751
0.3086346678300189 0.313451570115588 -0.10015341385836751
0.34968802909158214 0.4694905889069246 -0.10015341385836751
0.3744783836266199 0.45962786224696733 -0.10015341385836751
0.2972362554908999 0.31325126328787123 -0.10015341385836751
0.0732646068424877 0.2715206741802181 -0.10015341385836751
0.07780489493740035 0.28043909722379656 -0.10015341385836751
0.5049162821516843 0.5266638805895014 -0.09967649283999433
0.08864054047483894 0.25690781417726394 -0.09967649283999433
0.5393595180985954 0.345529277811368 -0.09891341921059726
0.2711295989451521 0.3008894704916385 -0.09891341921059726
0.28992982548942287 0.3448425115449106 -0.09891341921059726
0.13615141232517508 0.5488788616253238 -0.09891341921059726
0.42812245977323515 0.6463519793604343 -0.09891341921059726
0.5115264074663366 0.3375170047026985 -0.09824572978487481
0.6883114905569064 0.310055892464771 -0.09824572978487481
0.6011303283982895 0.4998323040958262 -0.09824572978487481
0.5981066491418036 0.2754791186327155 -0.09824572978487481
0.5529613055425984 0.5288958709554876 -0.09824572978487481
0.5312137071047814 0.28895690661194157 -0.09824572978487481
0.543279808869623 0.3228278373368047 -0.09824572978487481
0.4839985262858368 0.2373063603221262 -0.09824572978487481
0.50865534293573 0.25659304630513763 -0.09824572978487481
0.6633303676145194 0.31406202901910574 -0.09824572978487481
0.535649072575652 0.5258817301193691 -0.09824572978487481
0.39556783105908183 0.5696916948671296 -0.09824572978487481
0.14883751141390164 0.5267783416339109 -0.09824572978487481
0.45128174442543667 0.48434190941906535 -0.09824572978487481
0.37193162538850716 0.4868695908164434 -0.09824572978487481
0.3379080799377645 0.4863354392758653 -0.09824572978487481
0.3864681780285217 0.3106186592664513 -0.09824572978487481
0.295757800333943 0.44750452995992107 -0.09824572978487481
0.23956696594921517 0.2989722479977783 -0.09824572978487481
0.15206149749810427 0.33352040656873133 -0.09824572978487481
0.06774186144972622 0.27538373442904085 -0.09824572978487481
0.18234598216480108 0.5081593450766221 -0.09776880876650162
0.20198558970140856 0.4453488469568743 -0.09700573513710453
0.290406746507796 0.2542275180540066 -0.09700573513710453
0.13173512369503937 0.5300595582403184 -0.09700573513710453
0.39042662248101895 0.4377848796054757 -0.09700573513710453
0.43134644585743775 0.40766254808502567 -0.09700573513710453
0.4978864663408637 0.27871264313728566 -0.09633804571138208
0.6824262851901816 0.22432457020200838 -0.09633804571138208
0.5986503391027488 0.5013298360935181 -0.09633804571138208
0.6738035531779946 0.238431893925487 -0.09633804571138208
0.6941013117199569 0.23616174987803068 -0.09633804571138208
0.6141025800980399 0.25345490600424203 -0.09633804571138208
0.4744124138165357 0.2428863362370925 -0.09633804571138208
0.4389485668903062 0.2837680059320414 -0.09633804571138208
0.4561844924943129 0.27417235504237303 -0.09633804571138208
0.5000803030253802 0.25517182167038555 -0.09633804571138208
0.6464950556659463 0.25369336651342866 -0.09633804571138208
0.4382904158849512 0.5251186564899722 -0.09633804571138208
0.4305833722280407 0.4404174836268957 -0.09633804571138208
0.145842447418518 0.5302503266476677 -0.09633804571138208
0.07010738970085723 0.29027320862265144 -0.09633804571138208
0.03353708601200185 0.36043782884571357 -0.09633804571138208
0.3341022502111467 0.5403419753964441 -0.09633804571138208
0.3116488086661373 0.41048592051379496 -0.09633804571138208
0.288451370332466 0.3175721677143323 -0.09633804571138208
0.390941697180862 0.5177454575459229 -0.09633804571138208
0.4016724200942586 0.5531711507906826 -0.09633804571138208
0.2819080139603859 0.3448425115449106 -0.0958611246930089
0.41555082172891805 0.3574046111688602 -0.09509805106361181
0.47837085826903325 0.5458456439484706 -0.09509805106361181
0.2687259170125512 0.36750579833800406 -0.09509805106361181
0.3306398036177574 0.25690781417726394 -0.09509805106361181
0.16466175080352363 0.4625943109812484 -0.09509805106361181
0.43384551199371324 0.26152440963511625 -0.09443036163788937
0.5193002200658194 0.3360290111253743 -0.09443036163788937
0.69525546058442 0.2753360423272036 -0.09443036163788937
0.6014832499518855 0.2804200203830617 -0.09443036163788937
0.6704078755271773 0.3067365221768937 -0.09443036163788937
0.7031151189672099 0.26833484177748523 -0.09443036163788937
0.45122451390323187 0.24550940183814488 -0.09443036163788937
0.4759576379160648 0.3229613752219492 -0.09443036163788937
0.5468948701888916 0.2667514639964863 -0.09443036163788937
0.6669072752523182 0.25119430037715323 -0.09443036163788937
0.49216341412038556 0.26218256064047124 -0.09443036163788937
0.3291136563589631 0.5564142137156203 -0.09443036163788937
0.4504900555349372 0.558245590426173 -0.09443036163788937
0.4072523960092248 0.48426560205612557 -0.09443036163788937
0.39810505087682724 0.4492119072056971 -0.09443036163788937
0.2972934860131047 0.31823031871968727 -0.09443036163788937
0.30173838990434276 0.41156376201531836 -0.09443036163788937
0.25588720319794533 0.320510001187511 -0.09443036163788937
0.14501260484654863 0.4998704577772962 -0.09443036163788937
0.0283195700709993 0.38881462943891765 -0.09443036163788937
0.09278975333468562 0.46252754203867624 -0.09443036163788937
0.5537434560127303 0.33119303199907024 -0.09395344061951619
0.02610665654574776 0.2945941130491125 -0.09395344061951619
0.3218739953000583 0.2734951271962831 -0.0931903669901191
0.4133951387258713 0.4680693642721725 -0.0931903669901191
0.43745103489261444 0.570979381616737 -0.0931903669901191
0.2592733424283948 0.40766254808502567 -0.0931903669901191
0.013544556921798293 0.27097698421927263 -0.0931903669901191
0.4867932834535034 0.22963747034668547 -0.09252267756439665
0.4780751672376418 0.23510298521724218 -0.09252267756439665
0.5565668284414997 0.5214749799096011 -0.09252267756439665
0.6358692553765919 0.2393571207011309 -0.09252267756439665
0.6320061951277691 0.23646697932978947 -0.09252267756439665
0.5653040214980963 0.4409230199063712 -0.09252267756439665
0.49396617556983613 0.256354585795951 -0.09252267756439665
0.4761960984252515 0.3141001827005755 -0.09252267756439665
0.545483183974507 0.268802224375491 -0.09252267756439665
0.4579777155233961 0.2582813467101786 -0.09252267756439665
0.677685690267552 0.2662268508762759 -0.09252267756439665
0.4180308110244586 0.5885968440354423 -0.09252267756439665
0.4214169502549082 0.4386814911200173 -0.09252267756439665
0.40465794566927465 0.5512348514560875 -0.09252267756439665
0.13111512637115427 0.5358493794033687 -0.09252267756439665
0.2674000765814738 0.3261758228857844 -0.09252267756439665
0.31618909676105006 0.44595930586039195 -0.09252267756439665
0.2667323871557514 0.39792382088984535 -0.09252267756439665
0.026011272342073073 0.3896158567497846 -0.09252267756439665
0.15026827446902108 0.42202740915842585 -0.09252267756439665
0.060282816722369736 0.26517762463585487 -0.09252267756439665
0.2711295989451521 0.4901412690024833 -0.09204575654602348
0.49093295789298286 0.4955972454526725 -0.09204575654602348
0.023588513568737413 0.282032013425163 -0.09128268291662639
0.2711295989451521 0.3176293982365371 -0.09128268291662639
0.20198558970140856 0.31971831229701153 -0.09128268291662639
0.47534717901254725 0.5207214447005714 -0.09128268291662639
0.43840487692936075 0.440055023652932 -0.09128268291662639
0.5270835710856697 0.30940727987978334 -0.09061499349090393
0.6265216034164773 0.25952134135794896 -0.09061499349090393
0.6646371312048619 0.3009276241731083 -0.09061499349090393
0.5964374255774972 0.26824899599417806 -0.09061499349090393
0.46230815837022465 0.2764997296120341 -0.09061499349090393
0.5310610923789021 0.2733615893111385 -0.09061499349090393
0.43750826541481924 0.2582718082898112 -0.09061499349090393
0.5310324771177996 0.2969024107780387 -0.09061499349090393
0.6827696683234102 0.3078811326209892 -0.09061499349090393
0.46293769411447727 0.2671234623908174 -0.09061499349090393
0.41612312695096587 0.5871660809803227 -0.09061499349090393
0.501987987098873 0.529458637757168 -0.09061499349090393
0.3993545839449649 0.4985636941869537 -0.09061499349090393
0.40742408757583914 0.5361259935940251 -0.09061499349090393
0.14115908301809338 0.5032279817466432 -0.09061499349090393
0.3480283439476434 0.47395456963889754 -0.09061499349090393
0.2957864155950454 0.40810131542192907 -0.09061499349090393
0.28257570338610843 0.40957977057888595 -0.09061499349090393
0.034071237552579785 0.38855709208899614 -0.09061499349090393
0.10981583369060806 0.33820377096915594 -0.09061499349090393
0.050439166903147356 0.2718354420523444 -0.09061499349090393
0.3105805055849814 0.282032013425163 -0.09013807247253075
0.4832068373953374 0.5207214447005714 -0.09013807247253075
0.4008711927833917 0.4531131211359896 -0.08937499884313367
0.5522554624354059 0.4202246477089753 -0.08937499884313367
0.27736772586547326 0.31971831229701153 -0.08937499884313367
0.2596358024023585 0.2955574935062263 -0.08937499884313367
0.1293314417624386 0.5207214447005714 -0.08937499884313367
0.5199774479119094 0.32613766920431453 -0.08870730941741123
0.6630251381627604 0.2350266778543025 -0.08870730941741123
0.5551551422271149 0.3140811058598406 -0.08870730941741123
0.6769607703196249 0.437851648548048 -0.08870730941741123
0.525338040158424 0.30194823515242686 -0.08870730941741123
0.6327120382349612 0.23481683260621827 -0.08870730941741123
0.5090273413300612 0.30814820839127827 -0.08870730941741123
0.5089796492282239 0.3272727412280427 -0.08870730941741123
0.5306223250419986 0.5237451239570574 -0.08870730941741123
0.40971330846403037 0.5960749656035337 -0.08870730941741123
0.39811458929719473 0.4970661621892618 -0.08870730941741123
0.4514725128327859 0.48312099161203015 -0.08870730941741123
0.44925006088716685 0.27153021260058563 -0.08870730941741123
0.4799351592092972 0.28000032988689316 -0.08870730941741123
0.25839580775458815 0.38361619033865 -0.08870730941741123
0.29130335802233753 0.3754322256633663 -0.08870730941741123
0.22108150727707074 0.28616214944427465 -0.08870730941741123
0.2558490495164754 0.497791082137189 -0.08870730941741123
0.10455062564776824 0.48036438812583304 -0.08870730941741123
0.09031930245951254 0.4656847591803066 -0.08870730941741123
0.13796371219499315 0.37406823155081903 -0.08823038839903805
0.4141582123552685 0.6337898797364847 -0.08823038839903805
0.5139587046600398 0.48303514582872287 -0.08746731476964095
0.0062667421814235355 0.40683270551305645 -0.08746731476964095
0.2340919126582911 0.33132656988421466 -0.08746731476964095
0.2611047191389479 0.29302981210884843 -0.08746731476964095
0.538157677132295 0.3729903900492957 -0.08746731476964095
0.520626060496897 0.32527921137124277 -0.08679962534391851
0.6883305673976415 0.2940218078270646 -0.08679962534391851
0.6628343697554113 0.26979422009370724 -0.08679962534391851
0.566019403025656 0.44116148041555775 -0.08679962534391851
0.5191762206010424 0.2747160450033185 -0.08679962534391851
0.5775895069313892 0.30911158884839207 -0.08679962534391851
0.6882161063532319 0.3021962340819809 -0.08679962534391851
0.5804033409397912 0.4354098129339773 -0.08679962534391851
0.435610119761694 0.5535622260257486 -0.08679962534391851
0.38440787922914943 0.52696911004126 -0.08679962534391851
0.4120788367151614 0.4420199382486295 -0.08679962534391851
0.4514629744124184 0.29051166913183807 -0.08679962534391851
0.43613473288190446 0.25774719516960065 -0.08679962534391851
0.34530035572254886 0.476596712080685 -0.08679962534391851
0.2690120696235751 0.3724943921901875 -0.08679962534391851
0.3231998357311358 0.47823732038388883 -0.08679962534391851
0.2451278650234464 0.28854675453614054 -0.08679962534391851
0.093457442760408 0.2877741424863761 -0.08679962534391851
0.1174847236660488 0.43037352697995646 -0.08679962534391851
0.04534565042692175 0.27903694942977936 -0.08679962534391851
0.22411472495392412 0.4003942717650184 -0.08632270432554534
0.47837085826903325 0.5458456439484706 -0.08555963069614825
0.4764154820937031 0.33382563602049015 -0.08555963069614825
0.20198558970140856 0.30715621267306203 -0.08555963069614825
0.21454768932535817 0.3448425115449106 -0.08555963069614825
0.14531783429830758 0.4774647083341241 -0.08555963069614825
0.42274279068598564 0.6080933752665377 -0.08489194127042579
0.48880589015103837 0.4906277284412238 -0.08489194127042579
0.3767103739926065 0.5466277944186025 -0.08489194127042579
0.15556209777296343 0.4895403485193332 -0.08489194127042579
0.022710978894930775 0.3976281298584541 -0.08489194127042579
0.01357317218290055 0.4104668436730601 -0.08489194127042579
0.22356149657261118 0.28545630633708236 -0.08489194127042579
0.3163894035887668 0.4157225132955324 -0.08489194127042579
0.2850080005798116 0.4090360806179405 -0.08489194127042579
0.3243635230159664 0.4787142414022618 -0.08489194127042579
0.43429381775098397 0.249954305729383 -0.08489194127042579
0.44289747292243614 0.24388787037567605 -0.08489194127042579
0.6664971231765172 0.23560852149671774 -0.08489194127042579
0.5690526207025095 0.3717599338218928 -0.08489194127042579
0.6820542867958503 0.3337970207593877 -0.08489194127042579
0.5219328240872395 0.2995350147994586 -0.08489194127042579
0.6934908528164393 0.2716160583838928 -0.08489194127042579
0.4816806901365429 0.3157503294241467 -0.08489194127042579
0.5192334511232471 0.25792842515658254 -0.08489194127042579
0.5367936830197477 0.34703634822942725 -0.08441502025205261
0.02610665654574776 0.2921522774350418 -0.08441502025205261
0.2859236889350881 0.3907509287735128 -0.08365194662265553
0.3778645228570695 0.3950909100407087 -0.08365194662265553
0.5141971651692264 0.3450142031115249 -0.08365194662265553
0.03785799043846288 0.25690781417726394 -0.08365194662265553
0.4400836389140344 0.5628144937821883 -0.08298425719693307
0.39161892502695195 0.49094249631335024 -0.08298425719693307
0.3493255691176185 0.5665440161458665 -0.08298425719693307
0.03843983408087822 0.3823666572705123 -0.08298425719693307
0.09614727730403283 0.2810686329680492 -0.08298425719693307
0.012581176464684346 0.3475323460885353 -0.08298425719693307
0.23879435389945058 0.27640434540835945 -0.08298425719693307
0.31361372326183484 0.4108960725895958 -0.08298425719693307
0.24233310785577952 0.3793239011732915 -0.08298425719693307
0.34898218598438974 0.4819382274864645 -0.08298425719693307
0.443736853914773 0.2519192203250805 -0.08298425719693307
0.44600699796222937 0.28005756040909796 -0.08298425719693307
0.660134996791419 0.2290651651246378 -0.08298425719693307
0.5533428423572968 0.4489543698557756 -0.08298425719693307
0.6516267258236416 0.28077294193665775 -0.08298425719693307
0.5123562500383059 0.29162766431483134 -0.08298425719693307
0.63568802538961 0.48472344623376384 -0.08298425719693307
0.4908471121096756 0.2908836675261692 -0.08298425719693307
0.5676600113288597 0.32022384857648706 -0.08298425719693307
0.5411813563887807 0.33228041192096114 -0.0825073361785599
0.021032216910257168 0.2776729553172321 -0.08174426254916281
0.5253952706806287 0.4202246477089753 -0.08174426254916281
0.2941553457122092 0.3303536510067335 -0.08174426254916281
0.3033885366279138 0.4453488469568743 -0.08174426254916281
0.5310897076400043 0.40766254808502567 -0.08174426254916281
0.4728576512966393 0.47964900659827336 -0.08107657312344037
0.38463680131796857 0.5328829306690875 -0.08107657312344037
0.18188813798716283 0.47348718704089193 -0.08107657312344037
0.07361752839608378 0.26422378259910845 -0.08107657312344037
0.03831583461610114 0.44501500224401314 -0.08107657312344037
0.2153870703176949 0.27680495906379293 -0.08107657312344037
0.31321310960640136 0.4175157363246156 -0.08107657312344037
0.2609616428334359 0.32426813881229166 -0.08107657312344037
0.35088033163751514 0.46382476720865123 -0.08107657312344037
0.44767622152653547 0.291312896442705 -0.08107657312344037
0.4602192443097499 0.3029211540299082 -0.08107657312344037
0.48838619965486985 0.2598265708097078 -0.08107657312344037
0.6868330353999497 0.2467684733266501 -0.08107657312344037
0.6682140388426607 0.3234764499217922 -0.08107657312344037
0.5579212841336795 0.35177694315205665 -0.08107657312344037
0.6606405330708945 0.22692855896232592 -0.08107657312344037
0.49636985750243706 0.3176866287587418 -0.08107657312344037
0.6394938551162279 0.4674112132668176 -0.08107657312344037
0.42402093901522575 0.40766254808502567 -0.08059965210506717
0.20198558970140856 0.366742724708607 -0.07983657847567009
0.028662953204228 0.26383270736404246 -0.07983657847567009
0.29153228011115667 0.3237149104309787 -0.07983657847567009
0.5226672824555342 0.33618162585125366 -0.07983657847567009
0.31392849113396115 0.5584172819927874 -0.07983657847567009
0.42359171009868984 0.588034077233762 -0.07916888904994765
0.4062604002910086 0.4255661631147549 -0.07916888904994765
0.32733951017061497 0.5417632000311962 -0.07916888904994765
0.03994690449893734 0.27500219761434225 -0.07916888904994765
0.028872798452312255 0.36482550221474674 -0.07916888904994765
0.17060418669245347 0.3304013431085708 -0.07916888904994765
0.36783010463049776 0.4535041963710557 -0.07916888904994765
0.23578975148369957 0.4068613207741588 -0.07916888904994765
0.22586979430153742 0.3727328526993741 -0.07916888904994765
0.4361156560411696 0.2650440867507103 -0.07916888904994765
0.5074058098675922 0.26930776065496653 -0.07916888904994765
0.6302797410412581 0.24328694989252597 -0.07916888904994765
0.6864324217445161 0.24649185913599372 -0.07916888904994765
0.5821393334466695 0.2589394977155336 -0.07916888904994765
0.5497373194583958 0.23732543716286122 -0.07916888904994765
0.5369749130067295 0.40552594192271396 -0.07916888904994765
0.606719842733623 0.2738194334887768 -0.07916888904994765
0.5266066500672965 0.3574046111688602 -0.07869196803157447
0.489826501130357 0.5278084910335971 -0.07792889440217739
0.4211212592235168 0.4525885080157792 -0.07792889440217739
0.25851026879899774 0.2927913515996619 -0.07792889440217739
0.2861812262850097 0.3950909100407087 -0.07792889440217739
0.11827641255654826 0.533712773241057 -0.07726120497645493
0.018819303385005627 0.4052588661524249 -0.07726120497645493
0.1621149925654109 0.33043949679004064 -0.07726120497645493
0.31752447561249497 0.2728942067131329 -0.07726120497645493
0.34958310646754 0.45914140280822663 -0.07726120497645493
0.27935171730190567 0.3680304114582145 -0.07726120497645493
0.2718735957338143 0.32030969435979423 -0.07726120497645493
0.3177438592809466 0.5532856118350922 -0.07726120497645493
0.40895023483463333 0.4214074118345407 -0.07726120497645493
0.40998038423431943 0.6056610780728345 -0.07726120497645493
0.45957063172476253 0.25466628539091 -0.07726120497645493
0.685831501261366 0.23596144305031394 -0.07726120497645493
0.5907811422995914 0.5038289022297935 -0.07726120497645493
0.6450452157700917 0.26402347577139174 -0.07726120497645493
0.5283998730963798 0.3021962340819809 -0.07726120497645493
0.5603917350088524 0.44686545579530096 -0.07726120497645493
0.5313758602510282 0.3305634962548176 -0.07678428395808176
0.5226672824555342 0.3586446058166304 -0.07602121032868467
0.488138200725316 0.3224749157832085 -0.07602121032868467
0.17686139045350963 0.3574046111688602 -0.07602121032868467
0.393965376437348 0.6237363846691781 -0.07602121032868467
0.6250240714187858 0.26227794484414596 -0.07535352090296221
0.6182136392764168 0.27710065009518436 -0.07535352090296221
0.5760538212522276 0.3120589607419383 -0.07535352090296221
0.5351626131369115 0.3625935118487603 -0.07535352090296221
0.5567194431673791 0.35513446712140384 -0.07535352090296221
0.4430023955464782 0.545588106598549 -0.07535352090296221
0.39804782035462244 0.4883003538715627 -0.07535352090296221
0.31933677548231304 0.5547736054124166 -0.07535352090296221
0.3355997822088384 0.45435311578376 -0.07535352090296221
0.2653302393617342 0.3682402567062988 -0.07535352090296221
0.31027527613322264 0.30527714386067173 -0.07535352090296221
0.31898385392871687 0.2644240894268252 -0.07535352090296221
0.13055235956947395 0.4312987537556005 -0.07535352090296221
0.09543189577647303 0.29027320862265144 -0.07535352090296221
0.15142242333348427 0.48226253377895845 -0.07535352090296221
0.3204527706653062 0.24434571455331433 -0.07487659988458903
0.5130334778843958 0.4297630680764388 -0.07411352625519195
0.46380569036791625 0.31021804561101785 -0.07411352625519195
0.28744029777351476 0.31971831229701153 -0.07411352625519195
0.09166421973132496 0.26563546881349304 -0.07411352625519195
0.38944416518317027 0.5665630929866015 -0.07411352625519195
0.4882908154511953 0.489292349589779 -0.0734458368294695
0.41010438369909635 0.5439856519768153 -0.0734458368294695
0.07556336615104642 0.2593305729505996 -0.0734458368294695
0.029836178909426067 0.36210705241001967 -0.0734458368294695
0.15148919227605642 0.4298202985986436 -0.0734458368294695
0.3099891235221987 0.37444022994515014 -0.0734458368294695
0.23652420985199427 0.39289707335619206 -0.0734458368294695
0.3123737286140646 0.3043614555053952 -0.0734458368294695
0.29854301908124237 0.25413213385033206 -0.0734458368294695
0.522438360366715 0.453694964778405 -0.0734458368294695
0.5896174550147608 0.48861512174368915 -0.0734458368294695
0.5370798356307716 0.5145882404042923 -0.0734458368294695
0.5485545553328303 0.37020517130199626 -0.0734458368294695
0.3330434855503582 0.2627548658625191 -0.07296891581109632
0.4141582123552685 0.4579109465808238 -0.07220584218169925
0.4733441107353798 0.3069272905842429 -0.07220584218169925
0.30347438241122104 0.24675893490628262 -0.07220584218169925
0.21454768932535817 0.24434571455331433 -0.07220584218169925
0.640419081891872 0.26760038340919057 -0.07153815275597679
0.5751572097376861 0.3157026373223094 -0.07153815275597679
0.5298592514126016 0.4227141754248832 -0.07153815275597679
0.5360878399125553 0.3400256092593415 -0.07153815275597679
0.4087022359050793 0.4812705380607421 -0.07153815275597679
0.43409351092326726 0.544395804052616 -0.07153815275597679
0.337421620499024 0.5460364123558197 -0.07153815275597679
0.25017368939783463 0.29013967073750696 -0.07153815275597679
0.24666355070260806 0.3750506888486677 -0.07153815275597679
0.3446326662968265 0.3200903106913426 -0.07153815275597679
0.33787946467666213 0.4830256074083554 -0.07153815275597679
0.12577361096537465 0.3277687390871509 -0.07153815275597679
0.00832704098079561 0.3885857073500985 -0.07153815275597679
0.41908957568524713 0.4704730462047734 -0.0710612317376036
9.82457297848695E-4 0.39658844203840043 -0.0710612317376036
0.31182050023275165 0.28422585010967966 -0.07029815810820651
0.5029418291356194 0.2945941130491125 -0.07029815810820651
0.41927080567222885 0.48303514582872287 -0.07029815810820651
2.76614190656409E-4 0.3918669239565061 -0.07029815810820651
0.23342422323256856 0.28930028974517025 -0.06963046868248407
0.2786267973539785 0.39130415715482575 -0.06963046868248407
0.3380416178229091 0.4508620539292683 -0.06963046868248407
0.38790847950400864 0.4669724459299142 -0.06963046868248407
0.13681910175089748 0.4234200185320755 -0.06963046868248407
0.0911777602925843 0.46117308634649634 -0.06963046868248407
0.1229502385366055 0.5028178296708424 -0.06963046868248407
0.40709024286297785 0.5873186957062021 -0.06963046868248407
0.49967015094957945 0.47933423872614694 -0.06963046868248407
0.5366029146123983 0.39195276973981324 -0.06963046868248407
0.5356109188941822 0.44357470076852606 -0.06963046868248407
0.5390829039079388 0.4585595591658113 -0.06963046868248407
0.5470570233351384 0.39784751352690567 -0.06963046868248407
0.514311626213636 0.33228041192096114 -0.06915354766411089
-0.009795957717385102 0.3574046111688602 -0.06915354766411089
0.4930695640552946 0.3188503160435724 -0.06839047403471381
0.5411813563887807 0.4689564373663466 -0.06839047403471381
0.19221824724512598 0.2945941130491125 -0.06839047403471381
-1.4307630551195906E-4 0.3699667107928096 -0.06839047403471381
0.06934431607146016 0.2576041188640887 -0.06772278460899135
0.1574030129038839 0.3310308788528234 -0.06772278460899135
0.32849365903507804 0.26730469237779925 -0.06772278460899135
0.27205482572079603 0.40502994406360576 -0.06772278460899135
0.26590254458378204 0.41176406884303507 -0.06772278460899135
0.3949382953148294 0.4767874804880342 -0.06772278460899135
0.3314314925082569 0.5391592112708787 -0.06772278460899135
0.4457399221919403 0.5543729917569831 -0.06772278460899135
0.5797738051955386 0.5077491930008211 -0.06772278460899135
0.6477732039951863 0.46660998595595066 -0.06772278460899135
0.6322446556369558 0.48555328880573334 -0.06772278460899135
0.5419921221200152 0.4358008881690433 -0.06772278460899135
0.1931434740207699 0.2945941130491125 -0.06724586359061818
0.5173734591515918 0.4360393486782299 -0.06648278996122109
0.4208064913513905 0.4704730462047734 -0.06648278996122109
0.2218064272249979 0.24434571455331433 -0.06648278996122109
0.03931736875468486 0.2536742896726938 -0.06648278996122109
0.5460841044576571 0.519643603199048 -0.06581510053549865
0.6584371579660105 0.4548681904836029 -0.06581510053549865
0.5504336241452207 0.5257481922342249 -0.06581510053549865
0.5359066099255734 0.37110178281653783 -0.06581510053549865
0.08188733885467474 0.46217462048508007 -0.06581510053549865
0.13599879759929562 0.428799687619325 -0.06581510053549865
0.21243969842414867 0.29257196793121026 -0.06581510053549865
0.264891472024831 0.37931436275292396 -0.06581510053549865
0.3724180848272478 0.31258357386214886 -0.06581510053549865
0.34772311449588467 0.4630140014774169 -0.06581510053549865
0.4812037691181699 0.5174306896737965 -0.06581510053549865
0.4127179108797814 0.6306898931170589 -0.06581510053549865
0.5029418291356194 0.4704730462047734 -0.06533817951712546
0.22884578145618603 0.3045808391738468 -0.06533817951712546
0.3778645228570695 0.33279548662080416 -0.06457510588772837
0.5411813563887807 0.4643398419084943 -0.06457510588772837
0.2535884438893866 0.3047334538997263 -0.06457510588772837
0.01775100030384962 0.2778446468838464 -0.06457510588772837
0.3873170974412259 0.5548594511957236 -0.06390741646200591
0.48074592494053164 0.5160380803001469 -0.06390741646200591
0.38912939731104396 0.46654321701337836 -0.06390741646200591
0.3298862684087277 0.4728004207744345 -0.06390741646200591
0.2743917387108247 0.41416775077563583 -0.06390741646200591
0.3286176584998551 0.2717686731097721 -0.06390741646200591
0.22471564543707437 0.2601222618410992 -0.06390741646200591
0.0731882994795479 0.4736588786075063 -0.06390741646200591
0.05474099448887337 0.2565453542033003 -0.06390741646200591
0.5434133467547673 0.24943923102953994 -0.06390741646200591
0.6034195492864806 0.504639667961028 -0.06390741646200591
0.5323964712303468 0.32542228767675474 -0.06390741646200591
0.14289507552497177 0.4704730462047734 -0.06343049544363275
0.513014401043661 0.4812896149014771 -0.06266742181423567
0.3155214073353276 0.5773033543203655 -0.06266742181423567
0.2330140711567676 0.25310198445064597 -0.06266742181423567
0.209358788645458 0.25690781417726394 -0.06266742181423567
0.5156660819058159 0.3800011290193814 -0.06199973238851321
0.5088842650245491 0.3799343600768091 -0.06199973238851321
0.6235837699432987 0.28825106350474927 -0.06199973238851321
0.5062898146845991 0.48392221892289716 -0.06199973238851321
0.39221984551010214 0.5632723379598266 -0.06199973238851321
0.0857503991034975 0.2590539587599432 -0.06199973238851321
7.249199479271689E-4 0.319870927022891 -0.06199973238851321
0.21920243846468038 0.2694699138012134 -0.06199973238851321
0.23351960743624325 0.36799225777674477 -0.06199973238851321
0.2948611888194015 0.3917047708102591 -0.06199973238851321
0.288947368191574 0.3822331193853678 -0.06199973238851321
0.341227450225642 0.26728561553706426 -0.06199973238851321
0.28992982548942287 0.31233557493259473 -0.061522811370140026
0.024523278764748833 0.2882606019251166 -0.06075973774074294
0.2942793451769861 0.33228041192096114 -0.06075973774074294
0.285284614770468 0.25172845191773113 -0.06075973774074294
0.4832068373953374 0.330201036280854 -0.06075973774074294
0.5197294489823552 0.3151971010428339 -0.0600920483150205
0.5099334912649702 0.3201952333153847 -0.0600920483150205
0.5232491260979493 0.31891708498614457 -0.0600920483150205
0.029645410502076697 0.2795901778110923 -0.0600920483150205
0.07563967351398608 0.4384334921904632 -0.0600920483150205
0.28865167716018275 0.32136845902058275 -0.0600920483150205
0.39793335931021284 0.48289206952321106 -0.0600920483150205
0.37354361843060846 0.31221157546781775 -0.0600920483150205
0.243143873587014 0.33986345611309465 -0.0600920483150205
0.40168195851462607 0.4727431902522297 -0.0600920483150205
0.40227334057740877 0.6250145329984181 -0.0600920483150205
0.14507937378912092 0.480650540736857 -0.0600920483150205
0.3204527706653062 0.29367842469383604 -0.059615127296647315
0.4832068373953374 0.4687942842200998 -0.05885205366725023
0.41555082172891805 0.5081593450766221 -0.05885205366725023
0.272712976726151 0.2746588144811137 -0.05885205366725023
0.016530082496814282 0.28597138103692543 -0.05885205366725023
0.026192502329054932 0.38233804200940985 -0.05818436424152777
0.1485799740639801 0.35717568908004105 -0.05818436424152777
0.28096371034400697 0.3162177120221525 -0.05818436424152777
0.3969222867512618 0.45803494604560085 -0.05818436424152777
0.305343912803244 0.3919718465805481 -0.05818436424152777
0.3241155240864122 0.47663486576215486 -0.05818436424152777
0.3378985415173971 0.5626332637952064 -0.05818436424152777
0.39419429852616716 0.5483065564032763 -0.05818436424152777
0.5156183898039786 0.41350006134991346 -0.05818436424152777
0.5074344251286947 0.38313926932027687 -0.05818436424152777
0.5921832900936086 0.26902160804394265 -0.05818436424152777
0.22511625909250785 0.30715621267306203 -0.05770744322315461
0.02479989295540524 0.2897199802413386 -0.05694436959375752
0.2391091217715769 0.3295810389569689 -0.05694436959375752
0.3778645228570695 0.3699667107928096 -0.05694436959375752
0.5070433498936288 0.4525312774935744 -0.05627668016803507
0.5734689093326452 0.30757590316923045 -0.05627668016803507
0.5435659614806466 0.5089033418652843 -0.05627668016803507
0.023369129900285654 0.373305157921422 -0.05627668016803507
0.049819169579262246 0.26895483910137036 -0.05627668016803507
0.14474552907625973 0.37404915471008404 -0.05627668016803507
0.22207350299528694 0.3612581329973154 -0.05627668016803507
0.24328694989252597 0.2964445666004004 -0.05627668016803507
0.40787239333310993 0.47592902265496256 -0.05627668016803507
0.3748408436005835 0.4640536892974704 -0.05627668016803507
0.3855811049343475 0.5477056359201259 -0.05627668016803507
0.33979668717052236 0.5678603181565764 -0.05627668016803507
0.2563355089552161 0.3944041437742513 -0.055799759149661884
0.46580875864508364 0.3975136688140445 -0.0550366855202648
0.3024919251133723 0.31971831229701153 -0.0550366855202648
0.24120757425241887 0.3993641223653325 -0.0550366855202648
0.02894910581525192 0.2945941130491125 -0.0550366855202648
0.48485698411890854 0.3133180322304435 -0.05436899609454234
0.6678134251872273 0.4461977663695786 -0.05436899609454234
0.5165340781592551 0.3808882021135554 -0.05436899609454234
0.02241528786353935 0.37334331160289175 -0.05436899609454234
0.15378795158461514 0.3722273164198986 -0.05436899609454234
0.2674477686833112 0.36533103849422244 -0.05436899609454234
0.22950393246154102 0.25409398016886214 -0.05436899609454234
0.40606009346329186 0.4680693642721725 -0.05436899609454234
0.3440603610747786 0.4472851462914695 -0.05436899609454234
0.45854048232507644 0.5386727518321379 -0.05436899609454234
0.34096037445535293 0.564083103691061 -0.05436899609454234
0.24441248349588662 0.2656068535523906 -0.05389207507616917
0.034386005424706094 0.2582718082898112 -0.05312900144677209
0.2736286650814276 0.2583385772323834 -0.05312900144677209
0.3150540247373219 0.5950257393631129 -0.05312900144677209
0.4991359994090014 0.4327867473329247 -0.05312900144677209
0.5698252327522739 0.4509192844514731 -0.05246131202104963
0.624165613585714 0.2773486490247384 -0.05246131202104963
0.11651180478856747 0.5003569172160367 -0.05246131202104963
0.4133856003055039 0.6271606775810976 -0.05246131202104963
0.34145637231446097 0.46509337711752385 -0.05246131202104963
0.389539549386845 0.4657706049636138 -0.05246131202104963
0.22707163526783786 0.25711765942534803 -0.05246131202104963
0.2693840680179062 0.3745165373080898 -0.05246131202104963
0.15668763137632408 0.35202494208161067 -0.05246131202104963
0.08671377956061131 0.2651680862154874 -0.05246131202104963
0.06759878514421426 0.3705008623333876 -0.05246131202104963
0.33252841085051515 0.2462247833657047 -0.05198439100267645
0.21225846843716695 0.27036652531575506 -0.05122131737327936
0.26974652799186993 0.3052962207014066 -0.05122131737327936
0.4448623875181337 0.3964072120514187 -0.05122131737327936
0.5388635202394871 0.5186039153789946 -0.050553627947556926
0.4949009407658477 0.3628605876190494 -0.050553627947556926
0.5178122264884951 0.3898161635775014 -0.050553627947556926
0.08079995893278386 0.26191548487018224 -0.050553627947556926
0.016482390394977006 0.45103374549588265 -0.050553627947556926
0.23666728615750623 0.3626602807913326 -0.050553627947556926
0.2688785317384307 0.31901246918981924 -0.050553627947556926
0.29419349939367895 0.27281789935019307 -0.050553627947556926
0.3876986342559245 0.45097651497367786 -0.050553627947556926
0.498039081066743 0.4867265145109313 -0.050553627947556926
0.39392722275587816 0.5659907877645536 -0.050553627947556926
0.4733441107353798 0.43953994895308895 -0.05007670692918374
0.21445230512168348 0.31003681562403596 -0.04931363329978665
0.39042662248101895 0.2945941130491125 -0.04931363329978665
0.030732790423967586 0.27789233898568383 -0.0486459438740642
0.09112052977037952 0.26995637323995403 -0.0486459438740642
0.2545613627668678 0.3017765435858125 -0.0486459438740642
0.382566964098229 0.45480142154103076 -0.0486459438740642
0.29537626351924456 0.3185164713307112 -0.0486459438740642
0.2602748765669785 0.37033870918714074 -0.0486459438740642
0.3248785977158093 0.5642357184169403 -0.0486459438740642
0.40844469855515775 0.6463996714622716 -0.0486459438740642
0.5183368396087056 0.3153878694501831 -0.0486459438740642
0.502646138104228 0.3502698727339974 -0.0486459438740642
0.6299935884302341 0.2825852418064758 -0.0486459438740642
0.523220510836847 0.4453583853772417 -0.0486459438740642
-0.006800893722001607 0.4327867473329247 -0.047405949226293945
0.22710978894930764 0.39944996814863964 -0.047405949226293945
0.46580875864508364 0.40766254808502567 -0.047405949226293945
0.03567369217431372 0.2754123496901432 -0.04673825980057149
0.10122171693952342 0.27275113040762095 -0.04673825980057149
0.233967913193514 0.3398253024316248 -0.04673825980057149
0.2702139105898756 0.3829485009129276 -0.04673825980057149
0.2964731818615028 0.26503454833034296 -0.04673825980057149
0.39310691860427627 0.4771213252008954 -0.04673825980057149
0.5086171892542602 0.31554048417606245 -0.04673825980057149
0.5406758201093051 0.5198629868674997 -0.04673825980057149
0.5296303293237825 0.4431836255334601 -0.04673825980057149
0.49697077798558714 0.4234581722135454 -0.04673825980057149
0.4220846396806306 0.5920879058899339 -0.04673825980057149
0.2134507709830999 0.31971831229701153 -0.046261338782198305
0.1985899120505916 0.27138713629507366 -0.04549826515280122
0.4019299574441801 0.3103801987572647 -0.04549826515280122
0.07132830750789257 0.2991916316662299 -0.04483057572707876
0.014412553175237422 0.37058670811669475 -0.04483057572707876
0.39862966399703775 0.46893736052561175 -0.04483057572707876
0.39105615822527157 0.4724856529023082 -0.04483057572707876
0.28478861691136 0.2652062398969573 -0.04483057572707876
0.25245337186565847 0.37938113169549625 -0.04483057572707876
0.40791054701457985 0.6486793539300955 -0.04483057572707876
0.44267808925398455 0.41481636336062333 -0.04483057572707876
0.5240503534088162 0.43672611494468727 -0.04483057572707876
0.6831225898770062 0.41972864984986713 -0.04483057572707876
0.03866875616969722 0.2866390704626479 -0.0443536547087056
0.02308297728926187 0.2945941130491125 -0.04359058107930851
0.2522339881972067 0.26621731245590835 -0.04359058107930851
0.4521020485770385 0.38252881041675924 -0.04359058107930851
0.4039902562435523 0.641945229150666 -0.04292289165358606
0.4374701117333494 0.4106289968193069 -0.04292289165358606
0.5846479380033124 0.4875182034014307 -0.04292289165358606
0.5501379331138292 0.2465109359767286 -0.04292289165358606
0.5467041017815422 0.3160937125573754 -0.04292289165358606
0.4000604270521572 0.4781323977598465 -0.04292289165358606
0.24035865483971464 0.26159117857768854 -0.04292289165358606
0.24365894828685705 0.41829788679474766 -0.04292289165358606
0.07242522585015083 0.29168489483703613 -0.04292289165358606
0.02588727287729613 0.3679731809360097 -0.04292289165358606
0.21925966898688518 0.3574046111688602 -0.042445970635212875
0.21454768932535817 0.3541806250846574 -0.04168289700581578
0.39996504284848255 0.2945941130491125 -0.04168289700581578
0.4532466590211342 0.39868689451924255 -0.04168289700581578
0.4512531291643343 0.5406853585296728 -0.041015207580093346
0.566515400884764 0.3179537045290307 -0.041015207580093346
0.5373278345603255 0.5112974853775174 -0.041015207580093346
0.584352246971921 0.4436223928703635 -0.041015207580093346
0.3829866545943975 0.45539280360381346 -0.041015207580093346
0.29123658907976535 0.2664176192836251 -0.041015207580093346
0.24397371615898325 0.379581438523213 -0.041015207580093346
0.053968382439108925 0.27173051942830234 -0.041015207580093346
0.016787619846735807 0.45052820921640696 -0.041015207580093346
0.05264254200803139 0.3944899895575585 -0.041015207580093346
