0.24118876716417778 0.4872430751902787 -0.49862915110511485
0.39413722173321547 0.012970040312221317 -0.4972085552330205
0.27727900529473454 0.31878881667733133 -0.4972085552330205
0.23366671202143827 0.3593113139288226 -0.4972085552330205
0.47941559193503896 0.30616682235377307 -0.4957879593609261
0.11636100788324777 0.08219567715937878 -0.4957879593609261
0.27660422225548975 0.32059297343489107 -0.49436736348883187
0.25620446553221504 0.3003423792781863 -0.4929467676167375
-0.03663006456195264 0.26758343846769067 -0.4920233802998762
0.15615900123997078 0.0015413465212223546 -0.4920233802998762
0.31946359971657623 0.4786555731434684 -0.4920233802998762
0.5621013746702902 0.19656785082169445 -0.4920233802998762
0.19661046869785728 0.10186382700852491 -0.49152617174464314
0.2533845827261078 0.39636045427304295 -0.4906027844277818
0.46466980678269953 0.17785860318621194 -0.4906027844277818
-0.012792465828209584 0.20592247463943567 -0.4906027844277818
0.11538789971086315 0.08625147837420812 -0.49010557587254877
0.2908030779970729 0.1310783811181451 -0.48918218855568746
0.3351114632476955 0.39381048468263374 -0.4886849800004544
0.12673846072889694 0.09532908599689102 -0.4886849800004544
0.2159589844757823 0.029974572901190655 -0.4877615926835931
0.19761198878768385 0.08620175751868478 -0.48726438412836015
0.14112199393385222 0.3275396872494325 -0.4863409968114987
0.2609421527656497 0.31974061591163444 -0.4858437882562658
0.20565966440309827 0.14290484175333057 -0.4849204009394045
-0.17695652480743196 0.2620502175458832 -0.4849204009394045
0.14233660340449283 0.11208501430824377 -0.4844231923841714
0.36564006853900294 0.3556035587026562 -0.4834998050673101
0.21017005629699775 0.11797338419807478 -0.48300259651207705
0.40306566678932826 0.22463172227491818 -0.48207920919521574
0.29075335714154954 0.4019149841329319 -0.4815820006399827
0.16918586538707595 -0.01105223588489398 -0.4806586133231214
0.5995198699412553 0.28075946518136574 -0.4806586133231214
0.12054466272656561 0.10190644488468774 -0.48016140476788843
0.07563252423030296 0.2825636219389256 -0.479238017451027
0.2533490678293053 0.3422570604843299 -0.47874080889579407
0.2253136082935235 0.009461168508148288 -0.47781742157893276
0.2627392065438489 0.4415993298198873 -0.47781742157893276
0.12224937777307879 0.0881053559872912 -0.4773202130236997
0.3491611564227084 0.38672171128088284 -0.4763968257068384
0.2607148574261145 0.3352464198555444 -0.47589961715160534
0.17854048920481727 0.1497876287536276 -0.474976229834744
0.25780973886768166 0.33537427348403287 -0.47447902127951097
-0.15373688527804988 0.28075946518136574 -0.47355563396264966
0.2627392065438489 0.4491568998594294 -0.47355563396264966
0.18655975290278975 0.14605146161001953 -0.4730584254074167
0.2159589844757823 0.24334096991040072 -0.4721350380905553
0.3450059134968326 0.3848536277090787 -0.47163782953532235
7.884307090123909E-4 0.20592247463943567 -0.47071444221846104
0.08498714804804416 0.2919182457566668 -0.47071444221846104
0.11792366334255154 0.08926314162304808 -0.470217233663228
0.2159589844757823 0.06559601439395635 -0.46929384634636667
0.26119075704326616 0.339579237265432 -0.4687966377911336
0.19724973684029978 0.4117384045884644 -0.4678732504742723
0.304447901348539 0.3335488077883916 -0.46737604191903925
0.1224056433190092 0.25269559372814193 -0.46645265460217794
0.14112199393385222 -0.027957326762816745 -0.46645265460217794
0.2114343866231618 0.1257369406390704 -0.465955446046945
0.21422585751182718 0.09365988584718017 -0.4650320587300836
0.3227877940572769 0.40401036304427096 -0.46453485017485063
-0.24244599451098123 0.3462489348849151 -0.4636114628579893
0.15983124156933473 0.40237667779136255 -0.4636114628579893
0.1428125030216445 0.06718708177070204 -0.46311425430275627
0.5621013746702902 0.19656785082169445 -0.46219086698589495
0.2683931781147846 0.3354808181744398 -0.4616936584306619
0.07563252423030296 0.2825636219389256 -0.4607702711138006
0.09434177186578548 0.07495063821169765 -0.4607702711138006
0.174200568815569 0.06448084663436231 -0.46027306255856754
0.2533845827261078 0.43044765222394676 -0.4593496752417062
0.3187817136979709 0.40117627427944275 -0.4588524666864733
0.113051019501268 0.28075946518136574 -0.45792907936961186
0.10369639568352669 0.06671828513291088 -0.45792907936961186
0.13624224711320818 0.09721847850677644 -0.4574318708143789
0.584639128181067 0.28075946518136574 -0.4565084834975176
0.29316126714474944 0.3975111369294394 -0.45601127494228455
0.30951232563255526 0.20592247463943567 -0.45508788762542324
0.02885940514159662 0.009461168508148288 -0.45508788762542324
0.20673931726588998 0.11301550460446556 -0.4545906790701902
0.36564006853900294 0.16850397936847064 -0.45366729175332887
0.28548294645607936 0.3860256193035567 -0.4531700831980959
0.20775504331443745 0.1404330049358864 -0.4522466958812345
0.19724973684029978 0.40238378077072307 -0.4522466958812345
0.4404841620602933 0.20592247463943567 -0.45082610000914014
0.2253136082935235 0.4398022760416881 -0.45082610000914014
0.14739392470914872 0.09457617018468095 -0.4503288914539072
0.1452204130248444 0.07116475021256621 -0.44940550413704583
0.113051019501268 0.28075946518136574 -0.44940550413704583
0.16513716715160712 0.08284204828118166 -0.44890829558181283
0.37500179533610456 0.10301450966492137 -0.44798490826495146
0.3131135361683145 0.3965025138602524 -0.44748769970971847
0.1708479625574264 0.0666046374631433 -0.44656431239285715
0.09434177186578548 -0.029761483520376497 -0.44656431239285715
0.1461366973623452 0.10184251807044349 -0.44606710383762416
0.2626681767502443 0.36053302637882373 -0.4451437165207628
-0.3266376088706526 0.3275396872494325 -0.4451437165207628
0.28837385905579144 0.32300088343809097 -0.4442913589975062
0.10369639568352669 0.06559601439395635 -0.4437231206486684
0.2588609798130314 0.35033314801718624 -0.4432259120934355
0.300157701814814 0.1497876287536276 -0.4423025247765741
0.39371104297158716 0.3462489348849151 -0.4423025247765741
0.26825822150693557 0.3461921110500313 -0.4418053162213411
0.1224056433190092 0.25269559372814193 -0.4408819289044798
0.019504781323855414 0.18721322700395315 -0.4408819289044798
0.18895345694726876 0.13839444985943097 -0.44038472034924675
0.12612050152453588 0.06559601439395635 -0.43946133303238544
0.2591166870700084 0.3551915858997489 -0.4389641244771524
0.20660436065804097 0.4415993298198873 -0.43804073716029107
0.24402285592900602 0.048683820536673174 -0.43804073716029107
0.2972738921944626 0.34058075735525867 -0.4375435286050581
0.2346682321112648 0.28075946518136574 -0.4366201412881967
0.24393051719731984 0.34269034222531874 -0.4361229327329637
0.19724973684029978 0.3649581825203975 -0.4351995454161024
7.884307090123909E-4 0.06671828513291088 -0.4351995454161024
0.20475048304495788 0.1113178925373128 -0.43470233686086934
0.4217749144248109 0.3462489348849151 -0.4337789495440081
0.3277882915270491 0.3890799004285594 -0.433281740988775
0.10369639568352669 0.24334096991040072 -0.4323583536719137
-0.10211953426550191 0.30883043961394996 -0.4323583536719137
-0.22373674687549872 0.2714048413636244 -0.43093775779981935
0.2533845827261078 0.3930220539736212 -0.43093775779981935
0.24633132422115936 0.31507395847180464 -0.4304405492445863
0.10369639568352669 0.30883043961394996 -0.429517161927725
0.2840055267491013 0.3138380400630825 -0.429019953372492
0.40306566678932826 0.4210930284062055 -0.4280965660556307
7.884307090123909E-4 0.1497876287536276 -0.4280965660556307
0.22593867047724506 0.29947581579620874 -0.4272442085323741
0.20660436065804097 0.24334096991040072 -0.42667597018353637
0.23158553906881998 0.3200673529622163 -0.42617876162830326
0.113051019501268 0.28075946518136574 -0.425255374311442
0.24816389289616103 0.3644183560890017 -0.42475816575620895
-0.04598468837969385 0.215277098457177 -0.42383477843934764
0.18197122823592501 0.14147003992251528 -0.42383477843934764
0.1989047310312896 0.11630418404836393 -0.4233375698841146
0.08498714804804416 0.29947581579620874 -0.42241418256725327
0.298502707623824 0.3248973789273371 -0.4219169740120203
0.20660436065804097 0.33689431106717377 -0.42099358669515896
0.15047661775159343 0.07024136289570482 -0.42099358669515896
0.18697172570569717 0.09326922198235417 -0.4204963781399259
0.2043527162007715 0.2901211919784675 -0.41957299082306465
0.25666615919064567 0.30284262801307227 -0.41907578226783154
-0.3266376088706526 0.3275396872494325 -0.4181523949509703
0.33390395675641515 0.37431280633813885 -0.4181523949509703
0.16665010175538755 0.08162033583118054 -0.41765518639573723
0.2346682321112648 0.2714048413636244 -0.4167317990788759
0.252937095026398 0.29809073482091675 -0.41623459052364287
-0.18631114862517317 0.2620502175458832 -0.41531120320678155
0.2533845827261078 0.2896381893819554 -0.41531120320678155
0.17184237966789245 0.0776923882448397 -0.41481399465154856
0.1224056433190092 0.25269559372814193 -0.41389060733468724
0.32299378045873056 0.35207337796050187 -0.4133933987794542
0.0101430545267537 0.11236913348266259 -0.41247001146259293
0.3099314014148231 0.3181850634316912 -0.41247001146259293
0.14563948880711222 0.10216925512102525 -0.4119728029073598
0.15047661775159343 0.1497876287536276 -0.41104941559049857
0.21990113802084404 0.3376614328381048 -0.4105522070352655
0.2002329881716979 0.28799029817032595 -0.4096288197184042
0.20659015469932007 0.32456353889739475 -0.40913161116317115
-0.08340318365065888 0.2901211919784675 -0.40820822384630984
0.27209383036159024 0.4854531243914398 -0.40820822384630984
0.1350631525393698 0.08403534881374096 -0.40771101529107684
0.1224056433190092 0.3181850634316912 -0.4067876279742155
0.23052719514410971 0.2936513727206219 -0.4062904194189825
0.19991335410047667 0.1217237573004039 -0.4059352704509589
0.24765247838220703 0.2916412295616084 -0.4048698235468881
0.0101430545267537 0.10301450966492137 -0.40451467457886453
0.4779026573312583 0.29947581579620874 -0.40451467457886453
0.13507025551873028 0.09686332953875287 -0.4034492276747938
0.3182134753491331 0.3275396872494325 -0.40309407870677016
0.19557343371122843 0.10714134067335547 -0.40202863180269943
0.39371104297158716 0.2620502175458832 -0.40167348283467585
0.32405922736280135 0.3585157802404496 -0.4006080359306051
7.884307090123909E-4 0.1404330049358864 -0.4002528869625815
0.37500179533610456 0.2901211919784675 -0.4002528869625815
0.1436080367100173 0.11072834525039366 -0.39918744005851076
0.10369639568352669 0.30883043961394996 -0.3988322910904872
0.2031452097094913 0.28946061489794356 -0.3977668441864164
0.16918586538707595 0.18721322700395315 -0.3974116952183928
0.23441962783364823 0.2826985785467745 -0.3963462483143221
0.18920916420424574 0.2714048413636244 -0.39599109934629845
0.2627392065438489 0.4491568998594294 -0.39542286099746077
0.2696433024822275 0.30441238645173657 -0.3949256524422277
0.3469308209035203 0.3649581825203975 -0.3940022651253664
-0.23309137069323999 0.33869846782473356 -0.3940022651253664
0.16666430771410845 0.050757890509930924 -0.3935050565701334
0.2253136082935235 0.24334096991040072 -0.39258166925327204
0.20634865340106398 0.34249856178258586 -0.39208446069803904
0.5621013746702902 0.20592247463943567 -0.3911610733811777
0.14112199393385222 0.29947581579620874 -0.3911610733811777
0.19414573485977354 0.30919269156133405 -0.3906638648259447
0.2533845827261078 0.4865753951303942 -0.38974047750908336
7.884307090123909E-4 0.04687966377911332 -0.38974047750908336
0.21392042939932687 0.2845240442424158 -0.38924326895385036
0.20890572597083382 0.3556035587026562 -0.388319881636989
7.884307090123909E-4 0.24334096991040072 -0.388319881636989
0.31041440401133524 0.3491824653607898 -0.387822673081756
0.3003423792781863 0.38675012319832486 -0.38689928576489463
-0.17695652480743196 0.3181850634316912 -0.38689928576489463
0.2788771756508408 0.3130140944572678 -0.3864020772096617
0.21821062893305176 0.08430526202943886 -0.3854786898928003
0.4217749144248109 0.2901211919784675 -0.3854786898928003
0.16456892880276938 0.1344025754588459 -0.3849814813375673
0.2346682321112648 0.04687966377911332 -0.384058094020706
0.2346682321112648 0.4491568998594294 -0.384058094020706
0.2872800002342788 0.3222337616671602 -0.38356088546547296
0.2346682321112648 0.4041808345489223 -0.38263749814861164
0.2253136082935235 0.01701873854769025 -0.38263749814861164
0.2068813768530994 0.2709857655813566 -0.38214028959337865
0.5153282555815839 0.18721322700395315 -0.3812169022765173
0.2222664301478811 0.07495063821169765 -0.3812169022765173
0.1632406716623611 0.26640434389385237 -0.3807196937212843
0.2075774688304256 0.1217237573004039 -0.3803645447532607
0.28144845417933156 0.11236913348266259 -0.3797963064044229
0.15183328680944355 0.2680806470229237 -0.37929909784918997
0.12034577930447246 0.08548435660327715 -0.37929909784918997
0.36564006853900294 0.1767292294678969 -0.3783757105323286
0.2545991921967484 0.29118663888253826 -0.3778785019770956
0.12927422436058536 0.11903172812278508 -0.3778785019770956
0.36564006853900294 0.15914225257136894 -0.3769551146602343
0.6463000920093219 0.2339863460926594 -0.3769551146602343
0.11747617564284181 0.08652139158990602 -0.37645790610500124
0.3469308209035203 0.4585115236771705 -0.3755345187881399
0.019504781323855414 0.007664114729948941 -0.3755345187881399
0.28453825020113677 0.35477251011748107 -0.37503731023290693
0.18960693104843215 0.1404330049358864 -0.3746821612648833
0.18789511302255846 -0.00924807912733423 -0.37411392291604556
0.2975367024307999 0.33094201436309856 -0.37361671436081256
0.13302459746291445 0.12317986806930058 -0.37361671436081256
0.16918586538707595 -0.01105223588489398 -0.3726933270439512
0.4124202906070696 0.4117384045884644 -0.3726933270439512
0.28439619061392724 0.3334564690567054 -0.37219611848871825
0.2075774688304256 0.1404330049358864 -0.3718409695206946
0.38435641915384583 0.43044765222394676 -0.3712727311718569
0.2752262442595583 0.3096756941578461 -0.3707755226166239
0.2017175108580364 0.07612262980617543 -0.3707755226166239
0.36564006853900294 0.16850397936847064 -0.3698521352997626
0.1840808131059852 0.23331156305341458 -0.3693549267445295
0.12100635638499625 0.09328342794107508 -0.3693549267445295
0.019504781323855414 0.1404330049358864 -0.3684315394276682
0.20660436065804097 0.4491568998594294 -0.3684315394276682
0.21791940677927246 0.2569715873031459 -0.3679343308724352
0.20390522850106177 0.1497876287536276 -0.3675791819044116
0.40306566678932826 0.4210930284062055 -0.36701094355557384
0.16763031290713268 0.31804300384448186 -0.36651373500034085
0.21380678172955928 0.12739193483006034 -0.36651373500034085
0.2969258462057994 0.3271632293433275 -0.3655903476834795
0.17169321710132254 0.31882433157413365 -0.36509313912824654
0.24063473477406097 0.10391658804370126 -0.36509313912824654
0.37500179533610456 0.09365988584718017 -0.36416975181138517
0.1461366973623452 0.2438381784656337 -0.36367254325615217
0.19266831515279545 0.14721635022513688 -0.36367254325615217
0.25151649915430374 0.2714048413636244 -0.36274915593929086
0.15279218902310726 0.0391090043587573 -0.3622519473840578
0.1439063618431571 0.233858492464171 -0.3622519473840578
0.2516372498034317 0.2714048413636244 -0.3613285600671965
0.07563252423030296 0.03752503996137211 -0.3613285600671965
0.1693989547678901 0.1461580063004266 -0.3608313515119635
0.40306566678932826 0.1497876287536276 -0.3599079641951021
0.09434177186578548 0.04687966377911332 -0.3599079641951021
0.1800960416847605 0.0520577357328972 -0.35941075563986913
0.15047661775159343 1.0654469040707986E-4 -0.35848736832300776
0.5995198699412553 0.28075946518136574 -0.35848736832300776
0.26806644106420274 0.13450201716989257 -0.3579901597677748
0.2588964947098338 0.4210930284062055 -0.35706677245091345
0.019504781323855414 0.2901211919784675 -0.35706677245091345
0.24307815967406332 0.09051326599049112 -0.35656956389568045
0.2627392065438489 0.4491568998594294 -0.35564617657881914
-0.08340318365065888 0.2339863460926594 -0.35564617657881914
0.21389201748188494 0.15612348634316847 -0.3551489680235861
0.4779026573312583 0.29947581579620874 -0.3542255807067248
0.36564006853900294 0.08430526202943886 -0.3542255807067248
0.13325189280244953 0.25438610281593416 -0.3537283721514918
0.2805747877179936 0.1217237573004039 -0.35337322318346814
0.15983124156933473 0.37431280633813885 -0.3528049848346304
0.27571634983543075 0.1382808021896635 -0.3523077762793974
0.19425938252954114 0.21246431863043017 -0.3523077762793974
0.09434177186578548 0.09253051212886512 -0.35138438896253604
0.300157701814814 0.4865753951303942 -0.35138438896253604
0.2740755616031618 0.14313924007222614 -0.3508871804073031
0.12677397562569928 0.215277098457177 -0.35053203143927947
0.2533845827261078 0.4398022760416881 -0.34996379309044173
0.16132997021439427 0.21882858813741285 -0.34946658453520874
0.2613754345066385 0.15878710360334536 -0.34946658453520874
0.30951232563255526 0.16850397936847064 -0.3485431972183474
0.2589746274827989 0.32999021512879523 -0.34804598866311437
0.2561192297798894 0.10453454724806231 -0.34804598866311437
0.36564006853900294 0.1497876287536276 -0.34712260134625306
0.09434177186578548 0.04687966377911332 -0.34712260134625306
0.15412754914287588 0.14394897971931994 -0.34662539279102006
0.2253136082935235 0.4696703042524716 -0.3457020054741587
0.0101430545267537 0.3275396872494325 -0.3457020054741587
0.28000654936915575 0.13247766805215805 -0.3452047969189257
0.4404841620602933 0.16850397936847064 -0.3442814096020643
0.09434177186578548 -0.029761483520376497 -0.3442814096020643
0.22480929675893002 0.34279688691572574 -0.34378420104683133
0.2993976830232435 0.17221883757399734 -0.34342905207880775
0.2908030779970729 0.3649581825203975 -0.34286081372997
0.1892801939978505 0.2069097887705412 -0.342363605174737
0.25532369609151656 0.19509043111471625 -0.34200845620671344
0.3469308209035203 0.1404330049358864 -0.3414402178578757
0.19119799842517785 0.20764139564466985 -0.34094300930264265
0.24429987212406443 0.19599250949349623 -0.3405878603346191
0.4217749144248109 0.3556035587026562 -0.34001962198578134
0.2547980756188416 0.2982114854700447 -0.3395224134305483
0.26634041707960815 0.20592247463943567 -0.3391672644625247
0.09626667927247332 0.06559601439395635 -0.338599026113687
0.14117171478937546 0.20977939243217186 -0.3381018175584539
0.30786443442092587 0.16850397936847064 -0.3377466685904304
0.5153282555815839 0.19656785082169445 -0.3371784302415926
0.19623401079175232 0.20908330045484563 -0.3366812216863596
-0.23309137069323999 0.3462489348849151 -0.3357578343694983
0.5621013746702902 0.19656785082169445 -0.3357578343694983
0.11611950658499169 0.08470302887362526 -0.33526062581426525
0.5995198699412553 0.28075946518136574 -0.334337238497404
7.884307090123909E-4 0.1497876287536276 -0.334337238497404
0.24117456120545688 0.19136136695046865 -0.3338400299421709
-0.017920816926470125 0.21414772473886193 -0.3329166426253096
0.2627392065438489 0.3462489348849151 -0.3329166426253096
0.10777350583643744 0.07196028390093902 -0.33241943407007657
-0.12082878190098442 0.24447034362871575 -0.33149604675321526
0.0920901274085159 0.273656485820894 -0.33149604675321526
0.1517977719126412 0.13919708652716428 -0.3309988381979822
0.5153282555815839 0.19656785082169445 -0.3300754508811209
0.0101430545267537 0.17785860318621194 -0.3300754508811209
0.27967981231857414 0.19977129451326717 -0.3295782423258879
0.4404841620602933 0.16850397936847064 -0.3286548550090266
0.019504781323855414 0.16850397936847064 -0.3286548550090266
0.1645973407202112 0.15234470132339742 -0.32815764645379353
0.4311295382425522 0.37431280633813885 -0.3272342591369322
-0.17695652480743196 0.2620502175458832 -0.3272342591369322
0.1855156149368005 0.16983223650887883 -0.32673705058169916
0.18789511302255846 -0.00924807912733423 -0.3258136632648379
0.11631839000708494 0.2790192352380501 -0.32531645470960485
0.13459435590157864 0.04835708348609153 -0.32531645470960485
0.20413962681995734 0.19557343371122843 -0.32439306739274354
0.10708451683847173 0.27046724808804223 -0.3238958588375105
0.29681219853603175 0.1405537555850144 -0.3238958588375105
0.337576197085779 0.16850397936847064 -0.32297247152064923
0.21976618141299514 0.33775377156979075 -0.3224752629654162
0.4217749144248109 0.3106274933921493 -0.32155187564855486
-0.08340318365065888 0.24334096991040072 -0.32155187564855486
0.15072522202920993 0.038498148133756745 -0.3210546670933218
0.2533845827261078 0.4772207713126531 -0.3201312797764605
0.18158766735045964 0.1862046039347662 -0.31963407122122744
0.25089853994994255 0.31569902065552613 -0.31963407122122744
0.15596011781787764 0.17288651763388171 -0.3187106839043662
0.19214979765948106 0.18761809682750005 -0.31821347534913313
0.19590727374117056 0.1789879769045269 -0.31821347534913313
0.2346682321112648 0.3409856271788055 -0.3172900880322718
0.10258833090329315 0.27226430186624156 -0.31679287947703877
0.29235152749765564 0.2016677900025131 -0.31679287947703877
0.2509766727229079 0.2339863460926594 -0.3158694921601775
0.1368246914207668 0.04261787616283033 -0.31537228360494446
0.12778970167424675 0.2010214188807102 -0.31537228360494446
0.27209383036159024 0.2339863460926594 -0.31444889628808315
0.2610344914973359 0.08730271931955791 -0.3139516877328501
0.2155896295490377 0.3372991808907206 -0.3139516877328501
0.25502537095837674 0.07495063821169765 -0.3135965387648265
0.21795492167607478 0.3410566569724101 -0.3125310918607557
0.24701321023976466 0.3173682208052371 -0.3125310918607557
7.884307090123909E-4 0.10301450966492137 -0.31217594289273215
0.18651713502662692 0.033341385118054276 -0.3111104959886614
0.4685480335135172 0.16850397936847064 -0.3107553470206378
-0.12082878190098442 0.2339863460926594 -0.3107553470206378
0.25864789043221725 0.3037589123505732 -0.30968990011656705
0.2346682321112648 0.37431280633813885 -0.3093347511485435
-0.2798644897819463 0.2714048413636244 -0.3093347511485435
0.29000044132933955 0.2162360006708406 -0.30826930424447274
0.08498714804804416 0.06559601439395635 -0.3079141552764491
0.2284034043153287 0.23630191736417322 -0.3068487083723784
0.3090364260154036 0.14301138644373765 -0.3068487083723784
0.2626752797296048 0.3005980865351632 -0.3064935594043548
0.12022502865534437 0.1939539544170408 -0.305428112500284
0.13411135330506657 0.08464620503874151 -0.305428112500284
0.37500179533610456 0.15914225257136894 -0.30507296353226043
0.29990909753719747 0.21840240937578453 -0.3040075166281897
0.16309150909579118 0.1774111154865022 -0.3040075166281897
7.884307090123909E-4 0.05624139057621513 -0.30365236766016607
0.12631228196726862 0.08225250099426253 -0.30258692075609533
0.584639128181067 0.28075946518136574 -0.301663533439234
-0.08340318365065888 0.2818888388996808 -0.301663533439234
0.19920305616442943 0.34793234099334686 -0.301166324884001
0.40306566678932826 0.38366743015587995 -0.3002429375671397
-0.26566563404036325 0.2714048413636244 -0.3002429375671397
0.17454861480423206 0.16585456806701465 -0.29974572901190666
0.20660436065804097 0.4491568998594294 -0.29882234169504535
0.279182603763341 0.23115225732783126 -0.2983251331398123
0.17238930907864874 0.04256815530730699 -0.2983251331398123
0.39371104297158716 0.2714048413636244 -0.297401745822951
0.26786045466274905 0.08731692527827892 -0.296904537267718
0.1667424404870737 0.0483215685892891 -0.296904537267718
0.20660436065804097 1.0654469040707986E-4 -0.2959811499508566
0.1412285386242593 0.11609819764691028 -0.2954839413956236
0.2533845827261078 0.43044765222394676 -0.2945605540787623
-0.16760190098969066 0.33689431106717377 -0.2945605540787623
0.11473442560969975 0.20343643186327062 -0.2940633455235293
0.06627790041256165 0.27320899812118427 -0.29313995820666794
0.12325800084226585 0.1823334801833091 -0.29264274965143494
0.2367849199606853 0.31389486389796634 -0.29264274965143494
0.02885940514159662 0.009461168508148288 -0.2917193623345736
0.22579661089003555 0.04329265920207513 -0.2912221537793406
0.40306566678932826 0.4135354583666636 -0.29029876646247926
-0.15824727717194945 0.24221869917144617 -0.29029876646247926
0.26675238988251543 0.08691205545473202 -0.28980155790724627
0.37500179533610456 0.1580199818324144 -0.2888781705903849
0.2809796575415404 0.23454748146213672 -0.2883809620351519
0.17825637003039835 0.04602020327649628 -0.2883809620351519
0.2533845827261078 0.292372836435737 -0.2874575747182906
0.1477419706978119 0.3175386923098884 -0.2869603661630576
0.2887574199412569 0.2836077599049149 -0.2869603661630576
0.4124202906070696 0.19656785082169445 -0.2860369788461962
0.24220449321272525 0.29674827172178764 -0.2855397702909632
0.3067421636819714 0.28001365234851616 -0.28518462132293965
0.4124202906070696 0.3099527103529045 -0.28461638297410186
0.13561008195012608 0.31479694227674615 -0.28411917441886886
0.2993976830232435 0.26265397079152325 -0.2837640254508453
0.6463000920093219 0.24334096991040072 -0.28319578710200755
0.11501854478411867 0.18469877231034618 -0.28269857854677455
0.2920532023645158 0.31067721424767264 -0.2823434295787509
0.4124202906070696 0.33689431106717377 -0.2817751912299132
0.3048882860688881 0.22915632012753867 -0.2812779826746802
0.12059438358208895 0.30883043961394996 -0.2809228337066566
-0.22373674687549872 0.33689431106717377 -0.2809228337066566
0.1572244481440416 0.07936869137391106 -0.2798573868025859
0.39371104297158716 0.33689431106717377 -0.27950223783456224
0.15119401866700108 0.10309264243788653 -0.2784367909304915
0.303815736185457 0.29559048608603067 -0.2784367909304915
0.31041440401133524 0.3275396872494325 -0.27808164196246793
0.14419048101757603 0.14579575435304254 -0.27701619505839714
0.21379967875019887 0.3158552862014564 -0.27701619505839714
0.15983124156933473 0.40237667779136255 -0.27666104609037356
0.2576534733217513 0.28659101123631303 -0.27559559918630283
-0.17695652480743196 0.30127286957440813 -0.2752404502182792
0.6369454681915808 0.22463172227491818 -0.2752404502182792
0.15640050253822688 0.11484097030010684 -0.27417500331420847
0.2346682321112648 0.47902492807021285 -0.2738198543461849
0.24277273156156298 0.2738766781810687 -0.27275440744211416
0.3112596585552314 0.28541191666247473 -0.27275440744211416
0.38435641915384583 0.17785860318621194 -0.2723992584740905
0.2131604106077564 0.3156706087380843 -0.2713338115700198
0.27972243019473697 0.2409259569278403 -0.2713338115700198
-0.04598468837969385 0.22463172227491818 -0.2709786626019962
0.24138765058627104 0.2851420034467768 -0.2699132156979254
0.0101430545267537 0.28075946518136574 -0.26955806672990185
0.11855582850563352 0.29179749510753883 -0.2684926198258311
0.15758670009142567 0.09474664168933228 -0.2684926198258311
0.38435641915384583 0.17785860318621194 -0.26756923250896975
0.11614791850243361 0.293637166761901 -0.26707202395373675
0.1224056433190092 0.3181850634316912 -0.26614863663687544
0.20352166761559629 0.0537908626968523 -0.26565142808164244
0.3287685026787942 0.3119131326563947 -0.26565142808164244
0.3469308209035203 0.45096105661698915 -0.26472804076478107
0.08547725362391674 0.22566875726154706 -0.26423083220954807
0.15047661775159343 -0.007443922369774377 -0.2638756832415245
0.29853822252062656 0.25032319862174446 -0.2628102363374537
0.3318725046593202 0.3166508198898294 -0.2628102363374537
0.2159589844757823 0.43044765222394676 -0.2618868490205924
0.23028569384585373 0.05443013083929478 -0.2613896404653594
0.02885940514159662 -0.02040685970263529 -0.26046625314849803
0.18922337016296667 0.3284062507314101 -0.25996904459326503
0.4311295382425522 0.25269559372814193 -0.2590456572764037
-0.18631114862517317 0.2620502175458832 -0.2590456572764037
0.18702854954058093 0.06855085380791255 -0.2585484487211707
0.3596664628968462 0.33689431106717377 -0.25762506140430935
0.2934809012159706 0.23525067641882344 -0.25712785284907635
0.4404841620602933 0.1767292294678969 -0.256204465532215
-0.3266376088706526 0.33689431106717377 -0.256204465532215
0.17160798134899685 0.07978776715617887 -0.255707256976982
0.3397994296256068 0.35325957551370063 -0.2547838696601207
0.29229470366277177 0.2369127735891738 -0.2542866611048877
-0.10211953426550191 0.3181850634316912 -0.2533632737880263
0.09999574343672092 0.20081543247925654 -0.2528660652327933
0.3311622067232731 0.33994859219217666 -0.2528660652327933
0.0101430545267537 0.11236913348266259 -0.251942677915932
0.1959356856586125 0.3185970362345987 -0.251445469360699
0.36564006853900294 0.34338643420264486 -0.25052208204383764
0.2921739530136438 0.23567685518045176 -0.25002487348860464
0.4124202906070696 0.33689431106717377 -0.24910148617174327
0.1641924708966643 0.1118435130099877 -0.24860427761651024
0.2872444853374765 0.23370222691824058 -0.24860427761651024
0.330302746220656 0.20592247463943567 -0.24768089029964896
0.11647465555301537 0.15980282965189282 -0.24718368174441593
0.38435641915384583 0.3556035587026562 -0.2462602944275546
0.20829486974583325 0.0652763803227351 -0.24576308587232157
0.16854659724463347 0.1102453426538816 -0.24576308587232157
0.37500179533610456 0.1580199818324144 -0.24483969855546028
0.11891808045301759 0.29720286240085775 -0.24434249000022726
0.19656785082169445 0.3213956101026244 -0.24341910268336592
0.20671800832780857 0.06785476183058634 -0.2429218941281329
0.32827129412356104 0.3059537329729589 -0.2429218941281329
0.30951232563255526 0.10301450966492137 -0.24199850681127155
0.1676587248245745 0.09607489882974048 -0.24150129825603853
0.3644325620477226 0.3462489348849151 -0.24057791093917724
0.12358473789284749 0.1396232652887926 -0.24008070238394422
0.33901099891659425 0.3184549766473892 -0.24008070238394422
0.3525705865157349 0.4398022760416881 -0.23915731506708288
0.18736949254988358 0.31413636519622234 -0.23866010651184985
0.2579233865374491 0.2756311140831052 -0.23866010651184985
0.0101430545267537 0.28075946518136574 -0.23773671919498857
0.10061370264108198 0.2519852957920948 -0.23723951063975554
0.15047661775159343 0.3275396872494325 -0.2363161233228942
0.28222267892962305 0.24049977816621199 -0.23581891476766118
0.30797097911133303 0.20749223307809994 -0.23581891476766118
0.2159589844757823 0.3181850634316912 -0.23489552745079983
0.283863467161892 0.23932068359237368 -0.2343983188955668
0.25647437874791307 0.2701263050787396 -0.2343983188955668
0.3317943718863551 0.19656785082169445 -0.23347493157870552
0.1380108889739656 0.30145044405841986 -0.2329777230234725
0.22362309920573123 0.2884235799113147 -0.2329777230234725
0.0101430545267537 0.18721322700395315 -0.23205433570661116
0.12101345936435676 0.2921668500342833 -0.23155712715137813
0.36564006853900294 0.1310783811181451 -0.23063373983451685
-0.24244599451098123 0.3462489348849151 -0.23063373983451685
0.32923019633722483 0.32683649229274586 -0.23013653127928382
0.10369639568352669 0.06559601439395635 -0.22921314396242248
0.32943618273867853 0.32229768848140433 -0.22871593540718946
0.24030799772347933 0.27031098254211183 -0.22871593540718946
0.2533845827261078 0.38366743015587995 -0.22779254809032812
0.1945079868071576 0.09836205818381238 -0.2272953395350951
0.2717244754348458 0.2637620355717569 -0.2272953395350951
0.45919340969577593 0.3106274933921493 -0.22637195221823378
0.27414659139676667 0.09071925239194487 -0.22587474366300078
7.884307090123909E-4 0.2339863460926594 -0.22495135634613944
0.20660436065804097 0.37431280633813885 -0.22495135634613944
0.20495646944641155 0.0860952128282777 -0.22445414779090642
0.19199353211355064 0.08444021863728786 -0.2235307604740451
0.3332859975520542 0.331702033154669 -0.22303355191881208
0.3106061844540679 0.20085094737605888 -0.22303355191881208
0.31250978292267434 0.21804726040776085 -0.22211016460195074
0.26874122410344753 0.2629451929453027 -0.22161295604671774
0.4404841620602933 0.19656785082169445 -0.22068956872985637
7.884307090123909E-4 0.15914225257136894 -0.22068956872985637
0.29841747187149836 0.11136051041347562 -0.22019236017462337
0.3231713549427424 0.20592247463943567 -0.21926897285776206
0.34107796591049155 0.34872077170235916 -0.21877176430252904
0.16184848770770865 0.2981901765319633 -0.21877176430252904
0.3369511349020575 0.36512155104568833 -0.2178483769856677
0.15913514959200853 0.30199027048981575 -0.21735116843043467
0.4124202906070696 0.30883043961394996 -0.2164277811135734
-0.13953802953646693 0.33689431106717377 -0.2164277811135734
0.2637407266336756 0.22404217498799905 -0.21593057255834036
0.39371104297158716 0.25269559372814193 -0.21500718524147902
0.1847342872071486 0.09590442732508915 -0.214509976686246
0.10577046565678444 0.2714048413636244 -0.21358658936938466
0.3570525664921926 0.348521888280266 -0.21308938081415163
0.2640106398493734 0.10289375901579338 -0.21308938081415163
0.09434177186578548 0.2714048413636244 -0.21216599349729034
0.23846122308975665 0.25142416042261756 -0.21166878494205732
7.884307090123909E-4 0.07495063821169765 -0.21074539762519598
0.3672595478331903 0.3688861301067384 -0.21024818906996295
0.25457078027930663 0.10636001294370358 -0.21024818906996295
0.5153282555815839 0.19656785082169445 -0.20932480175310167
0.2389016078101059 0.2550253709583767 -0.20882759319786864
0.4217749144248109 0.3556035587026562 -0.2079042058810073
0.3476198099014861 0.3564204013291105 -0.20740699732577428
0.2505433909819191 0.22207464970514837 -0.20740699732577428
0.0101430545267537 0.10301450966492137 -0.20648361000891294
0.1503061462469421 0.1197349230794718 -0.2059864014536799
0.08498714804804416 0.29947581579620874 -0.20506301413681863
0.22794881363625846 0.24341199970400546 -0.2045658055815856
-0.24244599451098123 0.3462489348849151 -0.20364241826472426
0.24402285592900602 0.4210930284062055 -0.20364241826472426
0.18151663755685488 0.2899365145150952 -0.20314520970949124
0.24402285592900602 0.4883795518879542 -0.20222182239262995
0.2285099490057358 0.24883867593540582 -0.20172461383739693
0.2159589844757823 0.03752503996137211 -0.2008012265205356
0.10501044686521398 0.23790719069963984 -0.20030401796530256
-0.18631114862517317 0.2818888388996808 -0.19938063064844122
0.5153282555815839 0.19656785082169445 -0.19938063064844122
0.20556732567141212 0.2759365421956054 -0.1988834220932082
0.16918586538707595 -0.01105223588489398 -0.1979600347763469
0.22164136796415965 0.2733439547290333 -0.19746282622111389
0.37500179533610456 0.2825636219389256 -0.19653943890425254
0.3101160788781954 0.15099513524490782 -0.19604223034901952
0.6369454681915808 0.22463172227491818 -0.19511884303215823
0.10067762945532623 0.22071798064729825 -0.1946216344769252
-0.18631114862517317 0.28075946518136574 -0.19369824716006387
0.4779026573312583 0.29947581579620874 -0.19369824716006387
0.29387866806015706 0.14411945122397127 -0.19320103860483084
0.27209383036159024 0.4772207713126531 -0.1922776512879695
0.26825111852757505 0.11369739062307088 -0.19178044273273648
0.37500179533610456 0.1580199818324144 -0.1908570554158752
0.22363020218509175 0.09786484962857941 -0.19035984686064217
0.35403380026399206 0.39528080141025135 -0.18943645954378083
-0.08340318365065888 0.29947581579620874 -0.18943645954378083
0.2883383441589891 0.14035487216292125 -0.1889392509885478
0.3892006510776875 0.1497876287536276 -0.18801586367168652
0.2198727261034021 0.0944980374117158 -0.1875186551164535
0.39371104297158716 0.3462489348849151 -0.18659526779959215
0.3740286871637199 0.370129151494821 -0.18609805924435913
0.3570312575541111 0.3556035587026562 -0.18574291027633555
0.3552128948378303 0.3649581825203975 -0.18517467192749779
0.24259515707755125 0.2261233479406172 -0.18467746337226476
0.30951232563255526 0.10301450966492137 -0.18375407605540348
0.2922165708898066 0.14581706329112396 -0.18325686750017045
0.13727928209983695 0.3181850634316912 -0.1823334801833091
0.11988408564604171 0.25846321296884506 -0.18183627162807608
0.2627392065438489 0.05624139057621513 -0.18048670554958646
0.3799241600329115 0.3878794969166398 -0.18041567575598177
0.38369584207332186 0.3690708075701107 -0.1789950798838874
0.0101430545267537 0.1217237573004039 -0.17863993091586383
0.36232297717766254 0.3906070409910608 -0.17757448401179304
0.08498714804804416 0.29947581579620874 -0.1764806251902804
-0.3172829850529113 0.3462489348849151 -0.1764806251902804
0.26462859905373454 0.20910460939292697 -0.17615388813969873
0.2523901656156417 0.2321111595414949 -0.17473329226760437
0.3469308209035203 0.1310783811181451 -0.17431421648533654
0.1122483828335347 0.13699516292541813 -0.17331269639551003
0.36564006853900294 0.15914225257136894 -0.17215491075975312
0.3619181073541157 0.3691915582192387 -0.17189210052341566
0.3670677673904577 0.38967655069483903 -0.17047150465132133
-0.12082878190098442 0.2339863460926594 -0.16998850205480925
0.10369639568352669 0.08430526202943886 -0.16998850205480925
0.11062180055998658 0.1536374435670033 -0.169050908779227
0.2346682321112648 0.4865753951303942 -0.16782919632922583
0.2857741686098589 0.19236999001965563 -0.16763031290713262
0.2714971800953106 0.2258250228074775 -0.1662097170350383
0.2627392065438489 0.3854715869134399 -0.16566278762428197
0.15453241896642278 0.2833520526479379 -0.16478912116294395
0.2627392065438489 0.3462489348849151 -0.16336852529084958
0.2343983188955668 0.0953077770588096 -0.16336852529084958
0.29809073482091675 0.1725881925007419 -0.16194792941875527
0.40306566678932826 0.215277098457177 -0.16133707319375473
0.10292927391259571 0.14711690851409032 -0.1605273335466609
0.27209383036159024 0.0760729089506521 -0.1591067376745666
0.299525536651732 0.16144361788416176 -0.1591067376745666
0.151357387192292 0.280177020873807 -0.15768614180247223
0.2346682321112648 0.04687966377911332 -0.15701846174258788
0.2043598191801319 0.08771469212246531 -0.15626554593037786
0.0101430545267537 0.07495063821169765 -0.15484495005828355
0.38704844833146457 0.3696958697538322 -0.15484495005828355
0.08920631778816443 0.17707727545656007 -0.1534243541861892
0.0101430545267537 0.11236913348266259 -0.1526927473120606
0.3618541805398714 0.3923969917898998 -0.15200375831409488
0.019504781323855414 0.29947581579620874 -0.1505831624420005
0.3564204013291106 0.36542697915818867 -0.1505831624420005
0.3499353811729999 0.3848394217503579 -0.14916256656990615
-0.13018340571872564 0.30883043961394996 -0.14836703288153336
0.3771824099997695 0.40611994791433104 -0.14774197069781184
-0.3172829850529113 0.33869846782473356 -0.14632137482571747
0.39628232150007786 0.3693407207858085 -0.14632137482571747
0.3772108219172113 0.40347763959223565 -0.14490077895362316
0.056923276594820445 0.2714048413636244 -0.14404131845100607
0.5995198699412553 0.28075946518136574 -0.14404131845100607
0.278323143260724 0.2255764185298609 -0.1434801830815288
0.10283693518090964 0.15320416182601457 -0.14205958720943443
0.4124202906070696 0.38366743015587995 -0.14187490974606218
0.25926584963657845 0.24150129825603853 -0.14063899133734012
0.2346682321112648 0.4117384045884644 -0.13971560402047878
0.09993181662247666 0.13632037988617324 -0.13921839546524575
0.35141990385933847 0.3649581825203975 -0.13829500814838447
0.30841136383168216 0.14170443824141085 -0.13779779959315144
0.37500179533610456 0.16850397936847064 -0.1368744122762901
0.20296053224611896 0.2809938635002613 -0.13637720372105708
0.09434177186578548 -0.03731195058055795 -0.13545381640419574
0.1013240005771291 0.14865825503531266 -0.1349566078489627
0.3562854447212616 0.4415993298198873 -0.13403322053210143
0.3991945430378713 0.36691150184452725 -0.1335360119768684
0.4217749144248109 0.3181850634316912 -0.13261262466000706
-0.13953802953646693 0.30883043961394996 -0.13261262466000706
0.3099171954561023 0.15387184188589886 -0.13211541610477404
0.34992827819363936 0.38890942892390806 -0.13119202878791272
0.2999517154133603 0.20722942284176246 -0.13069482023267973
0.06627790041256165 0.28075946518136574 -0.12977143291581839
0.20388391956298035 0.0815635119962968 -0.12927422436058536
-0.06469393601517637 0.22463172227491818 -0.12835083704372402
0.37850356416081704 0.40320062339717716 -0.127853628488491
0.27531148001188394 0.10915148383236897 -0.127853628488491
0.19724973684029978 0.4398022760416881 -0.12693024117162968
0.07424744325501093 0.21590926362025895 -0.12643303261639668
0.36564006853900294 0.33689431106717377 -0.12550964529953532
0.2768954444092692 0.2493216785319179 -0.12501243674430232
0.28144845417933156 0.4883795518879542 -0.12408904942744102
0.3672169299570275 0.37927778891110847 -0.123591840872208
0.5995198699412553 0.28075946518136574 -0.12266845355534665
-0.13018340571872564 0.29947581579620874 -0.12266845355534665
0.29382184422527324 0.22880117115951512 -0.12217124500011363
0.15047661775159343 -0.007443922369774377 -0.12124785768325229
0.2875357074912558 0.2501101092409303 -0.12075064912801926
0.09434177186578548 0.2620502175458832 -0.11982726181115798
0.10570653884254019 0.2531643903659331 -0.11933005325592495
0.45919340969577593 0.3106274933921493 -0.11840666593906361
-0.18631114862517317 0.2620502175458832 -0.11840666593906361
0.3104428159287771 0.22793460767753757 -0.11790945738383059
0.27772649299444435 0.2714048413636244 -0.11698607006696929
0.31144433601860355 0.21131363597403371 -0.11648886151173628
0.34150414467211987 0.3930220539736212 -0.11556547419487492
-0.23309137069323999 0.33869846782473356 -0.11556547419487492
0.30957625244679965 0.2218260454275319 -0.11506826563964191
0.26647537368745716 0.28075946518136574 -0.11414487832278057
0.26891169560809886 0.10076286520765189 -0.11364766976754755
0.4404841620602933 0.18721322700395315 -0.11272428245068625
0.0101430545267537 0.17785860318621194 -0.11272428245068625
0.0802139459178072 0.23804925028684923 -0.11222707389545322
0.300157701814814 0.4865753951303942 -0.11130368657859188
0.40556591552421434 0.3922691381614113 -0.11080647802335887
0.316480348385178 0.20734307051153003 -0.11080647802335887
0.33432303253868295 0.20443084897373665 -0.10988309070649757
0.2747574476217671 0.2693520803284482 -0.10938588215126455
0.4311295382425522 0.3649581825203975 -0.1084624948344032
0.0101430545267537 0.2889918182601525 -0.1084624948344032
0.06429616917099007 0.1767363324472574 -0.10796528627917018
0.27209383036159024 0.4585115236771705 -0.10704189896230884
0.3737090530924988 0.3873183615471625 -0.10654469040707581
0.3187319928424476 0.20680324408013412 -0.10654469040707581
0.3363757935738594 0.17785860318621194 -0.10562130309021453
0.19112696863157308 0.283941599934857 -0.1051240945349815
0.3236543575392546 0.20391943445978267 -0.1051240945349815
0.337576197085779 0.17545069318301193 -0.10420070721812016
0.26940180118397156 0.2772008725217694 -0.10370349866288714
0.5621013746702902 0.20592247463943567 -0.10278011134602585
0.2346682321112648 0.018815792325889598 -0.10278011134602585
0.33214241787501825 0.18420866673447361 -0.10228290279079283
-0.13018340571872564 0.30883043961394996 -0.10135951547393149
0.18789511302255846 0.40237667779136255 -0.10135951547393149
0.13690282419373195 0.08230222184978586 -0.10086230691869846
7.884307090123909E-4 0.16850397936847064 -0.09993891960183718
0.07563252423030296 0.2825636219389256 -0.09993891960183718
0.26139674344471986 0.27786855258165377 -0.0994417110466041
0.5995198699412553 0.27320899812118427 -0.09851832372974281
0.3874107002788487 0.3838947254954151 -0.09802111517450973
0.34031084413956075 0.21941813542433197 -0.09802111517450973
0.08498714804804416 0.05803844435441448 -0.09709772785764845
0.38901597361431534 0.3795761140442483 -0.09660051930241548
0.3422144426081672 0.21839530639642402 -0.09660051930241548
0.38435641915384583 0.27320899812118427 -0.09567713198555408
0.18693621080889486 0.0735300423396033 -0.09517992343032111
0.32632507777879177 0.1745983356597554 -0.09517992343032111
0.40481299971200435 0.4117384045884644 -0.09425653611345972
0.10473343067015556 0.2642024202921061 -0.09375932755822675
0.27209383036159024 0.2969826700406832 -0.09340417859020318
0.3469308209035203 0.08430526202943886 -0.09283594024136545
0.20375606593449186 0.06843010315878456 -0.09233873168613238
0.10369639568352669 0.10301450966492137 -0.09141534436927108
0.2627392065438489 0.3556035587026562 -0.09141534436927108
0.35872176664190336 0.24736835920778813 -0.09091813581403801
-0.22373674687549872 0.2714048413636244 -0.08999474849717672
0.2346682321112648 0.4491568998594294 -0.08999474849717672
0.18971347573883923 0.29343118036044735 -0.08949753994194375
-0.13018340571872564 0.2901211919784675 -0.08857415262508236
0.3801940732486093 0.25269559372814193 -0.08857415262508236
0.3440683202212503 0.1669697358266088 -0.08807694406984938
0.019504781323855414 -0.018602702945075437 -0.087153556752988
0.3976674024753698 0.40324324127334 -0.08665634819775501
0.3609307932230101 0.24513092070923956 -0.08665634819775501
0.3797892034250625 0.3963391453349616 -0.08573296088089373
0.3531601338026541 0.18538065832895148 -0.08523575232566066
0.37652183291924546 0.21419034261502476 -0.08488060335763709
0.337576197085779 0.3556035587026562 -0.08431236500879936
0.37529301748988386 0.22831106558364256 -0.0838151564535663
-0.23309137069323999 0.3462489348849151 -0.082891769136705
0.4124202906070696 0.38366743015587995 -0.082891769136705
0.3776512066375604 0.24569915905807727 -0.08239456058147203
0.019504781323855414 -0.018602702945075437 -0.08147117326461063
0.35656246091631993 0.26692286138716675 -0.08097396470937766
0.34657567193549665 0.27340077856391704 -0.08097396470937766
0.4404841620602933 0.1767292294678969 -0.08005057739251627
0.20266931009233963 0.28517751834357913 -0.0795533688372833
0.2159589844757823 0.3099527103529045 -0.07862998152042201
0.39489013754542546 0.3974045922390324 -0.07862998152042201
0.37022859320586754 0.21525578951909558 -0.07813277296518893
0.37500179533610456 0.09365988584718017 -0.07720938564832765
0.34712970432561346 0.16275056608648852 -0.07671217709309457
0.08144276134716881 0.2620502175458832 -0.076357028125071
0.3985623778747893 0.4103036027576489 -0.076357028125071
0.33423069380699677 0.1519114195824087 -0.07529158122100031
0.3801940732486093 0.19656785082169445 -0.07493643225297664
0.11288765097597707 0.10241785939864173 -0.07387098534890595
-0.017920816926470125 0.21414772473886193 -0.07351583638088238
0.2613612285479175 0.08192576394368088 -0.07245038947681158
0.266127327698794 0.30495931586249286 -0.07245038947681158
0.3562854447212616 0.4491568998594294 -0.07209524050878802
0.12282471910127701 0.08652849456926652 -0.07102979360471721
0.0101430545267537 0.11236913348266259 -0.07067464463669365
0.23915021208772247 0.299916200516558 -0.06960919773262285
0.11942949496697157 0.29947581579620874 -0.06925404876459929
0.19724973684029978 0.3649581825203975 -0.06925404876459929
0.37244472276633483 0.20284688457635147 -0.06818860186052858
0.37500179533610456 0.1217237573004039 -0.06783345289250492
0.32176496502936897 0.11369028764371038 -0.06676800598843421
0.06836617634454031 0.25269559372814193 -0.06641285702041065
0.6088815967383568 0.19656785082169445 -0.06641285702041065
0.20764849862403037 0.28317447816392616 -0.06534741011633986
0.36564006853900294 0.15647863531119202 -0.06499226114831629
0.36522809573609544 0.29222367386916714 -0.0639268142442455
-0.24244599451098123 0.3462489348849151 -0.06357166527622192
0.06168937574569692 0.19348515777924966 -0.06250621837215113
0.1760899613254545 0.29407755148225023 -0.06250621837215113
0.2253136082935235 0.3930220539736212 -0.06215106940412756
0.06225051111517424 0.14098703732600323 -0.06108562250005686
0.2627392065438489 0.3556035587026562 -0.060730473532033195
0.28252810704212317 0.31899480307878497 -0.0596650266279625
0.3623442861157439 0.16997429609608833 -0.0596650266279625
-0.017920816926470125 0.3199821172098906 -0.059309877659938934
0.06538292501314218 0.24687825363191565 -0.05824443075586814
0.15047661775159343 0.3761169630956986 -0.05788928178784457
0.08626568433292912 0.11722757136522532 -0.05682383488377377
0.07789127166693295 0.12968619716349267 -0.05682383488377377
-0.08340318365065888 0.2901211919784675 -0.0564686859157502
0.06923984280587837 0.2350659989554511 -0.05540323901167941
0.4685480335135172 0.30883043961394996 -0.055048090043655844
0.16958363223126235 0.3059750419110403 -0.053982643139585146
0.056923276594820445 0.26092794680692866 -0.05362749417156148
