0.09567874877746864 0.2679857297306755 -0.22577718390437557
0.33200126862083174 0.592098397950029 -0.22577718390437557
0.6569481336642496 0.32782121714372664 -0.22577718390437557
0.40230955311860395 0.1318847044132186 -0.22577718390437557
0.39250774043584774 0.13873962614139962 -0.22577718390437557
0.34793261448910434 0.1751269289128157 -0.2245984275225455
0.14729014358805928 0.3302966055455699 -0.22396371254771394
0.47886524644007555 0.5578419240226905 -0.22396371254771394
0.628222747374729 0.23884324502912269 -0.22396371254771394
0.3601554114330039 0.1665764114661559 -0.22396371254771394
0.44831732143711006 0.15109843343704876 -0.22396371254771394
0.6236709342695083 0.25254402112870156 -0.22215024119105228
0.37157121362318896 0.16111786268260445 -0.22215024119105228
0.09663988859649926 0.24227977324999656 -0.22215024119105228
0.2695453150974044 0.582595808041122 -0.22215024119105228
0.2285517950800678 0.5496268987770132 -0.22215024119105228
0.12187434252444615 0.3542616295238535 -0.2209714848092222
0.3896424556923223 0.1349404036491935 -0.22033676983439063
0.11666967973082723 0.23758288243624287 -0.22033676983439063
0.2485906535711791 0.5735193839010303 -0.22033676983439063
0.6059805211852739 0.44538856519610154 -0.22033676983439063
0.5729028036397654 0.16518003852152646 -0.22033676983439063
0.6316411408820364 0.399398931591162 -0.21852329847772897
0.47417742298310506 0.15253107580881148 -0.21852329847772897
0.22306604422616638 0.14537693130678125 -0.21852329847772897
0.13202978212175143 0.40349737685721737 -0.21852329847772897
0.4398665449150667 0.13947408204084763 -0.21852329847772897
0.46405825281293306 0.1526852208741277 -0.21670982712106732
0.2620103416104752 0.15681086821053294 -0.21670982712106732
0.14403496250285155 0.314301788179814 -0.21670982712106732
0.42468778965980863 0.5929325947740935 -0.21670982712106732
0.4346165453375312 0.14132382282464245 -0.21670982712106732
0.3321463463293647 0.6050556507933765 -0.21553107073923725
0.3168769175062735 0.5891152375683205 -0.21489635576440566
0.6511087558957991 0.33500256371610676 -0.21489635576440566
0.3998069626464108 0.12909195852395958 -0.21489635576440566
0.1335621654181305 0.18062174712350046 -0.21489635576440566
0.210290138518485 0.15488858857247156 -0.21489635576440566
0.43707379902580773 0.13896631006098226 -0.21308288440774403
0.14160491088492494 0.18137433773651504 -0.21308288440774403
0.2005880667603452 0.5394442571093581 -0.21308288440774403
0.5950271541910376 0.4614740561296903 -0.21308288440774403
0.4576022947832177 0.1601567228635737 -0.21308288440774403
0.34436914327326423 0.20125905116231002 -0.21308288440774403
0.5844274141113504 0.1876761507009142 -0.21126941305108238
0.32685100996791266 0.18357770543485888 -0.21126941305108238
0.129309575086759 0.31224349819000313 -0.21126941305108238
0.41307250562039083 0.5978561695074297 -0.21126941305108238
0.4168535933990304 0.1350492119305932 -0.21126941305108238
0.12191967930836278 0.30291318805997886 -0.21126941305108238
0.6475090152528258 0.3338963461885432 -0.2094559416944207
0.3785258762759864 0.1326010255990999 -0.2094559416944207
0.09042874919993321 0.23930568022507143 -0.2094559416944207
0.2996308049044212 0.5934131646836088 -0.2094559416944207
0.41756084722812836 0.13828625830223423 -0.2094559416944207
0.11941708883616961 0.30336655589914424 -0.2094559416944207
0.5588574679824209 0.4770789771537638 -0.20764247033775907
0.6089908836373322 0.19851164205696764 -0.20764247033775907
0.35309194049880666 0.190550502801223 -0.20764247033775907
0.11458418767066643 0.2310634529090443 -0.20764247033775907
0.25851034189211824 0.5681243066149619 -0.20764247033775907
0.12912822795109286 0.3662033384074705 -0.206463713955929
0.22093521538208893 0.5511320800030424 -0.2058289989810974
0.5489015102343485 0.482229235806683 -0.2058289989810974
0.6043030601803618 0.1897344406907252 -0.2058289989810974
0.29849738530650766 0.16685749952643852 -0.2058289989810974
0.4567771653159366 0.16335749980808156 -0.2058289989810974
0.11718651906747582 0.3542616295238535 -0.20465024259926734
0.19189247160515258 0.5284636880447717 -0.20401552762443578
0.5405142052097883 0.49355436442903494 -0.20401552762443578
0.5789960673981486 0.1760608666614964 -0.20401552762443578
0.24567096468695382 0.14945724185927 -0.20401552762443578
0.44535229576896823 0.165488328652159 -0.20401552762443578
0.11905439456483735 0.33037821175661963 -0.2028367712426057
0.16445464997886183 0.47813985789741104 -0.20220205626777413
0.5264870042660105 0.527148921311192 -0.20220205626777413
0.5850439943726151 0.1781826281487905 -0.20220205626777413
0.24444687152120714 0.14955698278388635 -0.20220205626777413
0.39915411295801256 0.1433730454576701 -0.20220205626777413
0.12912822795109286 0.40202846505832135 -0.20102329988594403
0.2560530882038417 0.570391145810789 -0.20038858491111244
0.6146851836972499 0.4342447837094157 -0.20038858491111244
0.4340543692169661 0.14979273406025234 -0.20038858491111244
0.12418651850418984 0.20201164177532457 -0.20038858491111244
0.5337590244062236 0.1634663080894813 -0.20038858491111244
0.3398445322383933 0.18080309425916657 -0.19920982852928237
0.14544040280426435 0.3279844295658262 -0.19857511355445082
0.3942214708678929 0.5986087601204443 -0.19857511355445082
0.653339325664493 0.2883872824931191 -0.19857511355445082
0.6240517632544071 0.4096178426859504 -0.19857511355445082
0.44802716602004405 0.16742874300378696 -0.19857511355445082
0.39624349143057064 0.14611138720622927 -0.19676164219778916
0.10198962909865117 0.23632251984336308 -0.19676164219778916
0.22819816816551874 0.5599818202235511 -0.19676164219778916
0.5806553936894939 0.4832538471231968 -0.19676164219778916
0.5979740451456129 0.1946852174944116 -0.19676164219778916
0.5176553987590683 0.1646450644713113 -0.19676164219778916
0.45470980796934235 0.5741450315190788 -0.1949481708411275
0.6355401042988588 0.2720569729263809 -0.1949481708411275
0.348540127393586 0.19381475124321396 -0.1949481708411275
0.09998574324954002 0.22883288314035038 -0.1949481708411275
0.28983805957844827 0.19129402605745421 -0.1949481708411275
0.4702421901391493 0.16425516812962898 -0.19313469948446588
0.14593910742734637 0.17810102193774072 -0.19313469948446588
0.1526852208741277 0.43670203739769226 -0.19313469948446588
0.4542473727733936 0.5837654970661686 -0.19313469948446588
0.24630567966178532 0.16300387289353255 -0.19313469948446588
0.12912822795109286 0.3781450472910874 -0.19195594310263578
0.22516060364311052 0.5525193855908884 -0.1913212281278042
0.5878004708347409 0.47502975452073615 -0.1913212281278042
0.5730388139915151 0.17101941628997705 -0.1913212281278042
0.2687836571276066 0.15923185247167634 -0.1913212281278042
0.14912174965828753 0.17904402704320477 -0.1913212281278042
0.49893130700153676 0.16719299172742097 -0.18950775677114254
0.1946308133537116 0.16661268089328918 -0.18950775677114254
0.14056216485484452 0.376721472276108 -0.18950775677114254
0.36370074793527735 0.6029338893060824 -0.18950775677114254
0.47016058392809956 0.17433806887266787 -0.18950775677114254
0.11718651906747582 0.3662033384074705 -0.1883290003893125
0.16441838055172855 0.4893380435247966 -0.1876942854144809
0.5244740510601159 0.5234041029596858 -0.1876942854144809
0.6398289640573637 0.27630956325775247 -0.1876942854144809
0.3640543748498264 0.1693691573554149 -0.1876942854144809
0.44446369480420406 0.17957900109342007 -0.1876942854144809
0.4012033355910404 0.594510314854389 -0.18588081405781925
0.6513354398153819 0.35774349452864385 -0.18588081405781925
0.4956217217756292 0.1609183808333716 -0.18588081405781925
0.2285789971504177 0.15208677532642934 -0.18588081405781925
0.41155825703757837 0.5895776727642694 -0.18588081405781925
0.2612577509974606 0.5735284512578137 -0.18406734270115763
0.5175919272615851 0.5280193875623895 -0.18406734270115763
0.660248651533374 0.3012538617686335 -0.18406734270115763
0.2607681137311621 0.18218133249022944 -0.18406734270115763
0.4539844194266777 0.5915724912565972 -0.18288858631932753
0.16113599739617088 0.47464892553583715 -0.18225387134449594
0.4299468565941274 0.5902849265933675 -0.18225387134449594
0.6552344032322045 0.3656411622869054 -0.18225387134449594
0.27423313855437487 0.20504013894094958 -0.18225387134449594
0.26474868335903434 0.18844687602749546 -0.1804403999878343
0.08383678081846808 0.2473574930486492 -0.1804403999878343
0.18824739417826264 0.5211100616935086 -0.1804403999878343
0.43816188183980476 0.5921709368042956 -0.1804403999878343
0.14846889996988932 0.39437561593320924 -0.1804403999878343
0.5212370046884749 0.5168484040053538 -0.17862692863117266
0.6363198969822234 0.2822033451669029 -0.17862692863117266
0.4075051485554395 0.15417226738659026 -0.17862692863117266
0.2111787394832492 0.156049210240735 -0.17862692863117266
0.10524481018385891 0.21095205556366656 -0.17733029661115957
0.12537434224280322 0.3415219932433055 -0.176813457274511
0.2801631898906584 0.584010315699318 -0.176813457274511
0.5376398531094795 0.5025763844284267 -0.176813457274511
0.47934581634959084 0.5530362249275371 -0.176813457274511
0.09088211703909861 0.23242355642654047 -0.17499998591784935
0.16025646378819003 0.4843328625804105 -0.17499998591784935
0.48909322489164725 0.5570439966257594 -0.17499998591784935
0.646484403936312 0.288650235839835 -0.17499998591784935
0.26883806126830634 0.20597407668963028 -0.17499998591784935
0.6523328490615456 0.313857487697432 -0.1731865145611877
0.43328364389038493 0.16303107496388247 -0.1731865145611877
0.17531734340526506 0.15905957269279342 -0.1731865145611877
0.14115154304575955 0.40161136664628927 -0.1731865145611877
0.33798572409781513 0.5903030613069339 -0.1731865145611877
0.5996968429344414 0.45706732073300255 -0.17137304320452604
0.5697110940520409 0.17185361311404138 -0.17137304320452604
0.27652717982055186 0.20425127890080172 -0.17137304320452604
0.08334714355216942 0.26874738770047335 -0.17137304320452604
0.24406604253630818 0.19465801542406166 -0.17137304320452604
0.4744131742594712 0.5618224936505628 -0.16955957184786438
0.6555698954331867 0.31050256568760787 -0.16955957184786438
0.43287561283513604 0.1567564640698331 -0.16955957184786438
0.19999868856943007 0.1602201943610569 -0.16955957184786438
0.12912822795109286 0.3781450472910874 -0.16910620400869897
0.30090023485408435 0.5850349270158319 -0.16774610049120275
0.6241152347518905 0.4297111053177616 -0.16774610049120275
0.557714981027724 0.1670025772349715 -0.16774610049120275
0.25796630048511976 0.19077718672080574 -0.16774610049120275
0.3285375383296079 0.6050556507933765 -0.16656734410937268
0.16177071237100252 0.4706864906215316 -0.1659326291345411
0.46886395190808644 0.5714429591976529 -0.1659326291345411
0.6479079789512913 0.28540412211141064 -0.1659326291345411
0.3444416821275306 0.18300646195751058 -0.1659326291345411
0.32145593268184425 0.6031333711553153 -0.164753872752711
0.19900127932326617 0.5279649834216896 -0.16411915777787944
0.5350375217126703 0.5047434826996374 -0.16411915777787944
0.6405815546703783 0.22705568121082198 -0.16411915777787944
0.3037201828136933 0.183813456711225 -0.16411915777787944
0.13211138833280123 0.39008675617470445 -0.16294040139604937
0.5181178339550169 0.17663211013884483 -0.1623056864212178
0.18852848223854513 0.16968651484283068 -0.1623056864212178
0.14904014344723776 0.40575514869626106 -0.1623056864212178
0.29866966508539056 0.19420464758489625 -0.1623056864212178
0.3321463463293647 0.6050556507933765 -0.16112693003938772
0.2342732972103353 0.55679917799261 -0.16049221506455613
0.5703639437404391 0.5023678352224107 -0.16049221506455613
0.6329740423291826 0.209229257774838 -0.16049221506455613
0.30439116721565807 0.18422148776647376 -0.16049221506455613
0.1374792635485197 0.3883186216019593 -0.1593134586827261
0.48177586796751737 0.1899701919670912 -0.1586787437078945
0.17516319833994884 0.16510749966726004 -0.1586787437078945
0.1494844439296198 0.402164475410071 -0.1586787437078945
0.5790142021117153 0.48546628217832405 -0.1586787437078945
0.3233600776063389 0.6035323348537807 -0.15749998732606443
0.39995204035494375 0.5947369987739717 -0.15686527235123285
0.6545180820463231 0.35436137044846994 -0.15686527235123285
0.4290673229861466 0.15177848519579692 -0.15686527235123285
0.13465024823212754 0.1843756328317901 -0.15686527235123285
0.3234598185309553 0.6034325939291644 -0.15568651596940275
0.38634193782319803 0.595806946874402 -0.15505180099457117
0.653339325664493 0.3827693992505747 -0.15505180099457117
0.4461864925930326 0.15722796662256516 -0.15505180099457117
0.16780050463190258 0.1594676037480423 -0.15505180099457117
0.14106993683470975 0.4125375315701757 -0.15387304461274112
0.29648443210061326 0.5826774142521719 -0.15323832963790954
0.6114300026120422 0.45054789120580396 -0.15323832963790954
0.5948458070553713 0.17812822400809064 -0.15323832963790954
0.17436527094301765 0.176668379565978 -0.15323832963790954
0.14292874497528793 0.4013030765156567 -0.15278496179874412
0.5436787127271628 0.5097123942168904 -0.15142485828124788
0.6305802601383891 0.21915801345256053 -0.15142485828124788
0.2966929813066293 0.1801774466411183 -0.15142485828124788
0.07381735157291243 0.2457707056115703 -0.15142485828124788
0.28281085807138445 0.19817614985598517 -0.15142485828124788
0.6359209332837577 0.4031165478723184 -0.14961138692458625
0.5364338946572997 0.17945205809845366 -0.14961138692458625
0.2544390986964129 0.19233677208753475 -0.14961138692458625
0.09917874849582559 0.32752199436987744 -0.14961138692458625
0.12690672553918228 0.35950256174460565 -0.14961138692458625
0.5849261187344321 0.18457511468102278 -0.1477979155679246
0.2818769203227036 0.19028754945450707 -0.1477979155679246
0.08478885328071549 0.27880308637316226 -0.1477979155679246
0.3012810638389833 0.5901579835984011 -0.1477979155679246
0.5053963323880355 0.2012137143783935 -0.1477979155679246
0.45747535178825127 0.16558806957677535 -0.14598444421126291
0.16555180014964208 0.1645362561899116 -0.14598444421126291
0.15975775916510815 0.43740022387000693 -0.14598444421126291
0.4760725005508165 0.5700737883233733 -0.14598444421126291
0.6240064264704906 0.2378004989990423 -0.14598444421126291
0.17689506348556075 0.15124351114558177 -0.14480568782943284
0.17344946790790353 0.46993390000851704 -0.1441709728546013
0.5153069533521913 0.5177188702565514 -0.1441709728546013
0.6431113472129212 0.2667707039217122 -0.1441709728546013
0.3472344280167895 0.18354143600772574 -0.1441709728546013
0.6331825915351986 0.2543574924853632 -0.1441709728546013
0.14102460005079326 0.18399480384689113 -0.14235750149793963
0.1624144947026174 0.4269092920717192 -0.14235750149793963
0.4443911559499375 0.5879546159000573 -0.14235750149793963
0.6435737824088701 0.4068160294399082 -0.14235750149793963
0.6240154938272741 0.2411826230792163 -0.14235750149793963
0.39134711876758427 0.5930323356987098 -0.14054403014127795
0.6365647156153728 0.40579141812339437 -0.14054403014127795
0.562683892544977 0.18576293841963618 -0.14054403014127795
0.2625634503742571 0.1977409167303865 -0.14054403014127795
0.14690931460316034 0.1782460996462737 -0.14054403014127795
0.12236397979074481 0.18706863779643262 -0.13936527375944793
0.5273846725875578 0.20100516517237746 -0.13873055878461635
0.2262124170299743 0.18240801640981222 -0.13873055878461635
0.08305698813510358 0.2839986818099978 -0.13873055878461635
0.5382927027978778 0.5114623940760687 -0.13873055878461635
0.40395981205316595 0.1740751155259518 -0.13873055878461635
0.3473613710117559 0.18394946706297463 -0.13691708742795466
0.11726812527852559 0.21923961966361033 -0.13691708742795466
0.18046760205818413 0.5096126532922738 -0.13691708742795466
0.5110634303776032 0.5300232734115007 -0.13691708742795466
0.5574248256106583 0.19788599443891933 -0.13691708742795466
0.08457123671791608 0.2646036056505015 -0.13510361607129306
0.2340375459339693 0.5570802660528926 -0.13510361607129306
0.5568354474197432 0.5147357098748429 -0.13510361607129306
0.6372447673741208 0.25940801021366583 -0.13510361607129306
0.14256605070395567 0.399045304676613 -0.13510361607129306
0.24672277807381757 0.5579416649473069 -0.13329014471463138
0.5711437364238037 0.5029753481268922 -0.13329014471463138
0.6254027994151201 0.22736397134145453 -0.13329014471463138
0.39117483898870137 0.17658677335492823 -0.13329014471463138
0.17162692919445863 0.16145335488358675 -0.1325828908855333
0.4433846793469902 0.17273314672202222 -0.1314766733579697
0.13591061082500736 0.18370464842982528 -0.1314766733579697
0.16793651498365206 0.47246369255106 -0.1314766733579697
0.45332250238149613 0.5825232691868557 -0.1314766733579697
0.14505050646258216 0.1797875502994361 -0.1314766733579697
0.6445439895846841 0.2889675933272508 -0.1296632020013081
0.4252046289964572 0.16726553058168742 -0.1296632020013081
0.1366994708651552 0.1742473953048347 -0.1296632020013081
0.1620427330745018 0.4210517795897022 -0.1296632020013081
0.5353911486272191 0.5143548808899442 -0.1296632020013081
0.6410711919366768 0.2885867643423518 -0.12784973064464641
0.40823960445488755 0.17655050392779506 -0.12784973064464641
0.11557252956004697 0.21451552677950672 -0.12784973064464641
0.17221630738537363 0.41513079561020183 -0.12784973064464641
0.13400646590051266 0.1677642352047693 -0.12689765818239906
0.4655452993253956 0.1733769290536371 -0.1260362592879848
0.1690245977976491 0.17269687729488908 -0.1260362592879848
0.1447150142615997 0.41966447400185597 -0.1260362592879848
0.29834324024119147 0.5746437361421608 -0.1260362592879848
0.17689506348556075 0.15124351114558177 -0.12422278793132312
0.5665012497507499 0.5020776798053447 -0.12422278793132312
0.6045478788135114 0.21368132995544237 -0.12422278793132312
0.3020789912359145 0.16654920939580597 -0.12422278793132312
0.07370854329151272 0.238498685471357 -0.12422278793132312
0.1891903992837267 0.5040452962273227 -0.12240931657466145
0.5655582446452857 0.5027849336344428 -0.12240931657466145
0.6192914009431706 0.23075516277841177 -0.12240931657466145
0.31209842048147 0.1676554269233696 -0.12240931657466145
0.558594514635705 0.21305568233739408 -0.12240931657466145
0.3937681030287275 0.5905206778697333 -0.12059584521799983
0.6477901033131084 0.33796758938424853 -0.12059584521799983
0.4217136966348836 0.17786527066137472 -0.12059584521799983
0.11399480947975128 0.21428884285992394 -0.12059584521799983
0.3220906476566758 0.19331604662013194 -0.12059584521799983
0.6056359616275083 0.45601550734613866 -0.11878237386133815
0.5366877806472322 0.2251515362863273 -0.11878237386133815
0.1762966179378624 0.16820853568715147 -0.11878237386133815
0.1662499866219568 0.433546597237101 -0.11878237386133815
0.47872016873154255 0.5511592820733924 -0.11878237386133815
0.10195335967151802 0.33196499919369854 -0.11696890250467654
0.4061541123947266 0.5923522839399615 -0.11696890250467654
0.650310828498868 0.32169168395821024 -0.11696890250467654
0.42933027633286247 0.17438340565658436 -0.11696890250467654
0.492529753112521 0.5347655010091709 -0.11696890250467654
0.11283418781148782 0.3711541152111569 -0.11515543114801487
0.47444944368660436 0.5577784525252073 -0.11515543114801487
0.6350686017461268 0.27573831978040403 -0.11515543114801487
0.3268872793950458 0.1824261511233788 -0.11515543114801487
0.18098444139483272 0.4614105846322071 -0.11515543114801487
0.14670076539714416 0.4217318313484502 -0.11334195979135318
0.5098030677847233 0.520937781914626 -0.11334195979135318
0.6266812967215668 0.2307370280648452 -0.11334195979135318
0.31459194359687986 0.17867226541508915 -0.11334195979135318
0.18883677236917765 0.5333963301348915 -0.1126619080326051
0.5504248261739444 0.22877847899965054 -0.11152848843469157
0.17910749854068797 0.16566967578782513 -0.11152848843469157
0.17843651413872305 0.48677198155512047 -0.11152848843469157
0.562330265630428 0.5138108394829457 -0.11152848843469157
0.2963212196785137 0.5931139419097595 -0.1097150170780299
0.40869297229405294 0.5868121289453603 -0.1097150170780299
0.6362110887008237 0.27738857871496614 -0.1097150170780299
0.3108561926021568 0.18048573677175084 -0.1097150170780299
0.07649222182398838 0.26013339875633057 -0.1097150170780299
0.45861783874294815 0.18005957100293538 -0.10790154572136829
0.12307123361984289 0.21290153727207786 -0.10790154572136829
0.22741837548215424 0.5474325984354527 -0.10790154572136829
0.6428937306501218 0.4263833853782874 -0.10790154572136829
0.4447629175780531 0.1869598295150329 -0.10790154572136829
0.09079144347126547 0.28490541748832876 -0.10608807436470662
0.4042499674702319 0.5859416626941627 -0.10608807436470662
0.6480983934437409 0.3200595597372148 -0.10608807436470662
0.49672793930319264 0.18309713552534357 -0.10608807436470662
0.20875775522210593 0.5226515123466712 -0.10608807436470662
0.558594514635705 0.23136267568289348 -0.10427460300804493
0.25647018661587395 0.19582770444910833 -0.10427460300804493
0.08848833484830526 0.31598831654150944 -0.10427460300804493
0.3444235474139641 0.591509019759114 -0.10427460300804493
0.5740180885241123 0.22180568163328657 -0.10427460300804493
0.5744442542929277 0.21777977522149766 -0.10246113165138332
0.27838598796113 0.1762331464403793 -0.10246113165138332
0.08933159902915283 0.3305776936058524 -0.10246113165138332
0.378752560195569 0.5925517657891946 -0.10246113165138332
0.1325828908855333 0.16859843202883365 -0.10128237526955322
0.5262784550599944 0.2313898777532434 -0.10064766029472165
0.1840129385604577 0.16343910601913134 -0.10064766029472165
0.12377848744894096 0.4178510026451943 -0.10064766029472165
0.4244157689563094 0.5895776727642694 -0.10064766029472165
0.14983807084416884 0.17752071110360904 -0.10064766029472165
0.507499959161763 0.1978134555846529 -0.09883418893806004
0.1926178601478172 0.16348444280304786 -0.09883418893806004
0.12616320228295094 0.4229105877302804 -0.09883418893806004
0.4411541095782965 0.5837292276390355 -0.09883418893806004
0.17689506348556075 0.15124351114558177 -0.09765543255622994
0.5221437403668057 0.22164246921118702 -0.09702071758139835
0.20540283321228184 0.17382122953601928 -0.09702071758139835
0.12283548234347691 0.41775126172057797 -0.09702071758139835
0.4131178424043073 0.5907564291460995 -0.09702071758139835
0.48491317341454204 0.19385102067034723 -0.09702071758139835
0.2190038683872442 0.18467485560563926 -0.09520724622473668
0.11146501693720831 0.38614245597396535 -0.09520724622473668
0.46502845998874703 0.5699831147555403 -0.09520724622473668
0.6584442475334955 0.3529105933631407 -0.09520724622473668
0.6268263744300996 0.28188598767948697 -0.09520724622473668
0.08221372395425589 0.2425880633806291 -0.09339377486807507
0.26697018577094495 0.5649053949568876 -0.09339377486807507
0.6572473564380987 0.3834766530796727 -0.09339377486807507
0.5337590244062236 0.22932252040664905 -0.09339377486807507
0.5968224908341326 0.2290958364870664 -0.09339377486807507
0.20487692651885 0.5159144662566731 -0.09158030351141339
0.5821877769858731 0.48305436527396384 -0.09158030351141339
0.603659277848747 0.22836138058761843 -0.09158030351141339
0.293093240663656 0.18209972627917967 -0.09158030351141339
0.5022227575138777 0.20806863610657456 -0.09158030351141339
0.30235101193941377 0.5720414047453513 -0.08976683215475177
0.6491864762577378 0.4063173248168263 -0.08976683215475177
0.5495724946363132 0.2352072349590161 -0.08976683215475177
0.22865153600468427 0.18087563311343302 -0.08976683215475177
0.6381605704092349 0.3300608542692038 -0.08976683215475177
0.517854880608301 0.21168651146311457 -0.0879533607980901
0.1917927306805361 0.16499869138586035 -0.0879533607980901
0.11168263350000772 0.3913017819836678 -0.0879533607980901
0.4137434900223556 0.5893147194175535 -0.0879533607980901
0.6209416598777325 0.2790297702927449 -0.0879533607980901
0.1911217462785713 0.47541965086241844 -0.08613988944142842
0.5552214579123144 0.5090232751013587 -0.08613988944142842
0.5969675685426655 0.22469816844716192 -0.08613988944142842
0.2769714803029339 0.17664117749562808 -0.08613988944142842
0.4910517739568419 0.5332875218534918 -0.08613988944142842
0.18883677236917765 0.5214546212512744 -0.08496113305959839
0.5690401096500762 0.2253872875626933 -0.0843264180847668
0.2568691503143395 0.18834713510287912 -0.0843264180847668
0.08661139199416039 0.3342862425302255 -0.0843264180847668
0.603541402210564 0.24662303714920122 -0.0843264180847668
0.6251761154955376 0.286147645367642 -0.0843264180847668
0.15438081659260633 0.17971501144516955 -0.08251294672810514
0.18847407809784528 0.47557379592773463 -0.08251294672810514
0.5621307837811953 0.506647627624132 -0.08251294672810514
0.5994066875173755 0.22370982655778124 -0.08251294672810514
0.6169973596769934 0.2789844335088284 -0.08251294672810514
0.4442370108846213 0.5710802649263207 -0.08069947537144352
0.6388587568815497 0.2904002356990135 -0.08069947537144352
0.3798769124366993 0.16499869138586035 -0.08069947537144352
0.07683678138175405 0.2595258858518489 -0.08069947537144352
0.6463302588709958 0.40341577064616757 -0.08069947537144352
0.6068147180093384 0.2669883204845115 -0.08069947537144352
0.09944170184254163 0.35204919446872623 -0.07888600401478184
0.4417525551259948 0.5761035805842731 -0.07888600401478184
0.6435647150520867 0.3051074884015395 -0.07888600401478184
0.4099624022437161 0.16255050505436716 -0.07888600401478184
0.5629921826756096 0.23532511059719918 -0.07888600401478184
0.5083704254129606 0.22121630344237156 -0.07888600401478184
0.2687201856301234 0.18653366374621744 -0.07707253265812017
0.10887175289718214 0.3867590362352303 -0.07707253265812017
0.4348976333978138 0.5825776733275555 -0.07707253265812017
0.6554882892221371 0.34953753663974996 -0.07707253265812017
0.5470517694505536 0.2619378027562089 -0.07707253265812017
0.08488859420533183 0.2247163031607285 -0.07525906130145855
0.26804013387137526 0.5583768980729057 -0.07525906130145855
0.6535116054433759 0.40224608162112074 -0.07525906130145855
0.5248639474017983 0.2131282211916605 -0.07525906130145855
0.578361352423317 0.2652473879821164 -0.07525906130145855
0.3218367616667432 0.5866942533071773 -0.0749870405979593
0.559891146655718 0.24597018746080299 -0.07344558994479689
0.16632252547622323 0.17015801739556277 -0.07344558994479689
0.20795982782517472 0.526205916205728 -0.07344558994479689
0.6442084973837016 0.4270997065641687 -0.07344558994479689
0.5956709365226524 0.2668251080624121 -0.07344558994479689
0.4396307936387007 0.5931139419097595 -0.07226683356296684
0.5836204193576356 0.23942355586325448 -0.07163211858813527
0.2171813296737993 0.1817188972942807 -0.07163211858813527
0.18001423421901874 0.46337820105418503 -0.07163211858813527
0.591953320241496 0.4839429662387282 -0.07163211858813527
0.2654378024745657 0.5537797481837684 -0.07163211858813527
0.2333393594616546 0.5388276768480931 -0.06981864723147359
0.6538652323579248 0.40597276525906045 -0.06981864723147359
0.5065297519859491 0.2180880653521302 -0.06981864723147359
0.08236786901957209 0.21263858392536183 -0.06981864723147359
0.6093807799790145 0.28300127256383395 -0.06981864723147359
0.08584973402436247 0.2955142249247993 -0.06800517587481192
0.5907564291460993 0.2595893573493321 -0.06800517587481192
0.281740909970954 0.1967072380570893 -0.06800517587481192
0.18336008887205948 0.4667059209936591 -0.06800517587481192
0.5868574657292767 0.27415153234332507 -0.06800517587481192
0.4396307936387007 0.5883626469553059 -0.06682641949298188
0.6451243004188157 0.34986396148394894 -0.0661917045181503
0.36303883089009586 0.1652072405918764 -0.0661917045181503
0.08587693609471239 0.20961008675973697 -0.0661917045181503
0.2476839178928482 0.2016942842879088 -0.0661917045181503
0.6411709328612932 0.417814733218061 -0.06437823316148862
0.5348743092905707 0.24092873708928364 -0.06437823316148862
0.21806086328178015 0.18354143600772574 -0.06437823316148862
0.08477071856714878 0.33423183838952564 -0.06437823316148862
0.23671241618504527 0.20201164177532457 -0.06437823316148862
0.08980310158188493 0.21651034527183452 -0.06256476180482701
0.1881476532536463 0.46884581719452 -0.06256476180482701
0.4891476290323471 0.5421644641443504 -0.06256476180482701
0.652632071835395 0.3511243240768289 -0.06256476180482701
0.10524481018385891 0.20112304081056037 -0.06131346656873043
0.5088056585385594 0.236349721913713 -0.06075129044816534
0.1710194162899769 0.16889765480268282 -0.06075129044816534
0.098571235591344 0.3592940125385896 -0.06075129044816534
0.11966190746931894 0.4009041128171912 -0.06075129044816534
0.09516190944082005 0.21352718489012615 -0.05893781909150366
0.18320594380674327 0.46710488469212474 -0.05893781909150366
0.455643745718023 0.5718691249664684 -0.05893781909150366
0.661137252498138 0.3668471207390854 -0.05893781909150366
0.10524481018385891 0.20100516517237746 -0.05855699010660476
0.5067201664783983 0.23565153544139827 -0.05712434773484205
0.17935231717383718 0.16890672215946617 -0.05712434773484205
0.09674869687789897 0.35326422027768956 -0.05712434773484205
0.6440362176048187 0.3825789847581252 -0.05712434773484205
0.44858027478382595 0.5811631656693593 -0.055800513644479036
0.6451152330620323 0.3860517824061322 -0.05531087637818037
0.519205916769014 0.24111008422494976 -0.05531087637818037
0.23432770135103514 0.1912124198464044 -0.05531087637818037
0.09073703933056562 0.2687564550572567 -0.05531087637818037
0.20503107158416622 0.4998471100366508 -0.05349740502151876
0.5027849336344427 0.5409131689082538 -0.05349740502151876
0.6458496889614802 0.33901033541432907 -0.05349740502151876
0.5062214618553167 0.21970205485955904 -0.05349740502151876
0.6085828525820834 0.2844883190762965 -0.05349740502151876
0.10213470680718414 0.36226810556351474 -0.05168393366485708
0.2608587872989951 0.5554209397615473 -0.05168393366485708
0.5471605777319533 0.5220077300150563 -0.05168393366485708
0.6306255969223059 0.3152991974259779 -0.05168393366485708
0.6084921790142505 0.2951243285831171 -0.05168393366485708
0.19900127932326617 0.4860012562285392 -0.049870462308195404
0.46885488455130325 0.5528186083647377 -0.049870462308195404
0.6493496886798374 0.38263338889882503 -0.049870462308195404
0.5350737911398034 0.2399494625566863 -0.049870462308195404
0.6129442511948546 0.30821759177821423 -0.049870462308195404
0.3203950519381971 0.5694934774892416 -0.04805699095153379
0.621395027716898 0.4404015189652819 -0.04805699095153379
0.5795038393780139 0.274414485690041 -0.04805699095153379
0.35902199183509037 0.16272278483324992 -0.04805699095153379
0.561269384886781 0.2961308051860644 -0.04805699095153379
0.4189662875295411 0.5764662748556056 -0.046243519594872114
0.6248224885809884 0.4357590322922282 -0.046243519594872114
0.5987991746128938 0.27777847505664843 -0.046243519594872114
0.4795634329123903 0.1864339228216011 -0.046243519594872114
0.6256385506914862 0.345275878951595 -0.046243519594872114
0.2344909137731347 0.5351735320644199 -0.0444300482382105
0.4973173174941077 0.5390996975515923 -0.0444300482382105
0.6115388108934419 0.3067668146928848 -0.0444300482382105
0.49046239576592665 0.19702459554450508 -0.0444300482382105
0.6308250787715386 0.3522486763179591 -0.0444300482382105
0.0994144997721917 0.36166966001581635 -0.04261657688154882
0.2922318417692417 0.5655582446452858 -0.04261657688154882
0.572712389147316 0.5034015138957075 -0.04261657688154882
0.6101877747327289 0.30220593423088077 -0.04261657688154882
0.539235707903342 0.3121890940493033 -0.04261657688154882
0.09329403394345852 0.2270375464972554 -0.04080310552488715
0.15575905482366917 0.4668963354861087 -0.04080310552488715
0.4864455567109212 0.5429623915412815 -0.04080310552488715
0.6195271522195365 0.31425645139589753 -0.04080310552488715
0.5501074686865284 0.3195427204005662 -0.04080310552488715
0.16965931277248075 0.17143651470200916 -0.03898963416822553
0.09096372325014838 0.28551293039281034 -0.03898963416822553
0.2039883255540858 0.5107370055334042 -0.03898963416822553
0.45164504137658407 0.5617680895098629 -0.03898963416822553
0.5833211965837866 0.30630437949693623 -0.03898963416822553
0.5402784539334222 0.3043004936478251 -0.037176162811563856
0.30694816182855095 0.17878107369648885 -0.037176162811563856
0.12971760614200786 0.1769041308423441 -0.037176162811563856
0.6274520220481478 0.35440670723238643 -0.037176162811563856
0.4754559202895516 0.5692214567857423 -0.0359702043593839
0.6210504681591322 0.34487691525312947 -0.03536269145490225
0.4948963332329644 0.2096372888300869 -0.03536269145490225
0.20678107144334468 0.18027718756573477 -0.03536269145490225
0.6150841473957153 0.34793261448910434 -0.03536269145490225
0.46585358945602817 0.5551761211283978 -0.033549220098240566
0.6315958040981199 0.3493471221473005 -0.033549220098240566
0.49788856097145623 0.21456993092020657 -0.033549220098240566
0.22735490398467118 0.19496630555469405 -0.033549220098240566
0.6167162716167108 0.3473613710117559 -0.033549220098240566
0.09920595056617551 0.332862667515246 -0.03173574874157889
0.2736346930066765 0.5595828565250858 -0.03173574874157889
0.6237072036966417 0.4417434877692116 -0.03173574874157889
0.5505880385960437 0.31909841991818405 -0.03173574874157889
0.47869296666119265 0.2012771858758766 -0.03173574874157889
0.6353224877360596 0.35982898658880474 -0.03173574874157889
0.5109002179555037 0.2502771819328745 -0.02992227738491728
0.215966303864836 0.1929170829216664 -0.02992227738491728
0.08186009703970686 0.29283935467372346 -0.02992227738491728
0.09959584690785782 0.24119169043599953 -0.02992227738491728
0.6355763737259921 0.38657768909956414 -0.02992227738491728
0.26607251744939736 0.21394428330215826 -0.028108806028255603
0.09346631372234143 0.23108158762261088 -0.028108806028255603
0.15889636027069373 0.4779947801888779 -0.028108806028255603
0.6298730063092911 0.41081473378134714 -0.028108806028255603
0.5876735278397744 0.33813986916313143 -0.028108806028255603
0.2535142283045154 0.209963713674286 -0.026295334671593992
0.09703885229496492 0.24627847759143554 -0.026295334671593992
0.20745205584530949 0.5143095441060275 -0.026295334671593992
0.4818212047514341 0.5517577276210908 -0.026295334671593992
0.6314325916760203 0.40138468272670647 -0.026295334671593992
0.49767094440865683 0.2240181166884138 -0.024481863314932316
0.19600905158477447 0.17658677335492823 -0.024481863314932316
0.0819145011804067 0.3052434987532891 -0.024481863314932316
0.2268652667183725 0.5393989203254416 -0.024481863314932316
0.634161866067796 0.39465670399349184 -0.024481863314932316
0.6316411408820364 0.4008587760332747 -0.022668391958270636
0.4983781982377549 0.2190220031008109 -0.022668391958270636
0.20252848111197316 0.17538081490274826 -0.022668391958270636
0.09416450019465615 0.2809520499308063 -0.022668391958270636
0.6253302605608538 0.35609323559408185 -0.022668391958270636
0.09700258286783166 0.34305437653968457 -0.020854920601609025
0.35211266596620944 0.578415756564017 -0.020854920601609025
0.6194999501491866 0.4470478914874469 -0.020854920601609025
0.5385828582149437 0.2789209620113452 -0.020854920601609025
0.45947017028057907 0.19100387064038837 -0.020854920601609025
0.09533418921970295 0.3455116302279611 -0.01904144924494735
0.31296888673266765 0.5661113534090677 -0.01904144924494735
0.6146942510540332 0.45700384923551934 -0.01904144924494735
0.5366877806472322 0.2817499773277373 -0.01904144924494735
0.622746063877611 0.37762820795443897 -0.01904144924494735
0.38799219675776014 0.18035879377678454 -0.01904144924494735
0.12152978296668046 0.1925090518664175 -0.017227977888285735
0.16391967592864654 0.4800530701786889 -0.017227977888285735
0.5080440005687615 0.5557201625353964 -0.017227977888285735
0.5247279370500487 0.30180697053241523 -0.017227977888285735
0.3680712139048319 0.18001423421901874 -0.017227977888285735
0.10205310059613437 0.23559713130069843 -0.015414506531624059
0.18534584000760393 0.4878419296555508 -0.015414506531624059
0.5045802702775377 0.5542512507365003 -0.015414506531624059
0.5898768955381186 0.332246087253981 -0.015414506531624059
0.6072136817078038 0.34918390972520097 -0.015414506531624059
0.3590854633325734 0.18048573677175084 -0.015414506531624059
0.17254273222957275 0.17146371677235908 -0.013601035174962382
0.09748315277734697 0.3678717320555992 -0.013601035174962382
0.36112561860881787 0.581271973950759 -0.013601035174962382
0.6323211926407843 0.40817613295740446 -0.013601035174962382
0.6260919185306517 0.3848276892403857 -0.013601035174962382
0.5234313050300357 0.30471759205985716 -0.013601035174962382
0.6242149756765067 0.41827716841400975 -0.01178756381830077
0.49319167015770254 0.21728107059841567 -0.01178756381830077
0.21096112292044977 0.1896891039068087 -0.01178756381830077
0.09836268638532794 0.280235728744925 -0.01178756381830077
0.4938626545596672 0.23051034414526242 -0.01178756381830077
0.2774883196395825 0.5545958102942661 -0.01178756381830077
0.47843908067126006 0.20698962064936088 -0.009974092461639094
0.16909713665191553 0.16824480511428475 -0.009974092461639094
0.09442745354137205 0.3962706935009207 -0.009974092461639094
0.4100984125954657 0.5879636832568406 -0.009974092461639094
0.5256981442258627 0.31775645111425443 -0.009974092461639094
0.12738729544869762 0.2135362522469094 -0.009974092461639094
0.35920333897075646 0.1807124206913336 -0.008160621104977481
0.11762175219307464 0.21185879124199733 -0.008160621104977481
0.1886282231631616 0.49996498567483383 -0.008160621104977481
0.538446847863194 0.5381657598029115 -0.008160621104977481
0.28825127214136936 0.5578237893091238 -0.008160621104977481
0.11457512031388307 0.26093132615326164 -0.008160621104977481
0.46248960008942086 0.557860058736257 -0.006347149748315804
0.5609248253290152 0.34919297708198416 -0.006347149748315804
0.3191709587724505 0.17973314615873626 -0.006347149748315804
0.11251683032407206 0.27707122122755035 -0.006347149748315804
0.5284546206879884 0.3255634453046829 -0.006347149748315804
0.10516320397280914 0.28874997676445135 -0.006347149748315804
0.09714766057636463 0.34796888391623765 -0.004533678391654128
0.3880828703255933 0.5847629063123326 -0.004533678391654128
0.5843095384731672 0.3535362409811888 -0.004533678391654128
0.308861374109829 0.18404014063080762 -0.004533678391654128
0.10848185655549995 0.33826681215809773 -0.004533678391654128
0.1154909233489972 0.2666165588563959 -0.004533678391654128
0.1332992120714146 0.20437822189576813 -0.002720207034992515
0.10458289313867734 0.40622665124899315 -0.002720207034992515
0.4062175838922098 0.5890336313572709 -0.002720207034992515
0.6114481373256089 0.37356603211551676 -0.002720207034992515
0.113042737017504 0.23186138030597536 -0.002720207034992515
0.5207473674221762 0.3228795076968236 -0.002720207034992515
0.18337822358562605 0.18194558121386348 -9.067356783308384E-4
0.09685750515929867 0.3027499756378793 -9.067356783308384E-4
0.23883417767233933 0.5502978831789781 -9.067356783308384E-4
0.5112266427997028 0.5552667946962311 -9.067356783308384E-4
0.24319557628511068 0.24404790782274174 -9.067356783308384E-4
0.18883677236917765 0.5243289733515832 -4.533678391654514E-4
0.33995334051979303 0.1863069798266347 9.067356783307739E-4
0.1686528361695335 0.17120983078242652 9.067356783307739E-4
0.10007641681737314 0.31684064807914036 9.067356783307739E-4
0.1523678633867118 0.4590258697981972 9.067356783307739E-4
0.1769494676262606 0.18270723918366139 9.067356783307739E-4
0.20365283335310336 0.523766797231018 0.0013601035174962254
0.30077329185911805 0.1993911756649485 0.002720207034992451
0.1667668259586054 0.17215283588789057 0.002720207034992451
0.09916968113904237 0.2828017907146012 0.002720207034992451
0.490879494177959 0.23980438484815345 0.002720207034992451
0.22756345319068721 0.22055438639718997 0.002720207034992451
0.3249559324002012 0.5931139419097595 0.003173574874157838
0.4960841569715778 0.24402977310917504 0.004533678391654128
0.24767485053606497 0.2401852138330524 0.004533678391654128
0.1326010255990999 0.19912822231823257 0.004533678391654128
0.5117888189202677 0.29555049435193254 0.004533678391654128
0.20037951755432903 0.19970853315236436 0.004533678391654128
0.11850128580105548 0.2837266611064986 0.004533678391654128
0.12065931671548284 0.2600517925452808 0.00634714974831574
0.1437901438697022 0.4596152479891122 0.00634714974831574
0.4347253536189309 0.5842097975485508 0.00634714974831574
0.6225284473148116 0.40269038210350294 0.00634714974831574
0.24560749318947062 0.2548743318220117 0.00634714974831574
0.1513704541405479 0.1961631966500908 0.00634714974831574
0.3440880552129816 0.5931139419097595 0.006800517587481191
0.5675802652079636 0.3578160333829104 0.008160621104977417
0.3459105939264265 0.18625257568593484 0.008160621104977417
0.19139376698207056 0.17815542607844057 0.008160621104977417
0.12680698461456594 0.3252823572444003 0.008160621104977417
0.16047408035098942 0.19305309327341602 0.008160621104977417
0.42139633914746777 0.19793133122283585 0.008160621104977417
0.11234455054518928 0.30852588190884667 0.00997409246163903
0.169196877576532 0.4921035873437057 0.00997409246163903
0.401194268234257 0.5866942533071773 0.00997409246163903
0.6162991732046788 0.3919002275313661 0.00997409246163903
0.36214116256854834 0.20070594239852826 0.00997409246163903
0.23490801218516694 0.2509753684051892 0.00997409246163903
0.575006430413493 0.367336758005384 0.00997409246163903
0.236676146757912 0.23287692426570597 0.011787563818300706
0.15689247442158272 0.1839676017765412 0.011787563818300706
0.1099417009976126 0.2800271795389088 0.011787563818300706
0.10726683074653665 0.3993535948072455 0.011787563818300706
0.16390154121507997 0.19463988071049496 0.011787563818300706
0.2731178536700279 0.23228754607479082 0.011787563818300706
0.4870712043289694 0.23988599105920322 0.013601035174962382
0.30169816225101553 0.20236526868987362 0.013601035174962382
0.21932122587465996 0.20638210774487917 0.013601035174962382
0.2062823668202628 0.23424609513998548 0.013601035174962382
0.3690504884374292 0.19827589078060165 0.013601035174962382
0.1298536164937575 0.24940671568167685 0.013601035174962382
0.2878613757996872 0.5625841516203607 0.015414506531623995
0.5744170522225779 0.5173743106987858 0.015414506531623995
0.6179675668528074 0.3955997090989559 0.015414506531623995
0.22210490440713562 0.23891578388338924 0.015414506531623995
0.5748794874185266 0.5081890782772945 0.015414506531623995
0.6018186044217354 0.3917460824660498 0.015414506531623995
0.10169040632480199 0.35406214767462074 0.017227977888285673
0.2803808064534578 0.564714980464438 0.017227977888285673
0.5862046160408787 0.5105375236841713 0.017227977888285673
0.368987016939946 0.20403366233800233 0.017227977888285673
0.24646889208388487 0.27460490018249045 0.017227977888285673
0.158343251506912 0.22195982669860276 0.017227977888285673
0.4729895992444917 0.22905956705993313 0.019041449244947283
0.23686656125036146 0.2376916907176426 0.019041449244947283
0.17505439005854914 0.18898185007771065 0.019041449244947283
0.2239183757637973 0.28270204978998476 0.019041449244947283
0.21667355769393395 0.2789390967249119 0.019041449244947283
0.19335231604726522 0.23183417823562544 0.019041449244947283
0.5304857086074494 0.3441877961375981 0.02085492060160896
0.3503808008205975 0.19576423295162526 0.02085492060160896
0.21882252125157808 0.23624998098909664 0.02085492060160896
0.17926164360600416 0.20455050167465091 0.02085492060160896
0.2663626728664632 0.25321500553066634 0.02085492060160896
0.6082201583107512 0.4024636981839202 0.02085492060160896
0.22427200267834632 0.24259713073741232 0.022668391958270636
0.16455439090347818 0.2215971324272705 0.022668391958270636
0.13419688039296215 0.2690194084039726 0.022668391958270636
0.12609066342868452 0.3160880574661258 0.022668391958270636
0.5846359633173664 0.49427975297169946 0.022668391958270636
0.24684972106878383 0.27884842315707875 0.022668391958270636
0.18649739431908416 0.2089391023577722 0.022668391958270636
0.6044118684617615 0.46984322644068377 0.02448186331493225
0.5515854478422078 0.3472253606600063 0.02448186331493225
0.47123959938531323 0.22528754663807693 0.02448186331493225
0.577744772162052 0.494442965393799 0.02448186331493225
0.15261268201986114 0.22908676913028306 0.02448186331493225
0.2082771853125906 0.3099766589941761 0.02448186331493225
0.13726164698572027 0.3005012711556189 0.02448186331493225
0.49207638527335573 0.5640077266353402 0.026295334671593926
0.6182849243402232 0.41815929277582686 0.026295334671593926
0.5132123939352472 0.30473572677342387 0.026295334671593926
0.19683418105205558 0.3017707011052821 0.026295334671593926
0.3168587827927069 0.2183056819149295 0.026295334671593926
0.34414245935368143 0.569828969690224 0.026295334671593926
0.231997390657725 0.5417564330891017 0.02810880602825554
0.46905436640053594 0.5751696428355926 0.02810880602825554
0.5956074650251691 0.3968328696214858 0.02810880602825554
0.5047888194835538 0.28347277511656604 0.02810880602825554
0.6038496923411966 0.4477823473868949 0.02810880602825554
0.18690542537433305 0.30379272166795984 0.02810880602825554
0.39533675575223987 0.21102459441793298 0.02810880602825554
0.25441189662606295 0.27339894173031054 0.029922277384917217
0.19186526953480265 0.25582640428425907 0.029922277384917217
0.12927330565962572 0.3001567115978531 0.029922277384917217
0.42560359269492276 0.22774480032635347 0.029922277384917217
0.15924998718524278 0.31105567445138976 0.029922277384917217
0.34476810697172977 0.21176811767416434 0.029922277384917217
0.22460749487932866 0.29181474335720964 0.03173574874157889
0.14134195753820902 0.24052070603403475 0.03173574874157889
0.09134455223504734 0.375306964617912 0.03173574874157889
0.35811525615675943 0.5848717145937323 0.03173574874157889
0.5806372589759274 0.49126032316285784 0.03173574874157889
0.2329947999038889 0.2903639662718802 0.03173574874157889
0.1440802992867682 0.29090800767887875 0.033549220098240504
0.12145724411241404 0.4252953025642904 0.033549220098240504
0.31665930094347405 0.5753056531873421 0.033549220098240504
0.5632370013087588 0.5322266411098445 0.033549220098240504
0.22302070744224975 0.3097681097881599 0.033549220098240504
0.47895592000790854 0.2667616365649289 0.033549220098240504
0.302713706210746 0.22862433393433432 0.03536269145490218
0.5412033243253197 0.3427370190522688 0.03536269145490218
0.27248313869519625 0.24463728601365675 0.03536269145490218
0.16727459793847063 0.24052070603403475 0.03536269145490218
0.13140413450370314 0.33759582775613295 0.03536269145490218
0.48249218915339875 0.27638210211201886 0.03536269145490218
0.2167279618346338 0.3167681092248739 0.037176162811563794
0.1809119025405663 0.2943717379701025 0.037176162811563794
0.16284972782821622 0.270705936765668 0.037176162811563794
0.23169816788387582 0.30225127101479743 0.037176162811563794
0.23558806394391507 0.5425996972699493 0.037176162811563794
0.46331472955670183 0.2513561973900882 0.03898963416822547
0.4481631763717937 0.23386526615508652 0.03898963416822547
0.4397758713472336 0.22510619950241068 0.03898963416822547
0.21890412746262786 0.3236955698073214 0.03898963416822547
0.46814763072220517 0.2737797707152095 0.03898963416822547
0.17279661821950532 0.31039375740620817 0.04080310552488715
0.21461526770412306 0.3166230315163409 0.04080310552488715
0.23682122446644496 0.2857396143123931 0.04080310552488715
0.1395375535383307 0.3366800247210188 0.04080310552488715
0.509032342458142 0.35628365008653134 0.04080310552488715
0.4504390829244041 0.5810180879608262 0.04261657688154876
0.3438432365798323 0.5768833732676378 0.04261657688154876
0.19989894764481372 0.5322447758234112 0.04261657688154876
0.2772525683632165 0.2853043811867943 0.04261657688154876
0.2636333984746874 0.5574973644649247 0.04443004823821044
0.1390660509855986 0.46602586923491107 0.04443004823821044
0.1120906645552566 0.40936395669601783 0.04443004823821044
0.5109002179555037 0.5531268984953701 0.04443004823821044
0.42087043245403594 0.24056604281795138 0.04443004823821044
0.5074727570914129 0.3529015260063573 0.04624351959487205
0.5472240492294365 0.37051940023632524 0.04624351959487205
0.6077939925419357 0.44941447160789044 0.04624351959487205
0.22406345347233028 0.32843779740499157 0.04624351959487205
0.30629531214015276 0.25200904707848637 0.04624351959487205
