-0.21830579184640755 0.48960236400955187 -0.11553816907238096
0.4186537485057244 0.5437314849891257 -0.11553816907238096
0.2081766048705045 -0.7022812084477442 -0.11553816907238096
-0.24610311653532613 0.5635808742716493 -0.11499285618000396
0.09721224768293572 0.6713142525718842 -0.11499285618000396
0.6157639098665527 0.4210156349708324 -0.11499285618000396
0.5978094828850394 -0.019972084683308376 -0.11499285618000396
0.21176203713788327 -0.2713476952468048 -0.11499285618000396
0.0671859565464261 -0.31206211907390397 -0.11499285618000396
0.07028060721066565 -0.6484179275032042 -0.11499285618000396
0.6156003159988396 0.17931932824702806 -0.11451570739917406
0.02255891271652181 0.6001236544720642 -0.11451570739917406
0.23859824785398742 0.6043839114437597 -0.11451570739917406
-0.21346613992656155 -0.12367014757995325 -0.11451570739917406
0.14984175820847281 -0.4407491452637257 -0.11451570739917406
0.5730181955153492 -0.05731920139997947 -0.11417488684143842
-0.04559838241945094 0.6443826120996142 -0.11417488684143842
0.3545931164737341 0.4378930689899011 -0.11362957394906138
-0.3048810299224141 -0.03336633260231893 -0.11362957394906138
0.03193147805425183 -0.3093287382008642 -0.11362957394906138
0.5106412170385728 -0.12555147705865402 -0.11362957394906138
0.3232171759285913 0.6220656819790846 -0.11362957394906138
-0.1922330191796314 0.5610519857332508 -0.11362957394906138
-0.28201197049835286 -0.26237048175604805 -0.11362957394906138
-0.1255412524419219 0.5723944938946929 -0.1131524251682315
0.2276101930725905 0.6309202000690564 -0.1131524251682315
0.24210188318750964 0.6248876761971357 -0.1131524251682315
0.580304939039737 -0.012514930880052677 -0.1131524251682315
0.18738655084863057 -0.4268368500969571 -0.1131524251682315
-0.3487173700583717 0.06980686663541316 -0.11281160461049587
0.2751410280544023 0.6443826120996142 -0.11281160461049587
0.0883372803594997 -0.32033724221572524 -0.11226629171811885
0.5148196770764117 -0.17128277949562173 -0.11226629171811885
-0.3111044133066668 -0.1119118383380738 -0.11226629171811885
-0.01635597856573324 0.7072231065349109 -0.11226629171811885
0.35620860591740094 0.5993738492450459 -0.11226629171811885
-0.03150204415150491 0.2185409580312451 -0.11226629171811885
0.32096094383638146 -0.3111350871568631 -0.11226629171811885
0.5853081848272963 0.386333735015654 -0.11226629171811885
-0.14993718796463876 0.5560487399456918 -0.11178914293728895
-0.21253910800952064 -0.048226108919592656 -0.11178914293728895
0.6315575345120221 0.13095007469318642 -0.11178914293728895
0.5526712082185316 0.0699159292138885 -0.11178914293728895
0.6170317623413293 0.06980686663541316 -0.11144832237955331
-0.3187933250891828 0.3768452906882937 -0.11144832237955331
0.05016537789310839 0.6224474010037485 -0.11144832237955331
-0.242974383815313 0.49958840635120605 -0.11144832237955331
0.18350119649044425 -0.3611266465655263 -0.1109030094871763
-0.09494238276841639 -0.2995880866607797 -0.1109030094871763
-0.19010629889936095 0.2185409580312451 -0.1109030094871763
0.3580013220510904 0.6180780814535777 -0.1109030094871763
0.14236415517175288 0.6585539308902618 -0.1109030094871763
-0.2782220458963326 0.4671354728436187 -0.1109030094871763
0.44430390368090844 -0.017831731580728524 -0.1109030094871763
0.0682152346307877 0.6373344429656411 -0.11042586070634641
0.27961259377189396 0.6179144875858645 -0.11042586070634641
-0.37267705526718703 0.13097052392665048 -0.11042586070634641
0.10317660744330938 -0.34982503687101263 -0.11042586070634641
0.5117113935898628 -0.05927551140138207 -0.11042586070634641
0.019089359438773025 0.6150243292562663 -0.11008504014861077
0.5782600156933231 -0.08558685845857324 -0.11008504014861077
-0.123141875715463 0.2185409580312451 -0.11008504014861077
0.3244850284033679 -0.3252177926024996 -0.10953972725623376
-0.3606529059902737 0.06226109948714617 -0.10953972725623376
-0.2936475843394475 -0.07588028897426226 -0.10953972725623376
0.5888322693942827 -0.06831407259253111 -0.10953972725623376
0.423173029101299 0.5909419486466663 -0.10953972725623376
0.05415979482977005 0.6355008283650233 -0.10953972725623376
-0.3652471671085501 0.20186801634681775 -0.10953972725623376
0.12351677832897215 -0.35751394865352853 -0.10906257847540386
0.5786621839514512 -0.031382756956297546 -0.10906257847540386
-0.2168129978035255 -0.047558100626430816 -0.10906257847540386
0.08858948757222411 -0.41400836430378773 -0.10906257847540386
-0.3299722393829117 -0.21720494144492153 -0.10872175791766822
0.45715965511869666 0.5839687600353952 -0.10872175791766822
0.5676877619923637 0.42698681114236076 -0.10817644502529121
0.4295395571198007 0.5970494530412889 -0.10817644502529121
-0.04207429785246438 0.6710688617703146 -0.10817644502529121
0.0052793104393249425 0.19549467191716133 -0.10817644502529121
0.20653384978221864 -0.7022812084477442 -0.10817644502529121
-0.17427859219811803 -0.09466631811665056 -0.10817644502529121
0.27244854564829074 -0.4889752541833185 -0.10817644502529121
-0.21018744616114476 0.5635808742716493 -0.10817644502529121
0.5919746349366052 -0.017204621754494963 -0.10769929624446133
0.2586453130599976 0.611070810786533 -0.10769929624446133
-0.07821490979475137 0.6125022571290226 -0.10769929624446133
-0.2257833948831275 -0.1225590725617351 -0.10769929624446133
0.08591745439957674 -0.471354831348386 -0.10769929624446133
0.5606395928583908 0.43852699522728933 -0.10735847568672569
-0.26405754351683947 0.5007403798363526 -0.10735847568672569
-0.1272317224082907 -0.24225525243849083 -0.10681316279434865
0.2814257591390475 -0.46669922252971724 -0.10681316279434865
0.31949541543811816 -0.6304635005216908 -0.10681316279434865
0.4513725220483456 -0.15463710345581327 -0.10681316279434865
-0.2710511813615748 -0.138816213165725 -0.10681316279434865
-0.2570775384944136 0.49424434000591133 -0.10681316279434865
0.1379812027992726 0.6930858698000366 -0.10681316279434865
0.6225803210212655 0.12583094991599714 -0.10681316279434865
-0.3352276923831952 -0.21976791203909346 -0.10633601401351875
0.12364629014091173 -0.37998083981946174 -0.10633601401351875
0.618272349171487 0.04596987682738272 -0.10633601401351875
-0.36692400425260946 0.2530797133521746 -0.10633601401351875
-0.03501931230733672 0.6094416885205567 -0.10633601401351875
-0.21532020376064345 0.5136370297410691 -0.10633601401351875
-0.06568634609238931 0.6288207454334049 -0.10633601401351875
-0.30994562341036563 -0.1376369740359597 -0.10599519345578313
0.3139127747024085 0.6502310928703575 -0.10599519345578313
0.31949541543811816 -0.47783723835651776 -0.10599519345578313
0.24694835151851047 -0.6304635005216908 -0.10544988056340611
0.3620775359216086 -0.3162405791117429 -0.10544988056340611
0.4485777934749134 0.5343384704179317 -0.10544988056340611
0.5749063414052046 0.0787840801261698 -0.10544988056340611
-0.15102099733823812 -0.08281939552975982 -0.10544988056340611
0.014317871630474087 -0.34382659505486535 -0.10544988056340611
-0.30678280863457896 -0.21640060492866536 -0.10544988056340611
-0.353836494835561 0.41993864200838765 -0.10544988056340611
0.038877401020904055 0.6914294818894414 -0.10544988056340611
-0.36810324338237477 0.14160412532800237 -0.10497273178257621
0.0736001994430108 -0.35309009781412 -0.10497273178257621
0.6068071456092602 0.013687353598663151 -0.10497273178257621
0.21224600232986787 0.654021017472378 -0.10497273178257621
0.23509461252046499 0.6412470629684462 -0.10497273178257621
0.06936720811593414 0.630477133344 -0.10497273178257621
0.31265173863878665 0.5743917023630238 -0.10497273178257621
0.13830839053469882 -0.4515395241216361 -0.10463191122484057
0.22227294313845034 -0.3362467458508248 -0.10463191122484057
-0.36281370832631765 0.12237502946055774 -0.10463191122484057
0.4267039300794402 0.6084669417254327 -0.10463191122484057
-0.36050294494487006 0.1328382205830418 -0.10408659833246356
-0.32338758620745917 -0.2675509542336298 -0.10408659833246356
-0.16760532567765427 0.6354053986088575 -0.10408659833246356
0.4524495150107901 0.587506477424691 -0.10408659833246356
0.36438829930305616 0.13264736107070987 -0.10408659833246356
0.41158513013828724 -0.4419283843934911 -0.10408659833246356
0.19150366318607706 -0.6484179275032042 -0.10408659833246356
0.017841956197460547 -0.33419500609325625 -0.10408659833246356
0.017841956197460547 -0.6145608132977459 -0.10408659833246356
0.2529536097458124 -0.5834098143207087 -0.10408659833246356
-0.2539419893632458 -0.15294663348944448 -0.10360944955163366
0.3039812636499919 -0.4162986784517712 -0.10360944955163366
0.43772606691661065 -0.09961503261497201 -0.10360944955163366
0.1078731147289064 0.6250989849429318 -0.10360944955163366
0.18926788032733124 0.6632640709981684 -0.10360944955163366
0.41757675554327983 0.5823941690586564 -0.10360944955163366
0.3429302369880205 0.2462973842532354 -0.10360944955163366
-0.0994003156635986 0.6068582686929204 -0.10326862899389802
0.5676877619923637 0.4019842150268744 -0.10326862899389802
0.22227294313845034 -0.5761844184967133 -0.10326862899389802
0.021366040764447102 -0.6145608132977459 -0.10326862899389802
-0.21018744616114476 -0.2893089386394729 -0.10326862899389802
-0.02797795958451845 -0.4957916653380312 -0.10272331610152102
0.3756353777083322 -0.5120556223531758 -0.10272331610152102
0.38793218343143404 -0.4868144518472745 -0.10272331610152102
-0.23345867384333396 -0.05575824324555026 -0.10272331610152102
0.22367712383632127 -0.2354388412837781 -0.10272331610152102
0.6230370205686312 0.2640677681335715 -0.10272331610152102
-0.023819948780143683 0.6871078772173537 -0.10272331610152102
0.4677864401088938 0.53508827564495 -0.10272331610152102
-0.36511765529661055 0.37504575814344965 -0.10272331610152102
-0.16472880017036542 -0.23746331539672774 -0.10224616732069113
0.13624301795482088 -0.46164144545292035 -0.10224616732069113
0.49060778465487215 -0.08468709218615113 -0.10224616732069113
0.10129527796460869 0.6598422325985027 -0.10224616732069113
-0.27301430777413205 0.444893523245791 -0.10224616732069113
-0.23784162621581426 0.5229209817337878 -0.10224616732069113
0.1623430562662159 0.6614031907529319 -0.10224616732069113
0.19509591186461067 0.6899298714354046 -0.10190534676295548
-0.3416692009243988 -0.2893089386394729 -0.10190534676295548
0.38440809886444754 -0.3869881104865064 -0.10190534676295548
0.2870833803974591 0.6386227446738819 -0.10190534676295548
-0.13541141579394592 -0.25049629352453856 -0.10136003387057847
0.14927599608263156 -0.4419488336269553 -0.10136003387057847
-0.18325580568887467 -0.26237048175604805 -0.10136003387057847
-0.0021369448970024766 -0.47783723835651776 -0.10136003387057847
0.5282957219292789 -0.11872824949278654 -0.10136003387057847
0.5978094828850394 0.44687028248065785 -0.10136003387057847
0.023233737420838303 0.7089544749682078 -0.10136003387057847
0.5013572650458541 0.572558087762406 -0.10136003387057847
-0.3648586316727315 0.050482341011802496 -0.10088288508974858
0.2060294353567698 0.6154401303367039 -0.10088288508974858
-0.08408383979895907 0.6168306782122653 -0.10088288508974858
-0.22133227839910002 0.5082793305734649 -0.10088288508974858
0.6064935906961433 0.3292326587726253 -0.10088288508974858
0.41668380568201246 -0.3084766868065251 -0.10088288508974858
-0.15457234754984348 -0.31676544277065577 -0.10088288508974858
0.2008080644122599 -0.5788769009028247 -0.10088288508974858
-0.11609370658149008 -0.45641325809725564 -0.10054206453201293
0.6240799314753023 0.36581633743996855 -0.10054206453201293
-0.2394502992483265 0.5513999475381776 -0.10054206453201293
0.6157639098665527 0.19721922393930374 -0.09999675163963591
0.4541672506217778 0.4827791364436846 -0.09999675163963591
-0.21018744616114476 0.6174441552161892 -0.09999675163963591
0.0953854494934727 -0.44749057589573665 -0.09999675163963591
-0.30994562341036563 -0.3252177926024996 -0.09999675163963591
0.6224371763870166 0.1416245745614666 -0.09999675163963591
0.16239758755545367 -0.4550976907443962 -0.09999675163963591
0.12292375055851212 -0.434812051147971 -0.09999675163963591
0.6170113131078651 0.016734289384819766 -0.09951960285880601
0.25401696988594763 -0.46601758141424593 -0.09951960285880601
0.63172794479089 0.016666125273272603 -0.09951960285880601
-0.034003667045284514 0.5878950128605097 -0.09951960285880601
0.1985450159088953 0.6475522432865555 -0.09951960285880601
0.31298574278536745 0.3344540297171352 -0.09951960285880601
-0.3747015293801367 0.2112405816845478 -0.09951960285880601
-0.35376833072401387 -0.13987957330586015 -0.09951960285880601
-0.0818957718182962 -0.3478891761030741 -0.09951960285880601
0.6157639098665527 -0.017784016702645598 -0.0991787823010704
0.08128911122552678 0.7162003200256677 -0.0991787823010704
-0.2550803300260828 -0.22646162779302145 -0.0991787823010704
-0.012681932953343066 -0.7045919718291919 -0.09863346940869336
0.25665492100282145 0.12259315461750862 -0.09863346940869336
0.1848303966656133 -0.6191755236494866 -0.09863346940869336
-0.3416692009243988 -0.33419500609325625 -0.09863346940869336
-0.3987225622893444 0.30322805021739624 -0.09863346940869336
0.37566945976410576 0.6713142525718842 -0.09863346940869336
0.6311281006092752 0.1769676663986522 -0.09863346940869336
0.4689929448832779 0.5477259019257875 -0.09863346940869336
0.6556535479439317 0.26971175656967367 -0.09815632062786347
-0.05358721629277425 0.6258487901699501 -0.09815632062786347
0.03056137941215452 0.6542391426293288 -0.09815632062786347
0.05455514667674343 0.6639252628801755 -0.09815632062786347
-0.37206357826326286 0.1868105641060573 -0.09815632062786347
-0.2635735783248549 -0.19771000554244308 -0.09815632062786347
-0.13824022642315176 -0.40671480436824514 -0.09815632062786347
0.4900215732955668 -0.23976044595586596 -0.09815632062786347
0.5959826846955764 -0.029412814132585553 -0.09815632062786347
0.43340446224452267 -0.19726693881738677 -0.09815632062786347
-0.17248587606442856 -0.35635515875722734 -0.09781550007012783
-0.18658221433237449 0.6040635401194882 -0.09781550007012783
0.6336092742695906 0.2696367760469719 -0.09781550007012783
0.5077646915312841 0.4929764875311347 -0.09727018717775082
0.6413186352855708 0.03158724929093884 -0.09727018717775082
0.5619006289220128 -0.181575560339238 -0.09727018717775082
0.5782600156933231 -0.11714684210489319 -0.09727018717775082
0.07709701836537838 -0.5047688788287878 -0.09727018717775082
-0.08485409425944161 -0.5246387173447755 -0.09727018717775082
-0.17600996063141502 -0.22495520092782992 -0.09727018717775082
-0.21125762271243465 0.5431998049190582 -0.09727018717775082
0.05308961827848017 0.6680355588064674 -0.09727018717775082
0.4810988910940478 0.6084669417254327 -0.09727018717775082
0.418115252024502 0.550132095063401 -0.09679303839692092
-0.2717055568324272 0.4559224764941162 -0.09679303839692092
0.11829540738446226 0.6514307812335871 -0.09679303839692092
-0.03576230112320037 -0.6350304959953483 -0.09679303839692092
-0.08145270509323989 -0.3763408762628451 -0.09679303839692092
-0.3318603852727671 -0.058771096975933246 -0.09679303839692092
0.38307889868927864 0.585488819722896 -0.09679303839692092
0.352698154172724 -0.3231865020783952 -0.09679303839692092
0.4130779241811693 -0.39386586934161155 -0.09679303839692092
0.2563277332673952 -0.6942582925186472 -0.09679303839692092
-0.23376541234529605 -0.23249415166494217 -0.09645221783918528
0.5571086918802496 -0.11271617485432987 -0.09645221783918528
-0.24610311653532613 0.5366492337993793 -0.09590690494680827
0.03422860861338995 0.7094384401601924 -0.09590690494680827
0.5018753122936123 0.5302145416693304 -0.09590690494680827
0.651870439753066 0.04909179313624114 -0.09590690494680827
-0.3029588019767851 0.07713450862672928 -0.09590690494680827
-0.17427859219811803 -0.397035500528553 -0.09590690494680827
-0.1922330191796314 -0.17984419190594092 -0.09590690494680827
0.06364823915713015 -0.43295117090273444 -0.09590690494680827
-0.3145807829955703 0.40612177659778503 -0.09542975616597839
-0.2012647639596257 0.5187902365740319 -0.09542975616597839
-0.33338726137142277 0.36448032085364485 -0.09542975616597839
0.24414680653392354 0.6307020749121057 -0.09542975616597839
0.1717701528931837 0.7107744567465162 -0.09542975616597839
-0.33147866624810324 -0.19848707641408028 -0.09542975616597839
-0.35609954333892563 -0.05378830042183827 -0.09542975616597839
-0.14068731802769358 -0.43042909877549074 -0.09542975616597839
0.008183101591232584 -0.7126694190475265 -0.09542975616597839
0.6171885397978877 0.05761912349078671 -0.09542975616597839
0.21668348599158593 -0.4087188292477306 -0.09542975616597839
0.2733687611541771 -0.6132997772341241 -0.09542975616597839
0.6064595086403698 -0.08402590030414403 -0.09508893560824275
0.6195197524127993 -0.02657718709222498 -0.09454362271586574
0.07603365822524324 -0.6183371050774569 -0.09454362271586574
-0.23942985001486236 -0.26237048175604805 -0.09454362271586574
0.41825158024759634 -0.40629900328780766 -0.09454362271586574
0.532112912175918 0.45586112879372387 -0.09454362271586574
0.4161248599673259 0.6025434804319874 -0.09454362271586574
-0.33814511635741223 0.08071312448295351 -0.09454362271586574
0.5057265845960249 0.5296146974877157 -0.09454362271586574
0.23713271945572414 0.6304157856436078 -0.09406647393503584
-0.21778774459864944 0.5132212286606316 -0.09406647393503584
-0.3188955712565035 0.24406841780564434 -0.09406647393503584
0.44238849214643416 0.6194686293291392 -0.09406647393503584
-0.351512098631804 -0.21538495966661325 -0.09406647393503584
-0.3644700962369129 -0.0019017787121649264 -0.09406647393503584
-0.11841128637409234 -0.36882237475919694 -0.09406647393503584
0.0036161061175750357 -0.7116537737854742 -0.09406647393503584
0.29885532246164803 -0.5139982995322689 -0.09406647393503584
0.5145538370413778 -0.16775869492863527 -0.09406647393503584
-0.25954507933241966 0.47900966107512827 -0.0937256533773002
0.5059856082199041 -0.2388402304499797 -0.0937256533773002
-0.22814868955381276 0.5918144492744695 -0.09318034048492317
0.44784843748135916 0.5804992067576463 -0.09318034048492317
0.5394882690453171 0.45175083286743206 -0.09318034048492317
0.49064868312180043 -0.2694936314127229 -0.09318034048492317
-0.041917520395906016 -0.5137529087306992 -0.09318034048492317
0.07530430223168899 -0.6304635005216908 -0.09318034048492317
-0.36280689191516297 0.1708669784151842 -0.09318034048492317
0.2791013629352906 0.6967190169454986 -0.09270319170409327
0.26512772006812935 0.6225700964045333 -0.09270319170409327
0.26624561149750214 0.6488064629390228 -0.09270319170409327
0.16624885985786636 0.6279209791609828 -0.09270319170409327
-0.12663869463783067 -0.34746655861148196 -0.09270319170409327
-0.2700559853329867 -0.1936951393723173 -0.09270319170409327
-0.009757692567971286 -0.5376853282948957 -0.09270319170409327
0.2998437020790813 -0.5221575436844601 -0.09270319170409327
0.2770496231777219 -0.5113535320042404 -0.09270319170409327
0.3126449222276319 -0.45684269200000266 -0.09270319170409327
2.215333625281563E-4 -0.5179177359462288 -0.09236237114635766
0.5080305315663178 0.545626447290136 -0.09181705825398062
0.4541672506217778 0.6264281851181007 -0.09181705825398062
-0.10245406786090987 0.1416245745614666 -0.09181705825398062
0.6375696091504788 0.16154894436669195 -0.09181705825398062
0.1848303966656133 -0.5047688788287878 -0.09181705825398062
-0.21035104002885777 -0.26720331726473945 -0.09181705825398062
0.06604079947243431 -0.5478281480931082 -0.09181705825398062
0.24279715712529035 0.6365778213274681 -0.09133990947315072
-0.1380698161442839 0.555592040398326 -0.09133990947315072
-0.09995244496713025 0.5682092174456993 -0.09133990947315072
0.06991252100831123 -0.35585756074293334 -0.09133990947315072
-0.0842201680220533 -0.5358789793388968 -0.09133990947315072
0.29088693782178876 -0.5198399638918577 -0.09133990947315072
0.6059073793368381 -0.0752259135034098 -0.09133990947315072
0.4096015544922658 -0.3857338908340393 -0.09133990947315072
-0.36703306683108483 0.15011782286023856 -0.09133990947315072
-0.2717600881216649 -0.19897104160606496 -0.09133990947315072
0.1848303966656133 -0.6843267814662308 -0.09099908891541508
0.5853081848272963 0.40291124694391534 -0.09045377602303808
0.4513725220483456 0.5877995831043437 -0.09045377602303808
0.532801369702544 0.4357322666538571 -0.09045377602303808
0.1938076101563699 0.16856303144489135 -0.09045377602303808
-0.4076997757801011 -0.09179660902051656 -0.09045377602303808
0.06013097100129844 -0.6781851950158347 -0.09045377602303808
0.4810988910940478 -0.2853963186366677 -0.09045377602303808
0.19164680782032603 -0.5592320039549427 -0.09045377602303808
0.239770670572598 0.6343420384687223 -0.08997662724220819
-0.07327982811873933 0.6275256273140095 -0.08997662724220819
0.017807874141687014 0.6251126177652411 -0.08997662724220819
0.30244757114018156 -0.48084327567574614 -0.08997662724220819
0.28085318060205156 -0.655254787891381 -0.08997662724220819
0.3495489722192466 -0.5316937028899033 -0.08997662724220819
-0.09130241921179985 -0.537296792859077 -0.08997662724220819
-0.36991640874952836 0.016666125273272603 -0.08997662724220819
-0.3082278877993781 -0.2578580175716283 -0.08997662724220819
0.0077741169219499 -0.5123555444439831 -0.08963580668447255
0.6170317623413293 0.24038073937094478 -0.08963580668447255
0.051290085733635936 -0.3767771265767467 -0.08909049379209553
-0.12149230421602258 -0.4868144518472745 -0.08909049379209553
0.6157639098665527 0.08918592354826141 -0.08909049379209553
0.3350572821043273 -0.4312266188805921 -0.08909049379209553
-0.27303475700759616 -0.21748441430226473 -0.08909049379209553
0.5875371512748873 0.3996052875338795 -0.08909049379209553
0.20465252030351785 0.6959692117184801 -0.08909049379209553
-0.1101225304099617 0.617450971627344 -0.08909049379209553
-0.2637439886037227 -0.12037782099222706 -0.08861334501126564
-0.2991825101970742 -0.15578226052980504 -0.08861334501126564
0.23704410611071286 0.6260737317380557 -0.08861334501126564
-0.010132595181480533 0.6500743154137992 -0.08861334501126564
0.03332202592981318 0.6484588259701323 -0.08861334501126564
0.46127676745614327 -0.2978158197605543 -0.08861334501126564
0.2404659445103787 -0.503364698130917 -0.08861334501126564
0.3476062950401535 -0.5343452868290864 -0.08861334501126564
-0.1377767104646313 -0.4217927058424697 -0.08861334501126564
0.07056689647916359 -0.6366528018501699 -0.08861334501126564
0.35541108581229963 -0.5373104256813865 -0.08827252445353
0.14120536527545172 0.6354053986088575 -0.08827252445353
-0.3561404418058539 0.3163428252790636 -0.087727211561153
0.3733655127938129 0.5186948068178658 -0.087727211561153
-0.37834149293675334 0.09904245407797602 -0.087727211561153
0.3733655127938129 -0.397035500528553 -0.087727211561153
0.23730994614574674 -0.25339326826529146 -0.087727211561153
0.023233737420838303 -0.42397395741197774 -0.087727211561153
0.2081766048705045 0.6955738598715068 -0.087727211561153
0.06610214717282674 -0.5943024393459397 -0.0872500627803231
-0.27364823401152033 -0.18393403859876864 -0.0872500627803231
-0.0989299832939234 -0.39267981380069156 -0.0872500627803231
0.5587514469685353 -0.11916449980668821 -0.0872500627803231
0.5331285574379702 -0.1921205483955786 -0.0872500627803231
0.29922340866400254 -0.49735262349246034 -0.0872500627803231
-0.335541247296312 0.38933977233488215 -0.0872500627803231
0.45677793609403267 0.5476918198700139 -0.0872500627803231
0.3140150208697291 0.3339905137586149 -0.0872500627803231
-0.01720121354891759 0.6273756662686059 -0.0872500627803231
0.35973269048438744 -0.5311483899975261 -0.08690924222258746
0.4513725220483456 0.6140427660499876 -0.08636392933021042
0.5730386447488133 0.4228833316272237 -0.08636392933021042
0.054575595910207574 0.6443076315769122 -0.08636392933021042
-0.37179092181707435 0.06255420516679876 -0.08636392933021042
0.41825158024759634 -0.41268598053977346 -0.08636392933021042
0.07494303244048924 -0.6763583968263717 -0.08636392933021042
-0.19859273078697834 -0.2893089386394729 -0.08636392933021042
0.022906549685412177 0.6229313661957331 -0.08588678054938054
0.017971468009400127 0.6544436349639702 -0.08588678054938054
0.24386733367658034 0.6050178376811481 -0.08588678054938054
-0.07341615634183356 -0.3818144544200795 -0.08588678054938054
0.06501833779922746 -0.6827385576671827 -0.08588678054938054
0.5759560687230303 -0.07830693134533995 -0.08588678054938054
0.26959246937446624 -0.4786347584616192 -0.08588678054938054
0.6324095859063612 0.2128628875393694 -0.08588678054938054
-0.3222560619557769 -0.3251087300240242 -0.08588678054938054
0.46698210359263775 -0.3072633656209863 -0.08554595999164491
0.07709701836537838 0.1416245745614666 -0.08500064709926788
0.3489900265045602 -0.19952998732075136 -0.08500064709926788
-0.28163706788484366 -0.1894757808675501 -0.08500064709926788
0.39498035256540714 -0.4621935747564521 -0.08500064709926788
0.6368743352126981 0.16092865095161304 -0.08500064709926788
0.528145760883875 0.49392396868163985 -0.08500064709926788
-0.27054676693612606 0.47164112061688385 -0.08500064709926788
-0.11655722254001054 0.5463489868725355 -0.08452349831843799
0.3547567103414472 0.5831576071079844 -0.08452349831843799
-0.0724959408359474 -0.38088742250303853 -0.08452349831843799
-0.07229826491246075 -0.5562941307472614 -0.08452349831843799
0.29333402942633074 -0.4800184899260259 -0.08452349831843799
0.6019811265117236 -0.08476207270885294 -0.08452349831843799
0.2925092436766104 -0.4877823822312437 -0.08452349831843799
-0.37494010377055165 0.09554563515560835 -0.08452349831843799
-0.29645594573518913 -0.15955173589836116 -0.08452349831843799
0.2998164364344625 -0.5331592312881664 -0.08418267776070235
-0.32689803795213623 -0.4042881619971674 -0.08363736486832533
-0.1689617914974421 -0.3708536652833014 -0.08363736486832533
0.3158350026480374 -0.5268472345589024 -0.08363736486832533
-0.36281370832631765 0.19978901094463034 -0.08363736486832533
0.60894749871184 0.39516780387216166 -0.08363736486832533
-0.3451932854913852 0.4032452510904963 -0.08363736486832533
-0.3504555549028235 -0.031382756956297546 -0.08316021608749545
0.09005501597048737 -0.3565323854472499 -0.08316021608749545
-0.08996640262547617 -0.5287694625045314 -0.08316021608749545
0.4901306358740421 -0.27037294845168086 -0.08316021608749545
0.32057922481171747 -0.5489460395224812 -0.08316021608749545
0.5765831785492639 -0.08780900849500956 -0.08316021608749545
0.597864014174277 0.3615151820013448 -0.08316021608749545
-0.26399619581644707 0.45697902022309667 -0.08316021608749545
0.2723258502475061 0.6161490370967939 -0.08316021608749545
0.1938076101563699 -0.6213022439297569 -0.08281939552975981
-0.31548736567914715 0.22909957890989519 -0.0822740826373828
-0.24610311653532613 -0.2893089386394729 -0.0822740826373828
0.17292894278948487 -0.3445423182261102 -0.0822740826373828
0.5377705334343295 -0.1636143169465699 -0.0822740826373828
-0.13371412941642247 0.5994897282346761 -0.0822740826373828
0.4402481390438544 0.5248909245574999 -0.0822740826373828
0.2604516620159964 0.6481316382347061 -0.0817969338565529
0.4620333890943163 0.5332342118108682 -0.0817969338565529
-0.11056559713501801 -0.37709749790101826 -0.0817969338565529
0.05903352880538968 -0.4981228779529429 -0.0817969338565529
0.4483801175514266 -0.07661646137897125 -0.0817969338565529
0.5402312578611809 -0.18270026817976565 -0.0817969338565529
0.5642591071815432 0.42753212403473767 -0.0817969338565529
-0.210678227764284 -0.11776713551997202 -0.0817969338565529
-0.16617387933516456 -0.3691154804388496 -0.08145611329881726
0.6033512251538208 0.3613106896667034 -0.08145611329881726
-0.02762350620447344 -0.6577155123182323 -0.08091080040644025
0.6332820865341644 0.0338911962612317 -0.08091080040644025
0.06508650191077453 -0.5317073357122126 -0.08091080040644025
0.5117045771787081 0.5052119455538442 -0.08091080040644025
-0.2974034268856942 0.42939300427997423 -0.08091080040644025
0.004352278522284039 0.6028706681674136 -0.08043365162561036
-0.35814446668533945 0.29483023167479017 -0.08043365162561036
0.1913809677852922 -0.6288548274891785 -0.08043365162561036
0.3580285876957092 -0.3869131299638046 -0.08043365162561036
0.5091279737622265 -0.17036938040089022 -0.08043365162561036
-0.08705579506241377 -0.5259611011087897 -0.08043365162561036
-0.3356980247528704 -0.0619270953405653 -0.08043365162561036
-0.28303443217155977 0.45672681301037243 -0.08043365162561036
0.4830960995623787 -0.2878229610077455 -0.08009283106787472
-0.1720359929282175 -0.3790810735470396 -0.07954751817549768
0.5227676124828068 -0.2244098880354529 -0.07954751817549768
0.5492357369965564 0.47380192295292783 -0.07954751817549768
-0.2118983653609776 0.5278015321205621 -0.07954751817549768
0.013738476682323548 -0.47908464159783026 -0.07954751817549768
-0.25400333706363826 0.4720023904080836 -0.0790703693946678
0.3274297180222037 0.5989103332865253 -0.0790703693946678
0.35172340737760005 -0.3544942785119908 -0.0790703693946678
0.5825270890761733 -0.08769994591653411 -0.0790703693946678
0.37842328987060986 -0.3843774250142515 -0.0790703693946678
-0.03906826053323614 -0.511244469425765 -0.0790703693946678
-0.26028806814828337 -0.20557614401498156 -0.0790703693946678
-0.36434740083612804 0.16049240063771147 -0.07872954883693217
0.24767770751206475 0.1865174584264046 -0.07818423594455515
-0.09773029493069395 -0.5283195793683204 -0.07818423594455515
0.3471427790816331 -0.522730122221456 -0.07818423594455515
0.6247411233573095 0.1865174584264046 -0.07818423594455515
0.14892154270258656 0.6431079432136828 -0.07818423594455515
0.2526400548326957 0.6413220434911481 -0.07770708716372525
0.4459398423580396 0.5488233441216963 -0.07770708716372525
0.6203854366294479 0.33140027751982387 -0.07770708716372525
0.24217686371021163 -0.3400707525086186 -0.07770708716372525
0.31228365243643214 -0.524509205532836 -0.07770708716372525
-0.18106092129705714 -0.33457672511792014 -0.07770708716372525
-0.38214505036108304 -0.17634737298357336 -0.07770708716372525
0.06572724455931758 -0.7162003200256677 -0.07770708716372525
-0.10952268622834702 -0.4901544933130838 -0.07736626660598961
-0.09347685437015323 -0.49810242871947885 -0.0768209537136126
-0.10653028173142808 -0.4954508447802955 -0.0768209537136126
0.6393214268172398 0.16625226806344373 -0.0768209537136126
-0.06494335727652566 0.6354053986088575 -0.0768209537136126
0.5259849585478312 -0.22646162779302145 -0.0768209537136126
-0.157666998214083 0.5137733579641633 -0.07634380493278271
-0.3077098405516199 0.24074200916214453 -0.07634380493278271
0.19583890068047433 -0.5855842494790621 -0.07634380493278271
0.5958327236501726 -0.09995585317270762 -0.07634380493278271
0.3985794176550954 -0.36591858360728935 -0.07634380493278271
-0.018625843480252573 -0.5215031682136076 -0.07634380493278271
-0.09339505743629667 -0.40413820095176367 -0.07634380493278271
-0.21547016480604708 -0.12634899716375536 -0.07634380493278271
-0.008142203124304402 -0.6773672256772691 -0.07600298437504706
0.6269019256933532 0.3380530948068235 -0.07545767148267006
-0.37969795875654117 0.0338911962612317 -0.07545767148267006
0.3773531133193199 -0.49947252736157605 -0.07545767148267006
-0.057568000407126514 -0.4756764360204739 -0.07545767148267006
-0.2550803300260828 0.5366492337993793 -0.07545767148267006
0.3489900265045602 -0.19055277382999472 -0.07545767148267006
-0.07166433867507245 -0.5576710458005135 -0.07498052270184016
-0.39335123029943075 -0.27234289127539285 -0.07498052270184016
-0.05994692790012119 -0.39240034094334836 -0.07498052270184016
0.3068918712130544 -0.4871484559938555 -0.07498052270184016
0.526584802729446 -0.21028628412288808 -0.07498052270184016
0.30963206849724884 -0.5471805890334105 -0.07498052270184016
0.11335350929729546 0.6570952189031534 -0.07498052270184016
-0.30987064288766386 0.4369524042505507 -0.07498052270184016
0.3284726289288749 -0.34165215989651193 -0.07463970214410452
0.0052793104393249425 -0.6933039949569876 -0.07463970214410452
-0.18503488900025467 0.5666823413470436 -0.07409438925172751
0.6313939406443091 0.021764800816997765 -0.07409438925172751
0.3350572821043273 -0.5820124500339927 -0.07409438925172751
-0.021659146444099792 -0.397035500528553 -0.07409438925172751
-0.09141829820142994 -0.39342280261655527 -0.07409438925172751
-0.16325645536094752 -0.3679362413090843 -0.07361724047089763
-0.06381183302484336 -0.5726807831631909 -0.07361724047089763
0.2877650215129304 -0.4836652698937972 -0.07361724047089763
0.2938861587298624 -0.4591261897368314 -0.07361724047089763
0.2957674882085632 -0.45383665468077433 -0.07361724047089763
0.20971711379146957 0.6230881436522915 -0.07361724047089763
0.30860279041288713 0.6187801718025131 -0.07361724047089763
-0.37147055049280286 0.18168462291771326 -0.07361724047089763
-0.24599405395685073 -0.16862437914528375 -0.07361724047089763
-0.3370613069838129 0.36606854465269295 -0.07327641991316197
0.31051820194736146 0.6982458930441542 -0.07273110702078495
0.6247411233573095 0.39300018512496293 -0.07273110702078495
0.20278482364712655 0.08948584563906885 -0.07273110702078495
-0.047602407298936465 -0.370103860056283 -0.07273110702078495
0.3269730184748381 -0.597949219313711 -0.07273110702078495
0.6249592485142601 -0.0020176577017950153 -0.07273110702078495
-0.01882351940373922 0.6301226799639551 -0.07225395823995505
-0.2664501038321437 0.45081016812808167 -0.07225395823995505
0.0069629639945389885 -0.5183812519047492 -0.07225395823995505
0.37128650739162544 -0.48739384679542513 -0.07225395823995505
0.25381247755130626 -0.7087908811004948 -0.07225395823995505
0.4646849730334996 -0.2972364248124038 -0.07225395823995505
-0.28485441394986805 0.46115066384978104 -0.07225395823995505
-0.38577138109539016 -0.13963418250429047 -0.07225395823995505
-0.1619136223634691 -0.3941862406658831 -0.07191313768221944
0.5312267787258054 0.4722273319761892 -0.07136782478984241
0.6364517177211059 0.1456394407315924 -0.07136782478984241
-0.4346314162523711 -0.3072633656209863 -0.07136782478984241
0.35757188814834345 -0.5338681380482565 -0.07136782478984241
-0.0586995246588088 -0.4907338882612344 -0.07136782478984241
-0.04895887311872429 -0.6109685646192123 -0.07089067600901251
-0.1422482761821228 -0.40700791004789777 -0.07089067600901251
0.2607515841068038 -0.5269494807262232 -0.07089067600901251
0.2845340426255966 -0.5203375619061518 -0.07089067600901251
0.5584924233446563 -0.12377921015842869 -0.07089067600901251
0.455844087765837 0.554951297749783 -0.07089067600901251
-0.2778403268716687 0.4521734503590243 -0.07089067600901251
-0.3616958168969448 0.02710205075113785 -0.07089067600901251
0.20725638936461815 -0.343172219584013 -0.07054985545127687
-0.24411272447815005 -0.24194169752537398 -0.07054985545127687
-0.08759429154363614 -0.39342280261655527 -0.07000454255889986
-0.3375248229423334 -0.02539794796245976 -0.07000454255889986
0.3284726289288749 -0.6060471157655097 -0.07000454255889986
-0.3089436109706229 0.22242631238943134 -0.07000454255889986
-0.3506123323593819 0.36300797604422685 -0.07000454255889986
-0.04294679848026761 0.6254807039675956 -0.06952739377806996
-0.35357065480052724 0.2684166384502783 -0.06952739377806996
-0.3142535952601441 0.41513988855547 -0.06952739377806996
0.6208080541210402 0.30721565074290325 -0.06952739377806996
0.27508649676516456 -0.659671822319635 -0.06952739377806996
0.29032799210710236 -0.4651518971975974 -0.06952739377806996
-0.1571353181440155 -0.38448648759272686 -0.06952739377806996
-0.2662865099644306 -0.19214781404019748 -0.06952739377806996
-0.2993733697094062 0.4545387450297097 -0.06918657322033432
0.3244850284033679 -0.3880582870377963 -0.06918657322033432
-0.1885248915114676 0.5370445856463526 -0.06864126032795732
-0.24610311653532613 0.5815353012531628 -0.06864126032795732
0.6215783085815227 -0.041246103897166805 -0.06864126032795732
0.3374566588307862 -0.4957916653380312 -0.06864126032795732
-0.09404943290714902 -0.5408481430706823 -0.06864126032795732
-0.4166769892708577 -0.1366826764742999 -0.06864126032795732
0.01658773654499342 0.6153447005805378 -0.06816411154712743
0.459831688291344 0.5518907291413169 -0.06816411154712743
0.62958759168831 0.14037717132015404 -0.06816411154712743
0.3057807961948361 -0.6038522313736923 -0.06816411154712743
0.47375079986926744 -0.24765385007302332 -0.06816411154712743
-0.06896503985780619 -0.5632741357696873 -0.06816411154712743
-0.19408026660255856 -0.30429822676868623 -0.06816411154712743
-0.3556360273804052 -0.01899733788818445 -0.06816411154712743
0.1940734501914037 -0.6208114623266175 -0.06782329098939179
0.6012585869293239 0.3912756331028207 -0.06727797809701477
-0.33587525144289293 -0.03562256469452887 -0.06727797809701477
0.4263631095217045 -0.3878878767589285 -0.06727797809701477
-0.13710870217146945 -0.4391132065865948 -0.06727797809701477
-0.10355832646797337 -0.376034137760883 -0.06727797809701477
0.20003780995177736 0.669582884138587 -0.06727797809701477
0.4058320791237097 0.5741122295056804 -0.06680082931618488
-0.34914680396111863 0.31699720074991583 -0.06680082931618488
0.41801982226833617 0.565700778140765 -0.06680082931618488
0.33830871022512526 -0.5499412355510691 -0.06680082931618488
0.5215679241195774 -0.16254414039528003 -0.06680082931618488
0.5232447612636366 -0.20759380171677658 -0.06680082931618488
-0.0030230783471151016 -0.6956761060388276 -0.06680082931618488
-0.28408415948938553 -0.21736853531263464 -0.06680082931618488
0.5666039526187645 -0.10975103600202991 -0.06646000875844923
-0.3698618774602907 0.18504511361698678 -0.06646000875844923
0.11658448818462933 -0.3409773351921955 -0.06591469586607221
0.07003521640909598 -0.5986785753072653 -0.06591469586607221
-0.28201197049835286 -0.3880582870377963 -0.06591469586607221
0.3991519961920913 0.5546036607808925 -0.06591469586607221
0.6422184015579928 0.1865174584264046 -0.06591469586607221
0.6012790361627881 0.35011132613951035 -0.06543754708524231
-0.13888778548284944 -0.403299782379734 -0.06543754708524231
-0.2749297193086063 -0.19216144686250686 -0.06543754708524231
0.418496971049166 0.5488097112993867 -0.06543754708524231
0.008701148838990803 0.6415538014704083 -0.06543754708524231
-0.09733494308372057 0.5766206688106148 -0.06543754708524231
-0.0049793883485177 -0.6910750285093964 -0.06543754708524231
0.27681786519846174 -0.662207527269188 -0.06543754708524231
0.21355475327157275 -0.6159922596402356 -0.06543754708524231
0.5465364381792901 -0.1725915304373266 -0.0650967265275067
-0.3455477388714303 0.3551009391047601 -0.0650967265275067
-0.012681932953343066 -0.7022812084477442 -0.06455141363512966
-0.20121023267038804 -0.285675791494011 -0.06455141363512966
0.6247411233573095 -0.055880938646335095 -0.06455141363512966
0.5484314004803001 0.47380192295292783 -0.06455141363512966
0.0059200530878679965 0.6207569310373798 -0.06455141363512966
0.009730426923352402 0.6283844951195033 -0.06407426485429978
-0.18423736889515335 0.5207465465754345 -0.06407426485429978
-0.34785850225287795 0.3157906959755317 -0.06407426485429978
0.5903046142037005 0.3782085729192364 -0.06407426485429978
-0.027964326762209057 -0.4978025066286714 -0.06407426485429978
0.44135921406207246 -0.08233543033777524 -0.06407426485429978
0.5270619515102758 -0.2186023057316376 -0.06407426485429978
0.09612843830933636 -0.35427615335504 -0.06407426485429978
-0.3580081384622452 -0.01820663419423777 -0.06407426485429978
0.3374566588307862 -0.5945478301475094 -0.06373344429656413
-0.370754827321558 0.029099259219468626 -0.06373344429656413
-0.3179208244613796 -0.407096523392909 -0.06318813140418712
0.1848303966656133 -0.5945478301475094 -0.06318813140418712
0.5236810115775384 0.4827791364436846 -0.06318813140418712
0.2075154129884973 0.6309815477694489 -0.06318813140418712
-0.3028974542763927 0.41668721388758967 -0.06318813140418712
-0.3265299517497817 -0.0796088658758901 -0.06271098262335723
-0.1352750875708517 -0.35184269457280754 -0.06271098262335723
0.4301462177125701 -0.332872622329242 -0.06271098262335723
0.5338033821422867 -0.1598789236337874 -0.06271098262335723
0.3045197601312143 -0.3667433693570096 -0.06271098262335723
-0.32288998819316517 0.3962925117126892 -0.06271098262335723
-0.0770561198984502 0.5973289258986321 -0.06271098262335723
-0.15926203842428585 0.55775284273437 -0.06271098262335723
-0.36716257864302443 -0.022971305591381965 -0.06271098262335723
0.2786651126213888 -0.6885393235598433 -0.062370162065621584
0.5170077450570745 0.12367014757995315 -0.06182484917324458
0.35041465643589514 0.2762895933339715 -0.06182484917324458
0.4272287937383531 0.5097175933271093 -0.06182484917324458
0.004147786187642649 0.6264281851181007 -0.06182484917324458
-0.3696301194810304 0.31004446137210895 -0.06182484917324458
-0.24826391887137006 -0.23759964361982208 -0.06182484917324458
0.34916043678342806 -0.49348771836773825 -0.06182484917324458
-0.18318082516617287 -0.2988791799006896 -0.06182484917324458
0.16286110351397412 0.6633799499877985 -0.06134770039241468
-0.3184184224756736 0.40370876704901665 -0.06134770039241468
0.04044517558648801 0.6510626950312326 -0.06134770039241468
0.059128958561555624 -0.5049801875745838 -0.06134770039241468
-0.22580384411659163 -0.1658500998053157 -0.06134770039241468
0.6293558337090499 0.013435146385938738 -0.06134770039241468
0.5964257514206327 -0.051075368782262626 -0.06134770039241468
0.4844661982044759 -0.2248188727047357 -0.06134770039241468
0.4810988910940478 0.4827791364436846 -0.06100687983467904
0.6222872153416128 0.3791833197143603 -0.06100687983467904
-0.13019004484943603 0.5905125147439193 -0.06100687983467904
-0.038550213285477926 -0.3790810735470396 -0.06100687983467904
-0.27303475700759616 0.5230913920126556 -0.060461566942302036
0.15177761897641118 0.617450971627344 -0.060461566942302036
0.3914562679984205 0.5366492337993793 -0.060461566942302036
0.6588504447754919 0.2650084328729219 -0.060461566942302036
0.4936683532633381 -0.24102148201948784 -0.060461566942302036
-0.08233883854335261 -0.2893089386394729 -0.060461566942302036
-0.4256542027616144 -0.3521494330747696 -0.060461566942302036
0.06565908044777043 -0.46886002486576117 -0.060461566942302036
0.5930925263659782 -0.09754966003509406 -0.05998441816147214
0.2581954299237865 -0.5423204878801003 -0.05998441816147214
-0.00965544640065059 -0.5212373281785738 -0.05998441816147214
-0.37005955338377733 0.00551447662416259 -0.05998441816147214
-0.22436558136294726 0.5303167878366511 -0.05998441816147214
0.19446198562722236 0.6506332611284857 -0.05998441816147214
-0.3202043221982083 0.4043358768752503 -0.05998441816147214
-0.009955368491458028 0.6175259521500458 -0.05998441816147214
0.16479696428191248 -0.41499674392122105 -0.0596435976037365
0.5500605227462765 0.5097175933271093 -0.0596435976037365
-0.08437012906745692 0.6533598255903708 -0.0596435976037365
-0.37338596202727714 0.0338911962612317 -0.0596435976037365
-0.04207429785246438 -0.5676161896752393 -0.0596435976037365
0.38440809886444754 0.6264281851181007 -0.059098284711359465
-0.30994562341036563 0.4544910301516267 -0.059098284711359465
-0.35013518357855195 0.006237016206562103 -0.059098284711359465
0.6381762697432483 0.11739223290646277 -0.059098284711359465
0.5865215060128351 0.3570913311619362 -0.059098284711359465
0.18699119900165717 -0.4487447955482038 -0.059098284711359465
-0.333025991580223 0.3850795153631867 -0.058621135930529575
-0.10847977532167592 0.5775272514941915 -0.058621135930529575
0.322440105056954 0.5962519329361875 -0.058621135930529575
-0.13266440209859673 0.5426476756155265 -0.058621135930529575
-0.27214862355748354 -0.1838726908983762 -0.058621135930529575
-0.3891659538504371 -0.3000447862081454 -0.058621135930529575
0.06794939459575389 -0.6858400247425771 -0.058621135930529575
0.5971960058811152 -0.06755745095435797 -0.058621135930529575
0.19984013402829073 -0.5171133994299726 -0.058621135930529575
0.22824411930997873 0.6892686795533974 -0.058280315372793955
0.10595770319443218 -0.3857338908340393 -0.058280315372793955
0.38440809886444754 -0.4359163097550345 -0.05773500248041692
0.5613893980854091 0.4917563499344411 -0.05773500248041692
0.3960505291166969 0.5954612292422408 -0.05773500248041692
-0.11256962201450353 0.6427330406001736 -0.05773500248041692
-0.3592896237593312 -0.06399928433159799 -0.05773500248041692
0.11070192535811224 -0.41801641406275886 -0.05773500248041692
-0.17858656404789644 -0.32507464796825064 -0.05725785369958703
-0.047152524162725404 -0.3835935377314595 -0.05725785369958703
0.15113687632786824 0.651335351477421 -0.05725785369958703
0.34995114047737463 0.582332821358264 -0.05725785369958703
-0.33860863231593274 0.3473097811549234 -0.05725785369958703
-0.10594407037212279 0.561665462737175 -0.05725785369958703
0.654385695469155 0.260877687713166 -0.05725785369958703
0.5790234537426511 -0.10009899780695661 -0.05725785369958703
0.0927815804323724 -0.3555235565963524 -0.05725785369958703
-0.07552242738863987 0.6407767305987709 -0.05691703314185139
0.5817841002603096 0.41208613635815866 -0.05691703314185139
-0.3582671620861243 0.321598278279347 -0.05637172024947438
0.16894134226397786 -0.34706439035335396 -0.05637172024947438
0.6380808399870822 0.027408789253099836 -0.05637172024947438
0.13415719614147878 0.6741021647341616 -0.05637172024947438
-0.17248587606442856 0.5760821723293925 -0.05637172024947438
0.5042406069642976 0.49787748715137314 -0.05637172024947438
0.33037440764103976 0.6731955820505848 -0.05589457146864449
-0.3032314584229736 0.4102525217575409 -0.05589457146864449
0.25291271127888415 0.6183234722551474 -0.05589457146864449
-0.1619136223634691 0.5187697873405677 -0.05589457146864449
0.6121716611880191 0.38858996710786387 -0.05589457146864449
0.2928909627012744 -0.2791865680747245 -0.05589457146864449
0.30126833201041625 -0.3813373056392496 -0.05589457146864449
-0.23438570576037496 -0.2046422956867859 -0.05589457146864449
-0.1742854086092727 -0.12253862332827095 -0.05589457146864449
0.046041449144507154 0.6898480745015481 -0.05555375091090885
0.6099835932073562 0.3405547177006032 -0.05555375091090885
-0.3522414546253582 0.33703063313361675 -0.05555375091090885
-0.2550803300260828 -0.22877239117446907 -0.055008438018531836
0.09293835788893087 -0.3462941358928714 -0.055008438018531836
0.4630490343563685 7.838872827919302E-4 -0.055008438018531836
0.16940485822249832 0.6826022294440885 -0.055008438018531836
0.4679159519208334 0.5366492337993793 -0.055008438018531836
0.25897250079542383 0.6472386883734387 -0.054531289237701945
0.23466517861771818 0.6508922847523647 -0.054531289237701945
-0.10475119842004808 0.5432952346752242 -0.054531289237701945
-0.3678578525808051 0.09772007031396183 -0.054531289237701945
0.4178494119894683 0.6340216671444507 -0.054531289237701945
0.5151127827560644 -0.1521831954401167 -0.054531289237701945
0.5128224686080809 -0.15946993896450462 -0.054531289237701945
0.09139103255681105 -0.4077917973306897 -0.054531289237701945
-0.23375859593414142 -0.21014995589979385 -0.054531289237701945
-0.3275660462452981 0.3933341892715439 -0.054190468679966304
0.4990533180755611 0.5097175933271093 -0.054190468679966304
0.38440809886444754 0.6148539189773985 -0.054190468679966304
0.5080305315663178 0.5255112179725786 -0.05364515578758929
-0.3766442065592298 0.17365489057746167 -0.05364515578758929
0.11920199006803903 -0.4419283843934911 -0.05364515578758929
0.4654688603162914 7.838872827919302E-4 -0.05364515578758929
0.22431786648486424 0.6453232768389644 -0.0531680070067594
0.3974887918703414 0.5728102949751305 -0.0531680070067594
0.3324193309874534 0.28894766884827305 -0.0531680070067594
-0.37327689944880177 -0.33809399327375195 -0.0531680070067594
-0.21547016480604708 -0.07540314019343242 -0.0531680070067594
0.28081228213512327 0.6848720943586079 -0.0531680070067594
0.6153072103191869 -0.019379056912848344 -0.0531680070067594
0.5280026162496262 -0.003905803591650451 -0.0531680070067594
0.1648855776269238 -0.45947382670572173 -0.0531680070067594
-0.34901047573802435 0.33729647316865047 -0.05282718644902376
0.48662018412936514 0.5266427422242609 -0.05282718644902376
-0.3335713044726 -0.026788495838021113 -0.05228187355664673
0.46139946285692807 -0.2354388412837781 -0.05228187355664673
0.3068646055684354 0.628984339301118 -0.05228187355664673
-0.09147282949066761 0.5895582171822595 -0.05228187355664673
