0.6268435508188416 0.5990372696336336 -0.11993155448431758
0.4077963713148653 0.6093725191954996 -0.11993155448431758
0.5611284274320425 0.5582973834620004 -0.11993155448431758
0.6204349204619997 0.4885489919534976 -0.1192528795599924
0.5697863803952192 0.6105553526350379 -0.1192528795599924
0.33494546586659013 0.5639109946217757 -0.1192528795599924
0.28674985088344207 0.5048371901373012 -0.1192528795599924
0.29748261004384136 0.07007803361460377 -0.1192528795599924
0.36291656810484857 -0.08333158535106788 -0.1192528795599924
0.29854909921063805 -0.02427717157871707 -0.1192528795599924
0.38010643440239866 -0.00888094615259778 -0.1192528795599924
0.2906279933081572 0.24551550155265767 -0.1192528795599924
0.601848922891552 0.3418291686704597 -0.1192528795599924
0.4385985175231657 0.5575702317573664 -0.1192528795599924
0.5166267431084356 0.5210963022529199 -0.1192528795599924
0.5959444510499233 -0.023908748048369156 -0.1192528795599924
0.30469595495381163 0.24543793870416328 -0.1192528795599924
0.5898363767309969 0.04152521001263803 -0.1192528795599924
0.3075366942799154 0.03701686944390657 -0.11876811175690301
0.5582004299013825 0.5975344894440564 -0.11876811175690301
0.3462405556785732 0.5710661673953753 -0.11876811175690301
0.5959153649817378 0.08582329185894744 -0.11799248327195996
0.5351933499667596 0.03474815612544824 -0.11799248327195996
0.39275887406303206 -0.09918349251209117 -0.11799248327195996
0.3220506423044121 0.08429142560118492 -0.11799248327195996
0.34262418786752624 0.596274093156024 -0.11799248327195996
0.2869146719364924 0.45613741663894014 -0.11799248327195996
0.3540453173083126 0.6349197824183109 -0.11799248327195996
0.5130782427898212 0.6058143235208235 -0.11799248327195996
0.5957020671483786 0.5455285995286255 -0.11799248327195996
0.6108849947411386 0.6554739372693015 -0.11799248327195996
0.6193393452270176 0.5054770836373793 -0.1173138083476348
0.6240900696972939 0.548068782816814 -0.1173138083476348
0.5906507866401869 0.6026924188689278 -0.1173138083476348
0.2843938793604275 0.5510743431959683 -0.1173138083476348
0.2843647932922421 0.4960047207650124 -0.1173138083476348
0.2797788898750164 0.4744907256639049 -0.1173138083476348
0.29619312768762346 0.017044435956623406 -0.1173138083476348
0.6117284907185141 0.14409238179029338 -0.1173138083476348
0.6117091000063903 0.26134801800155744 -0.1173138083476348
0.6186509749466307 0.13649122263785154 -0.1173138083476348
0.5809554305783988 -0.012361578978779621 -0.1173138083476348
0.41549448402792494 0.5328082923755598 -0.1173138083476348
0.5010947826974511 0.5474967568091685 -0.1173138083476348
0.6071910640815974 0.3419164268750158 -0.1173138083476348
0.6108559086729531 0.42761367910516007 -0.1173138083476348
0.29307122303572786 0.4096481843226668 -0.1173138083476348
0.5900108931401088 0.041282826111093414 -0.1173138083476348
0.6132312709080912 0.532759815595251 -0.11682904054454542
0.44790605934248223 0.6476885663516858 -0.11682904054454542
0.29248950167202054 0.673158266726003 -0.11682904054454542
0.6002685798534807 0.047633284331564565 -0.11682904054454542
0.619688378045242 0.12412964365907178 -0.11605341205960236
0.4729685547622042 -0.08012242249461601 -0.11605341205960236
0.35452038975534017 -0.09598402501170115 -0.11605341205960236
0.2869146719364924 0.12412964365907178 -0.11605341205960236
0.2741458880031177 0.40660384251926546 -0.11605341205960236
0.5517917995445406 0.6859949181518101 -0.11605341205960236
0.35264918603541506 0.6221509984849363 -0.11605341205960236
0.6276676560840936 0.3922934969720662 -0.11605341205960236
0.5550785252494869 0.6654213725886962 -0.11605341205960236
0.6132312709080912 0.510295675600088 -0.11605341205960236
0.2962416044679325 0.0481956149831482 -0.11537473713527721
0.2914424032173474 0.02067049912373207 -0.11537473713527721
0.4859797225971237 0.5921923482540113 -0.11537473713527721
0.47779684208097467 0.6119030071276262 -0.11537473713527721
0.5542350292721112 0.4480224036152237 -0.11537473713527721
0.43656249275019027 0.5115366811759968 -0.11537473713527721
0.5052831765161435 0.540380365459816 -0.11537473713527721
0.5946355779815817 0.2539310706142896 -0.11537473713527721
0.5999389377473797 0.33644824605616724 -0.11537473713527721
0.299237469491025 0.411606646247148 -0.11537473713527721
0.2995768069531875 0.19786282650896958 -0.11537473713527721
0.6094306913318703 0.026691315238102375 -0.11537473713527721
0.5598389450758248 0.11031376127102391 -0.11537473713527721
0.6017131879066872 0.5428817673237575 -0.11537473713527721
0.6031868820280788 0.6555321094056723 -0.11537473713527721
0.3202570014329813 0.6415804920327594 -0.11537473713527721
0.2864686855576501 0.503712528834134 -0.11537473713527721
0.6033129216568821 0.670773209134803 -0.1148899693321878
0.4228435639227602 0.6604573502850607 -0.1148899693321878
0.3075366942799154 0.048011403217974175 -0.1148899693321878
0.6289377477281878 0.5455285995286255 -0.11411434084724476
0.55959656117428 0.5455285995286255 -0.11411434084724476
0.46294355659431546 0.6539323756554773 -0.11411434084724476
0.2741458880031177 0.6476885663516858 -0.11411434084724476
0.3102320032650926 0.539469001990008 -0.11411434084724476
0.5969624634364109 0.07726229245638867 -0.11411434084724476
0.618922444916361 -0.04187424283086241 -0.11411434084724476
0.4077963713148653 -0.09073883738227387 -0.11411434084724476
0.29968345586986717 0.005070671220315226 -0.11411434084724476
0.30897160697706016 0.0548854106657819 -0.11411434084724476
0.6206288275832355 0.503983998803864 -0.11343566592291959
0.5679248720313559 0.5622821748033953 -0.11343566592291959
0.5782213401689749 0.6469711100031136 -0.11343566592291959
0.2901917022853767 0.5655010330159088 -0.11343566592291959
0.30595635124184406 0.49718755420455063 -0.11343566592291959
0.29631916731642677 0.10583450677047795 -0.11343566592291959
0.2995089394607551 0.02632289170775446 -0.11343566592291959
0.5947810083225087 0.14373365361600718 -0.11343566592291959
0.623770122947255 0.44399883084958175 -0.11343566592291959
0.6025372931719389 0.17195683511187207 -0.11343566592291959
0.58676294885941 -0.02086440624496779 -0.11343566592291959
0.40502349948119387 0.5657725029856391 -0.11343566592291959
0.38709678612294784 0.06635501688687717 -0.11343566592291959
0.3390950782610355 0.43727025374270073 -0.11343566592291959
0.5904859655871365 0.04317342054314201 -0.11343566592291959
0.6069874616042997 0.10419599159603567 -0.11343566592291959
0.39275887406303206 0.6349197824183109 -0.11295089811983021
0.5957020671483786 0.5163649684947674 -0.11295089811983021
0.614792223234039 0.05650453512810051 -0.11217526963488716
0.37812858176579395 -0.08986625533671291 -0.11217526963488716
0.29104489361881414 0.054100086824777044 -0.11217526963488716
0.3199855314632513 -0.05903502306022714 -0.11217526963488716
0.32257419153174866 0.5072222477285012 -0.11217526963488716
0.36769637864331 0.6349197824183109 -0.11217526963488716
0.49429833809813783 0.6461470047378616 -0.11217526963488716
0.6289668337963731 0.5084535579483483 -0.11217526963488716
0.28460717719378686 0.5607793946138181 -0.111496594710562
0.287302486178964 0.4844672470514847 -0.111496594710562
0.6194362987876356 0.5388969759823625 -0.111496594710562
0.6156454145674763 0.5618749698488001 -0.111496594710562
0.6100608894758865 0.016278502827742077 -0.111496594710562
0.2968524118998252 0.0816736794645022 -0.111496594710562
0.5899527210037381 0.03795731898190009 -0.111496594710562
0.6017519693309342 0.6092173934985111 -0.111496594710562
0.5215713746999475 0.059025327704165444 -0.111496594710562
0.372408321689339 -0.07035919894039545 -0.111496594710562
0.346250251034635 0.6691056078921755 -0.111496594710562
0.5638334317732814 -0.0658799444398495 -0.111496594710562
0.5747794887670399 0.6392148251536831 -0.111496594710562
0.36272266098361283 0.5746340584261133 -0.111496594710562
0.5207569647907573 0.5639497760460228 -0.111496594710562
0.30641203297674807 0.42550978683975194 -0.111496594710562
0.30209759952925247 0.020137254540333663 -0.111496594710562
0.32257419153174866 0.532759815595251 -0.11101182690747259
0.5481754317334938 0.6254765056141295 -0.11101182690747259
0.3462405556785732 0.5455285995286255 -0.11023619842252957
0.5946549686937054 0.511071304085031 -0.11023619842252957
0.4930282464540436 0.6476885663516858 -0.11023619842252957
0.6208130393484095 0.3140325828413134 -0.11023619842252957
0.620512483310494 0.02730212266999504 -0.11023619842252957
0.6139584226127255 -0.0390431988608203 -0.11023619842252957
0.2838412440649057 0.03474815612544824 -0.11023619842252957
0.27827610968543925 0.3795247130386915 -0.11023619842252957
0.36769637864331 0.6334945650772281 -0.11023619842252957
0.6130664498550409 0.1068040423766567 -0.10955752349820441
0.2981418942560429 0.07992851537338029 -0.10955752349820441
0.5885759804429642 0.04305707627040055 -0.10955752349820441
0.30622782121157416 -0.040497502270088415 -0.10955752349820441
0.2993441184077046 0.4061675514964848 -0.10955752349820441
0.6154127260219935 0.6209778604014599 -0.10955752349820441
0.38014521582664584 -0.008008364107036826 -0.10955752349820441
0.4832844136119467 0.6323214269937517 -0.10955752349820441
0.3675800343705685 -0.09244522004914858 -0.10955752349820441
0.59755388015618 0.6480279038138483 -0.10955752349820441
0.4314821261738133 0.6100608894758865 -0.10955752349820441
0.5336323976408117 0.5702711481983087 -0.10955752349820441
0.30525828560539525 0.42645023637774543 -0.10955752349820441
0.29659063728615687 0.10041480273193834 -0.10955752349820441
0.30431783606740187 0.49800196411374087 -0.10955752349820441
0.6188642727799902 0.4842927306423725 -0.10955752349820441
0.6035359148463032 0.5000379888867165 -0.10955752349820441
0.3088067859240097 0.513369103471675 -0.109072755695115
0.48801574737009923 0.6604573502850607 -0.109072755695115
0.6014320225808953 0.04142825645202024 -0.109072755695115
0.3462405556785732 0.5100048149182345 -0.10829712721017196
0.27699632268528335 0.5029659864173763 -0.10829712721017196
0.3118608230834729 0.0985920757923223 -0.10829712721017196
0.2894936366489281 0.005516657599157399 -0.10829712721017196
0.44790605934248223 -0.08018059463098674 -0.10829712721017196
0.5516463692036139 0.030385245897643607 -0.10829712721017196
0.5830884089119922 0.08457259092697675 -0.10829712721017196
0.6347646567213224 0.5358332434668376 -0.10829712721017196
0.41280887039880965 0.6604573502850607 -0.10829712721017196
0.5957020671483786 0.5368997326336343 -0.10829712721017196
0.6075982690361925 0.10109347765626357 -0.1076184522858468
0.6076758318846867 0.03321628986768572 -0.1076184522858468
0.621385065356055 0.1372765464788564 -0.1076184522858468
0.3079342038784489 0.0652885277200805 -0.1076184522858468
0.30274718838539216 0.6498506307534646 -0.1076184522858468
0.5270686415869812 0.07172624414510775 -0.1076184522858468
0.2935850769070026 0.3988378623137731 -0.1076184522858468
0.5575605364013045 0.5195935220633427 -0.1076184522858468
0.2950490756723325 0.4236579738319504 -0.1076184522858468
0.5310146515041291 0.07363622928927988 -0.1076184522858468
0.31792042062209036 0.04009029731549344 -0.1076184522858468
0.33422800951801784 0.6538935942312303 -0.1076184522858468
0.43161786115867834 0.6332521811756834 -0.1076184522858468
0.5689137983496583 0.657519657398339 -0.1076184522858468
0.3464150720876854 0.015464092918551855 -0.1076184522858468
0.29621251839974716 0.09970704173942789 -0.1076184522858468
0.3076918199769041 0.5002900681443228 -0.1076184522858468
0.5673431506676487 0.48095752815711745 -0.1076184522858468
0.6257285848717361 0.563251710409574 -0.1076184522858468
0.48954761362786176 0.6859949181518101 -0.10713368448275741
0.5806160931162363 -0.08018059463098674 -0.10713368448275741
0.33259918969963753 -0.04187424283086241 -0.10713368448275741
0.5130782427898212 0.6604573502850607 -0.10635805599781435
0.618922444916361 0.5941023333981836 -0.10635805599781435
0.5799180274797876 0.0468576558466214 -0.10635805599781435
0.6033129216568821 0.042814692368855926 -0.10635805599781435
0.4378810611745934 -0.09659483244359382 -0.10635805599781435
0.3075366942799154 0.03993517161850478 -0.10635805599781435
0.2852470706938649 0.3795247130386915 -0.10635805599781435
0.3877463749790877 0.6497827632610321 -0.10635805599781435
0.30452143854469943 0.08110165345685673 -0.10635805599781435
0.6091495260060785 0.10720155197518998 -0.1056793810734892
0.31429435745498174 0.04373575119472578 -0.1056793810734892
0.28620691094398193 0.5157638564189364 -0.1056793810734892
0.6022270417779619 0.4994756582351325 -0.1056793810734892
0.6064542170209015 0.3788363427583044 -0.1056793810734892
0.30502559705991233 0.3418000826022743 -0.1056793810734892
0.5514815481505634 0.5181683047222597 -0.1056793810734892
0.38031973223575805 0.07635092898658052 -0.1056793810734892
0.6109916436578182 0.39559961338913585 -0.1056793810734892
0.2878066446941769 0.5202721969876679 -0.1056793810734892
0.584659056594002 -0.012099804365111336 -0.1056793810734892
0.3628196145442306 0.5126613424791643 -0.1056793810734892
0.4307064976888703 0.6258546245005391 -0.1056793810734892
0.47480097705788216 0.6212299396590665 -0.1056793810734892
0.36663958483257514 0.14586663194960053 -0.1056793810734892
0.3506034659063778 0.11333871236230174 -0.1056793810734892
0.33656459032890873 0.467209513261502 -0.1056793810734892
0.5714539816378468 0.5719581401530597 -0.1056793810734892
0.327586690615693 -0.06712095001575837 -0.10519461327039979
0.57825042623716 -0.0670530825233258 -0.10519461327039979
0.4930282464540436 0.6604573502850607 -0.10519461327039979
0.55959656117428 0.5582973834620004 -0.10441898478545676
0.55959656117428 0.49445346379512634 -0.10441898478545676
0.5381407382095432 0.663734380633945 -0.10441898478545676
0.36268387955936565 0.6732261342184356 -0.10441898478545676
0.3423818039659816 0.48696864891542607 -0.10441898478545676
0.28706979763348106 0.059287102317833726 -0.10441898478545676
0.40278387223092077 -0.09900897610297898 -0.10441898478545676
0.618777014575434 0.00921058825869863 -0.10441898478545676
0.5799180274797876 0.046838265134497875 -0.10441898478545676
0.2854797592393478 0.5621076583942831 -0.1037403098611316
0.6188254913557428 0.47653644579294224 -0.1037403098611316
0.6038267755281569 0.11709081515821369 -0.1037403098611316
0.6038267755281569 0.023191291699797 -0.1037403098611316
0.602905716702287 0.4996986514245536 -0.1037403098611316
0.302892618726319 0.49971804213667725 -0.1037403098611316
0.5893516089279074 -0.013001472478857653 -0.1037403098611316
0.301845520271646 0.36317834271851684 -0.1037403098611316
0.5465369165590516 0.44730494726665126 -0.1037403098611316
0.30267932089295974 0.06870129305382977 -0.1037403098611316
0.5542544199842347 0.5996965538458353 -0.1037403098611316
0.2981903710363518 0.061672159909033526 -0.1037403098611316
0.6103323594456165 0.38910372482773803 -0.1037403098611316
0.3150505952278012 0.04314433447495664 -0.1037403098611316
0.3654373606809135 0.43744477015181293 -0.1037403098611316
0.47196023773177825 0.6307895607359894 -0.1037403098611316
0.480385502149472 0.627745218932588 -0.1037403098611316
0.349818142065373 0.022124802533000327 -0.1037403098611316
0.32257419153174866 -0.07494510235762117 -0.1032555420580422
0.5832629253211044 -0.07614732650928296 -0.1032555420580422
0.45793105751037094 0.6859949181518101 -0.1032555420580422
0.6144334950597529 0.5426199927100893 -0.10247991357309916
0.3103289568257105 0.08254626151006315 -0.10247991357309916
0.28891191528522076 0.08254626151006315 -0.10247991357309916
0.29385654687673257 0.48651296718052206 -0.10247991357309916
0.3564400702555742 0.6799547113253163 -0.10247991357309916
0.5481657363774319 0.6859949181518101 -0.10247991357309916
0.5611284274320425 0.48014311824792727 -0.10247991357309916
0.6187673192193721 0.06028572399219784 -0.10247991357309916
0.6061536609829861 -0.08018059463098674 -0.10247991357309916
0.3006336007639225 0.023792403775627836 -0.101801238648774
0.2960961741270057 0.045141577823685 -0.101801238648774
0.5998322888307002 0.4935421003253183 -0.101801238648774
0.30291200943844265 0.3779346746445582 -0.101801238648774
0.5310049561480672 0.06749906890216811 -0.101801238648774
0.30280536052176293 0.6703369181120227 -0.101801238648774
0.5841452027227272 -0.057173514696363774 -0.101801238648774
0.4298436109993712 0.6421137366161578 -0.101801238648774
0.3397252764050517 -0.07092152959197923 -0.101801238648774
0.554748883143386 0.5306656186859047 -0.101801238648774
0.5883723779656669 0.04093379329286903 -0.101801238648774
0.48318746005132873 0.633921160743947 -0.101801238648774
0.362848700612416 -0.06594781193228193 -0.101801238648774
0.3315714819570879 0.6641706716567253 -0.101801238648774
0.5594802169015386 0.018120620479481774 -0.101801238648774
0.5898460720870585 0.09351170921594538 -0.101801238648774
0.6207257811438532 0.562611816909496 -0.101801238648774
0.28164039823887976 0.577339062767352 -0.101801238648774
0.4869298674911789 0.6807982073026917 -0.1013164708456846
0.3102320032650926 0.5534884868553535 -0.10054084236074157
0.6315554938648706 0.4305998487721907 -0.10054084236074157
0.5431532372934875 0.6732358295744971 -0.10054084236074157
0.2710724601315308 0.5613708113335872 -0.10054084236074157
0.2869146719364924 0.36974209877234737 -0.10054084236074157
0.30901038840130723 -0.07107665528896774 -0.10054084236074157
0.6316912288497355 0.12412964365907178 -0.10054084236074157
0.3705468133254758 0.08137312342658672 -0.10054084236074157
0.6103420548016784 0.03215949605695088 -0.0998621674364164
0.31484699275050365 0.043241288035574574 -0.0998621674364164
0.6225194220152841 0.5388194131338685 -0.0998621674364164
0.47380235538351795 0.6463312165030356 -0.0998621674364164
0.37742082077328337 -0.01441699446387871 -0.0998621674364164
0.5506671382413731 0.6003849241262222 -0.0998621674364164
0.304860776006862 0.2855864081560274 -0.0998621674364164
0.552228090567321 0.44623845809985474 -0.0998621674364164
0.35528632288422146 0.6559005329360204 -0.0998621674364164
0.5663348336372226 -0.08177063302512 -0.0998621674364164
0.30527767631751895 0.49838008300015046 -0.0998621674364164
0.587945782298948 0.04023572765642027 -0.0998621674364164
0.5572308942952038 0.6431511397147691 -0.0998621674364164
0.32404788565314047 -0.061041961765017194 -0.0998621674364164
0.4405860655158322 -0.07885233085052179 -0.0998621674364164
0.30251449983990925 0.6455458926620306 -0.0998621674364164
0.29659063728615687 0.03237279389031013 -0.0998621674364164
0.2961737369754999 0.09984277672429287 -0.0998621674364164
0.28639112270915584 0.48123869348290926 -0.0998621674364164
0.5714733723499702 0.5687586726526698 -0.0998621674364164
0.41280887039880965 0.6859949181518101 -0.099377399633327
0.3705468133254758 0.11136085972569705 -0.09860177114838396
0.5969624634364109 0.08582329185894744 -0.09860177114838396
0.5006100148943617 -0.10203392719425695 -0.09860177114838396
0.2927900577099359 0.3156807933718174 -0.09860177114838396
0.2613771040697428 0.5582973834620004 -0.09860177114838396
0.43045441843126386 0.6859949181518101 -0.09860177114838396
0.5957020671483786 0.5426199927100893 -0.09860177114838396
0.6316912288497355 0.4178310648388158 -0.09860177114838396
0.299140515930407 0.03116087438258663 -0.0979230962240588
0.6075304015437599 0.042068149952098136 -0.0979230962240588
0.6198241130301071 0.5085214254407809 -0.0979230962240588
0.29485516855109684 0.5194577870784777 -0.0979230962240588
0.5256725103140838 0.0689339815993127 -0.0979230962240588
0.3498375327774965 0.6713937119227574 -0.0979230962240588
0.5254204310564773 0.053896484347479484 -0.0979230962240588
0.427380990559677 0.6565695125042835 -0.0979230962240588
0.3613556157789007 -0.09091335379138606 -0.0979230962240588
0.5459939766195914 0.6630654010656817 -0.0979230962240588
0.31759077851598966 0.042882559861288354 -0.0979230962240588
0.4175402041569622 0.6524586815340854 -0.0979230962240588
0.5666935618115088 0.6643451880658374 -0.0979230962240588
0.35769077118754483 -0.06296164226525129 -0.0979230962240588
0.54495657352098 -0.07924014509299337 -0.0979230962240588
0.3517281272095452 -0.0672663803566852 -0.0979230962240588
0.6072880176422152 0.025382442169761082 -0.0979230962240588
0.6190097031209169 0.5680703023722828 -0.0979230962240588
0.285014382148382 0.4903426328249284 -0.0979230962240588
0.2741458880031177 0.5072222477285012 -0.0974383284209694
0.62884079416757 0.5455285995286255 -0.0974383284209694
0.6306829118193097 0.6093725191954996 -0.09666269993602634
0.6097312473697858 0.2645959622822565 -0.09666269993602634
0.5516463692036139 0.029735657041503875 -0.09666269993602634
0.4278560630067047 -0.10571816249773636 -0.09666269993602634
0.28891191528522076 0.10159763617147648 -0.09666269993602634
0.2708591622981714 0.5455285995286255 -0.09666269993602634
0.27526085395022326 0.5199910316618761 -0.09666269993602634
0.3705468133254758 0.049281494862068405 -0.09666269993602634
0.2978025567938804 0.09328871602652417 -0.0959840250117012
0.4460445509786189 0.6565792078603454 -0.0959840250117012
0.5554081673555875 0.6059985352859972 -0.0959840250117012
0.3068095425752815 0.06370818468200895 -0.0959840250117012
0.6142298925824554 0.5153178700400942 -0.0959840250117012
0.3069258868480228 0.24568032260570805 -0.0959840250117012
0.6171481947570535 0.5115754626002441 -0.0959840250117012
0.2773065740792605 0.4492246277668854 -0.0959840250117012
0.6026633328007422 0.2456706272496462 -0.0959840250117012
0.2981709803242283 0.09595493894351592 -0.0959840250117012
0.2994701580365079 0.02489767436667157 -0.0959840250117012
0.6072783222861533 0.025537567866749603 -0.0959840250117012
0.38697074649414454 -0.006350458220471153 -0.0959840250117012
0.5180422650934566 -0.08412660454813443 -0.0959840250117012
0.5793944782524509 -0.04008060195943161 -0.0959840250117012
0.5347085821636702 -0.07639940576688942 -0.0959840250117012
0.3548985086417499 0.6529337539811131 -0.0959840250117012
0.2887373988761086 0.4801043368236802 -0.0959840250117012
0.6255831545308091 0.5656270726447121 -0.0959840250117012
0.5080657437058768 -0.10571816249773636 -0.0954992572086118
0.3705468133254758 0.049698395172725354 -0.09472362872366875
0.55959656117428 0.5377141425428246 -0.09472362872366875
0.618360114264777 0.3922934969720662 -0.09472362872366875
0.6170221551282502 0.09170837298845275 -0.09472362872366875
0.5006100148943617 -0.10203392719425695 -0.09472362872366875
0.29670698155889835 0.25182717834888163 -0.09472362872366875
0.29811280818785757 0.5391781413081543 -0.09472362872366875
0.6074722294073892 0.09152416122327872 -0.09404495379934359
0.3160395215461036 0.04596568308893692 -0.09404495379934359
0.6219183099394534 0.546430267642372 -0.09404495379934359
0.5462945326575068 0.5123026143048781 -0.09404495379934359
0.3841687885922879 0.055738601999219324 -0.09404495379934359
0.6192617823785235 0.6151315606962017 -0.09404495379934359
0.37111883933312123 -0.08559060331346452 -0.09404495379934359
0.4737441832471472 0.6486677973139263 -0.09404495379934359
0.3040657568097954 -0.053033597657980366 -0.09404495379934359
0.29653246514978615 0.10682343308878023 -0.09404495379934359
0.2994798533925697 0.025198230404587057 -0.09404495379934359
0.6081993811120232 0.02514975362427816 -0.09404495379934359
0.3059757419539676 0.42079784379372304 -0.09404495379934359
0.38996661151723716 0.6521775162082936 -0.09404495379934359
0.6022464324900852 0.4307549744691792 -0.09404495379934359
0.2901917022853767 0.564725404530966 -0.09404495379934359
0.27952681061740997 0.47492701668668547 -0.09404495379934359
0.6190000077648551 0.5558832398026152 -0.09404495379934359
0.2963385580285503 -0.05464302676423714 -0.0935601859962542
0.6294903830237096 0.5143095530096682 -0.09278455751131116
0.6233726133487214 0.40506228090544094 -0.09278455751131116
0.6198144176740453 0.06715003608394372 -0.09278455751131116
0.46448511820813965 -0.10441898478545676 -0.09278455751131116
0.35662428202074814 0.11136085972569705 -0.09278455751131116
0.2869146719364924 0.341218361238567 -0.09278455751131116
0.44289356025853777 0.682019822166477 -0.09278455751131116
0.6078891297180461 0.07515840019098069 -0.092105882586986
0.2981225035439194 0.03194619822359149 -0.092105882586986
0.6023046046264561 0.49988286318972763 -0.092105882586986
0.5998322888307002 0.4934257560525769 -0.092105882586986
0.3595619749074699 0.5305395790571014 -0.092105882586986
0.5974084498152531 0.28592574561819 -0.092105882586986
0.29759895431658284 0.3626935749154275 -0.092105882586986
0.554564671378212 0.4460251602664952 -0.092105882586986
0.2953787177784334 0.3757144381064088 -0.092105882586986
0.6065608659375812 0.07104756922078252 -0.092105882586986
0.2816500935949415 0.5774457116840317 -0.092105882586986
0.29052134439147753 0.4796777411569614 -0.092105882586986
0.29710449115743165 0.10100621945170749 -0.092105882586986
0.29715296793774054 0.02539213752582278 -0.092105882586986
0.6054265092783518 0.02491706507879524 -0.092105882586986
0.4404406351749054 -0.08693825780605301 -0.092105882586986
0.3492073346334803 0.664558485899197 -0.092105882586986
0.38497350314541634 0.06423173390934551 -0.092105882586986
0.44135199864471353 -0.10571816249773636 -0.09162111478389659
0.47049623896644827 0.6796929367116481 -0.09162111478389659
0.3705468133254758 0.04751694005882311 -0.09084548629895356
0.27592013816242483 0.3795247130386915 -0.09084548629895356
0.4679560556782598 0.6859949181518101 -0.09084548629895356
0.6064639123769631 0.4875503702791334 -0.09084548629895356
0.6319723941755273 0.46891589592837685 -0.09084548629895356
0.6171191086888683 0.03146143042050212 -0.09084548629895356
0.4368630487881056 -0.10433172658090066 -0.09084548629895356
0.6080539507710965 0.06063475681042222 -0.0901668113746284
0.28599361311062255 0.48801574737009923 -0.0901668113746284
0.598242250436567 0.500193114583705 -0.0901668113746284
0.6182728560602211 0.4812677795510948 -0.0901668113746284
0.30264053946871255 0.4261012035595211 -0.0901668113746284
0.5459745859074678 0.5112942972744521 -0.0901668113746284
0.2957277505966578 -0.008745211167732789 -0.0901668113746284
0.4669671293599574 0.6541553688448984 -0.0901668113746284
0.2913163635885441 -0.005090061932438619 -0.0901668113746284
0.5713667234332906 0.5719775308651833 -0.0901668113746284
0.28599361311062255 0.48129686561928003 -0.0901668113746284
0.29693967010438127 0.09452972160243303 -0.0901668113746284
0.6070165476724851 0.021058313366203514 -0.0901668113746284
0.31400349677312805 -0.05226766452909904 -0.0901668113746284
0.3058497023251644 0.4244336023168936 -0.0901668113746284
0.4165221917704744 0.6626969775353336 -0.0901668113746284
0.362121548907782 0.5277764025794918 -0.0901668113746284
0.44009160235668116 0.682019822166477 -0.089682043571539
0.29968345586986717 0.4876473238397512 -0.08890641508659596
0.2742040601394883 0.5285423357083732 -0.08890641508659596
0.2741458880031177 0.04751694005882311 -0.08890641508659596
0.427380990559677 -0.11848694643111109 -0.08890641508659596
0.6013156783081539 0.08582329185894744 -0.08890641508659596
0.5611284274320425 0.48168467986175173 -0.08890641508659596
0.5995414281488465 0.6859949181518101 -0.08890641508659596
0.6079957786347258 0.022115107176938494 -0.08822774016227079
0.6142395879385173 0.11608249812778776 -0.08822774016227079
0.6200471062195282 0.5305492744131632 -0.08822774016227079
0.600064977376183 0.4992720557578351 -0.08822774016227079
0.3578943736648424 0.6002588844974189 -0.08822774016227079
0.6074140572710185 0.3811826189252572 -0.08822774016227079
0.30695497291620816 0.2319226123540309 -0.08822774016227079
0.5535854404159714 0.5944998429967169 -0.08822774016227079
0.4757802080201228 -0.09664330922390271 -0.08822774016227079
0.6242064139700353 0.5771160695779309 -0.08822774016227079
0.2858578781257576 0.46706408292057533 -0.08822774016227079
0.5961674442393444 -0.014940543691215282 -0.08822774016227079
0.32902160331283775 -0.06391178715930651 -0.08822774016227079
0.2961058694830674 0.016259112115618545 -0.08822774016227079
0.2982582385287844 0.031538993268996375 -0.08822774016227079
0.46074271076828954 -0.10340097239896898 -0.0877429723591814
0.2927027995053798 0.5051959183115875 -0.0877429723591814
0.3705468133254758 0.05651423048416235 -0.08696734387423834
0.2972402261422966 0.17521447474863283 -0.08696734387423834
0.2869146719364924 0.5838349513287502 -0.08696734387423834
0.5918239247236633 0.5029756817734382 -0.08696734387423834
0.6349779545546816 0.532759815595251 -0.08696734387423834
0.5959153649817378 0.09489814513278108 -0.08696734387423834
0.5799180274797876 0.04659588123295312 -0.08696734387423834
0.3506034659063778 0.11114756189233765 -0.0862886689499132
0.29860727134700876 0.028213486139803193 -0.0862886689499132
0.28532463354235915 0.5541768571357404 -0.0862886689499132
0.6195720337725005 0.48863625015805356 -0.0862886689499132
0.5493388744609082 0.6011993340354125 -0.0862886689499132
0.6019264857400464 -0.011217526963488685 -0.0862886689499132
0.29798676855905426 0.3901702139945347 -0.0862886689499132
0.6187576238633103 0.5166461338205592 -0.0862886689499132
0.29450613573287243 -0.022250842161803484 -0.0862886689499132
0.618505544605704 0.5520050973778999 -0.0862886689499132
0.28987175553533784 0.48069575354344934 -0.0862886689499132
0.5393332670051431 -0.07906562868388117 -0.0862886689499132
0.38071724183429134 -0.01261365823638621 -0.0862886689499132
0.564124292455135 0.6063475681042216 -0.0862886689499132
0.4174917273766533 -0.07305450792557257 -0.0862886689499132
0.6076952225968103 0.07227887944062955 -0.0862886689499132
0.2874770025880762 0.0018808990759868979 -0.08580390114682379
0.6170221551282502 0.06028572399219784 -0.08502827266188075
0.583786474548441 0.09409343057965255 -0.08502827266188075
0.6289377477281878 0.5455285995286255 -0.08502827266188075
0.55959656117428 0.48168467986175173 -0.08502827266188075
0.2613771040697428 0.5199910316618761 -0.08502827266188075
0.2741458880031177 0.0219793721920735 -0.08502827266188075
0.3259190893730655 0.039052894216882135 -0.08502827266188075
0.6090234863772752 0.058763553090497155 -0.08434959773755558
0.3090491698255544 0.5001543331594579 -0.08434959773755558
0.6195429477043153 0.5217652818211832 -0.08434959773755558
0.6216371446136613 0.47228018448181736 -0.08434959773755558
0.302436936991415 -0.0231137288513026 -0.08434959773755558
0.35601347458885546 0.5934139631177967 -0.08434959773755558
0.6068032498391259 0.425364356498825 -0.08434959773755558
0.5537890428932689 -0.08319585036620275 -0.08434959773755558
0.28662381125463876 0.4872498142412179 -0.08434959773755558
0.4625169609275967 0.6307410839556804 -0.08434959773755558
0.5186142911011021 0.05268456483975598 -0.08434959773755558
0.2942249704070806 0.4360583342349772 -0.08434959773755558
0.2965712465740332 0.039586138800280404 -0.08434959773755558
0.29289670662661565 0.10385665413387313 -0.08434959773755558
0.6316912288497355 0.6221413031288745 -0.08308920144952316
0.6077243086649958 0.5419800992100112 -0.08308920144952316
0.6033420077250673 0.08214875191152975 -0.08308920144952316
0.5481754317334938 0.07203649553908494 -0.08308920144952316
0.30452143854469943 0.05999486331034419 -0.08308920144952316
0.2869146719364924 0.29013353014900595 -0.08308920144952316
0.3462405556785732 0.532759815595251 -0.08308920144952316
0.30095354751396136 0.10343975382321631 -0.082410526525198
0.3016710038625338 0.1307709625613966 -0.082410526525198
0.35986253094538534 0.592754678905595 -0.082410526525198
0.5498236422639977 0.4526955652370055 -0.082410526525198
0.6026245513764952 0.23193230771009257 -0.082410526525198
0.5050310972585371 -0.0334877598374157 -0.082410526525198
0.3826853991148343 -0.06853647200077942 -0.082410526525198
0.4760807640580381 -0.06673313577328678 -0.082410526525198
0.2991502112864689 0.39252618551754914 -0.082410526525198
0.6085871953544949 0.09118482376111618 -0.082410526525198
0.6263103062354431 0.4754408705579602 -0.082410526525198
0.621840747090959 0.5678085277586143 -0.082410526525198
0.3044632664083287 0.4970615145757474 -0.082410526525198
0.6170221551282502 0.0730545079255727 -0.08192575872210858
0.618922444916361 0.5838349513287502 -0.08115013023716554
0.5634553128868716 0.5547488831433861 -0.08115013023716554
0.599386302451858 0.03722047192120413 -0.08115013023716554
0.4784561262931762 -0.10417660088391201 -0.08115013023716554
0.29248950167202054 0.051336910347167496 -0.08115013023716554
0.3462405556785732 0.48168467986175173 -0.08115013023716554
0.2768993691246654 0.5483693388547295 -0.08115013023716554
0.3254149308578526 0.10272229747464388 -0.0804714553128404
0.38413000716804074 -3.3933746216254705E-4 -0.0804714553128404
0.3590675117483187 0.4491858463426383 -0.0804714553128404
0.5498527283321831 0.5926286392767917 -0.0804714553128404
0.6030317563310903 0.2456706272496462 -0.0804714553128404
0.42928128034778745 0.6424724647904437 -0.0804714553128404
0.6017616646869961 0.42993086920392715 -0.0804714553128404
0.37364932726524785 -0.06520126951552427 -0.0804714553128404
0.5604012757274084 -0.06097409427258477 -0.0804714553128404
0.6085387185741857 0.060140293651271014 -0.0804714553128404
0.616993069060065 0.5608084806820036 -0.0804714553128404
0.5717545376757622 0.47828160988406415 -0.0804714553128404
0.3041724057264751 0.5452377388467718 -0.0804714553128404
0.6170221551282502 0.0730545079255727 -0.07998668750975099
0.6323214269937517 0.48681352321843757 -0.07921105902480795
0.55959656117428 0.5175284112221817 -0.07921105902480795
0.6092270888545729 0.1496769068818832 -0.07921105902480795
0.583786474548441 0.0730545079255727 -0.07921105902480795
0.31001870543173315 0.06357244969714396 -0.07921105902480795
0.2741458880031177 0.4255776543321845 -0.07921105902480795
0.2927027995053798 0.529317964193316 -0.07921105902480795
0.6091980027863875 0.08681221817724985 -0.07853238410048279
0.5628445054549789 0.022541702843657134 -0.07853238410048279
0.5630578032883383 -0.06460015743969344 -0.07853238410048279
0.4529185584264266 -0.10940239780121574 -0.07853238410048279
0.32767394882024914 -0.06689795682633715 -0.07853238410048279
0.3035034261582117 0.1311781675159917 -0.07853238410048279
0.5989500114290777 0.4234058945743438 -0.07853238410048279
0.3550245482705532 -0.06532730914432756 -0.07853238410048279
0.5608084806820035 -0.05826908993134581 -0.07853238410048279
0.29831641066515513 0.031800767882664664 -0.07853238410048279
0.32544401692603797 0.10151037796692038 -0.07853238410048279
0.2845296143452926 0.47978439007364104 -0.07853238410048279
0.6156454145674763 0.4834880160892441 -0.07853238410048279
0.2874770025880762 0.04751694005882311 -0.0780476162973934
0.2613771040697428 0.5455285995286255 -0.07727198781245036
0.2741458880031177 0.532759815595251 -0.07727198781245036
0.2741458880031177 0.0219793721920735 -0.07727198781245036
0.5351933499667596 0.1129024213395214 -0.07727198781245036
0.6316912288497355 0.0985920757923223 -0.07727198781245036
0.5611284274320425 0.4725613498076092 -0.07727198781245036
0.6316912288497355 0.5838349513287502 -0.07727198781245036
0.2973662657710999 0.09789401015587355 -0.0765933128881252
0.3313775748358522 0.03144203970837858 -0.0765933128881252
0.2887858756564175 0.6111855507790541 -0.0765933128881252
0.5504344496958904 0.4510958314868106 -0.0765933128881252
0.5296088248751697 0.12869615636417397 -0.0765933128881252
0.3098829704468682 0.352106246095955 -0.0765933128881252
0.45239500919909004 -0.09473332407973059 -0.0765933128881252
0.4920877969160502 -0.05217071096848125 -0.0765933128881252
0.309252772302852 0.31467247634139145 -0.0765933128881252
0.608810188543916 0.03294481989795574 -0.0765933128881252
0.6200277155074045 0.4970421238636237 -0.0765933128881252
0.6188157959996811 0.5666256943190764 -0.0765933128881252
0.2797788898750164 0.4740059578608156 -0.0765933128881252
0.2768993691246654 0.5448984013846093 -0.07610854508503578
0.6133476151808327 0.2645959622822565 -0.07610854508503578
0.29334269300545784 0.5455285995286255 -0.07533291660009275
0.29567927381634873 0.2645959622822565 -0.07533291660009275
0.35662428202074814 0.09309480890528844 -0.07533291660009275
0.620512483310494 0.03320659451162388 -0.07533291660009275
0.6444600127831104 0.46891589592837685 -0.07533291660009275
0.6316912288497355 0.6221413031288745 -0.07533291660009275
0.6065317798693957 0.04193241496723314 -0.07465424167576758
0.3111821481591478 0.13603554090294753 -0.07465424167576758
0.3598334448772 0.45335484944920695 -0.07465424167576758
0.5499205958246155 0.5910870776629675 -0.07465424167576758
0.529686387723664 0.002142673689655184 -0.07465424167576758
0.5786867172599407 0.65974958929255 -0.07465424167576758
0.4433492419934419 -0.08435929309361735 -0.07465424167576758
0.5412238614371918 -0.05120117536230236 -0.07465424167576758
0.2983939735136494 0.40167860163987706 -0.07465424167576758
0.3506034659063778 0.026284110283507262 -0.07465424167576758
0.3345285655559333 0.5622336980230864 -0.07465424167576758
0.28103928616304896 0.48667778823357244 -0.07465424167576758
0.6017131879066872 0.5358429388228994 -0.07465424167576758
0.628385112432666 0.5199910316618761 -0.0741694738726782
0.29306152767966603 0.5041488198569143 -0.07339384538773515
0.2755614099881386 0.46891589592837685 -0.07339384538773515
0.31602013083397995 0.08673465532875546 -0.07339384538773515
0.5493194837487847 0.11136085972569705 -0.07339384538773515
0.6316912288497355 0.4301441670372867 -0.07339384538773515
0.6323214269937517 0.5582973834620004 -0.07339384538773515
0.29580531344515204 0.07715564353970891 -0.07271517046340999
0.28432601186799505 0.1274066740079562 -0.07271517046340999
0.28969723912622564 0.5988724485805832 -0.07271517046340999
0.5509483035671652 0.5927837649737803 -0.07271517046340999
0.6036522591190446 0.12732911115946194 -0.07271517046340999
0.529686387723664 -0.007833847697924636 -0.07271517046340999
0.4172396481190467 -0.05279121375643561 -0.07271517046340999
0.4648632370945494 -0.052616697347323424 -0.07271517046340999
0.6071038058770412 0.05745468002215572 -0.07271517046340999
0.6069583755361144 0.07596311474410908 -0.07271517046340999
0.6194072127194502 0.5177320136994794 -0.07271517046340999
0.28303652951177716 0.5027526885840171 -0.07271517046340999
0.2859645270424372 0.559548084393971 -0.07271517046340999
0.27699632268528335 0.5142416855172356 -0.07223040266032059
0.5392266180884634 0.08582329185894744 -0.07145477417537754
0.6171191086888683 0.06998108005398584 -0.07145477417537754
0.55959656117428 0.46891589592837685 -0.07145477417537754
0.48299355293009305 0.6859949181518101 -0.07145477417537754
0.2613771040697428 0.532759815595251 -0.07145477417537754
0.28853379639881105 0.13689842759244664 -0.07145477417537754
0.3666104987643898 0.04597537844499876 -0.07145477417537754
0.2921307734977343 0.03462211649664494 -0.0707760992510524
0.4721444494969523 -0.09513083367826386 -0.0707760992510524
0.5510549524838447 0.4466553584105117 -0.0707760992510524
0.6252438170686466 0.44954457451692426 -0.0707760992510524
0.6022464324900852 0.1719762258239956 -0.0707760992510524
0.6002007123610482 -0.010907275569511503 -0.0707760992510524
0.5074549362739841 0.658382544087838 -0.0707760992510524
0.31483729739444183 0.1384496845623327 -0.0707760992510524
0.3688210399464774 -0.04331885088406869 -0.0707760992510524
0.6038461662402805 0.03695869730753584 -0.0707760992510524
0.6225582034395314 0.5657046354932065 -0.0707760992510524
0.283366171617878 0.5055449511298119 -0.0707760992510524
0.2854215871029771 0.5490092323548075 -0.0707760992510524
0.6316912288497355 0.6115636696654637 -0.07029133144796298
0.3827338758951432 0.6821943385755893 -0.07029133144796298
0.3447086894208107 0.5582973834620004 -0.06951570296301995
0.2741458880031177 0.12412964365907178 -0.06951570296301995
0.3196849754253358 0.053305067627710485 -0.06951570296301995
0.5999486331034416 0.08341884355562397 -0.06951570296301995
0.618922444916361 0.341218361238567 -0.06951570296301995
0.618922444916361 0.6571706245801145 -0.06951570296301995
0.29523328743750654 0.09978460458792214 -0.06883702803869478
0.2842969257998097 0.12558394706834003 -0.06883702803869478
0.46499897207941443 -0.07636062434264222 -0.06883702803869478
0.37561748454579086 0.13321419228896725 -0.06883702803869478
0.29738565648322346 0.3626160120669332 -0.06883702803869478
0.2802151808977969 0.607336494422524 -0.06883702803869478
0.6111079879305596 0.4321123243178297 -0.06883702803869478
0.30545219272663116 0.4341289583786816 -0.06883702803869478
0.34420453090559777 -0.04194211032329484 -0.06883702803869478
0.31551597231876705 0.28515011713324695 -0.06883702803869478
0.4474988543878871 0.6627357589595807 -0.06883702803869478
0.605290774293487 0.09161141942783482 -0.06883702803869478
0.6083351160968883 0.042436573482446185 -0.06883702803869478
0.6170318504843121 0.4907304470673999 -0.06883702803869478
0.3344219166392537 0.5578126156589109 -0.06883702803869478
0.5493097883927228 0.04580086203588656 -0.0683522602356054
0.5351933499667596 0.11136085972569705 -0.06757663175066235
0.6316912288497355 0.04751694005882311 -0.06757663175066235
0.6323214269937517 0.48014311824792727 -0.06757663175066235
0.3349163797984048 0.5424551716570389 -0.06757663175066235
0.2741458880031177 0.1624456908152581 -0.06757663175066235
0.3235534224939892 0.06998108005398584 -0.06757663175066235
0.29742443790747064 0.08599780826805964 -0.06689795682633719
0.4406054562279559 -0.07710716675940002 -0.06689795682633719
0.31098824103791206 0.23199047984646332 -0.06689795682633719
0.28034122052660015 0.45093101043375994 -0.06689795682633719
0.6081315136195906 0.6726638035668516 -0.06689795682633719
0.288398061413946 0.4441248704783848 -0.06689795682633719
0.6073461897785859 0.43508879862879846 -0.06689795682633719
0.5654234701674146 -0.039014112792634933 -0.06689795682633719
0.3518056900580395 -0.004779810538461437 -0.06689795682633719
0.5430175023086226 0.4776417163839861 -0.06689795682633719
0.5633195779020066 0.029502968496020954 -0.06689795682633719
0.6204833972423085 0.4943177288102615 -0.06689795682633719
0.6017131879066872 0.523781915882035 -0.06689795682633719
0.28432601186799505 0.5364246601866066 -0.06689795682633719
0.5611284274320425 0.49786622912887574 -0.06641318902324779
0.28716675119409885 0.08140220949477209 -0.06641318902324779
0.5582004299013825 0.0730545079255727 -0.06641318902324779
0.6316912288497355 0.04751694005882311 -0.06563756053830475
0.5621270491064067 0.5012692991065634 -0.06563756053830475
0.55959656117428 0.5615841091669466 -0.06563756053830475
0.33259918969963753 0.532759815595251 -0.06563756053830475
0.2922568131265376 0.3156807933718174 -0.06563756053830475
0.3705468133254758 0.04751694005882311 -0.06563756053830475
0.5746049723579277 0.48678443715025205 -0.06495888561397958
0.2865850298303916 0.50352831706896 -0.06495888561397958
0.290182006929315 0.5608860435304978 -0.06495888561397958
0.29658094193009504 0.047681761111873465 -0.06495888561397958
0.42988239242361825 -0.05879263915868238 -0.06495888561397958
0.35042894949726566 0.5952269947013509 -0.06495888561397958
0.5499205958246155 0.5868308163518426 -0.06495888561397958
0.6072395408619062 0.3138774571443249 -0.06495888561397958
0.6129501055822993 0.4232022920970464 -0.06495888561397958
0.31270431906084845 0.40923128401200987 -0.06495888561397958
0.336370683207673 -0.03223705890544514 -0.06495888561397958
0.5249259678973262 0.1327585105540631 -0.06495888561397958
0.2980643314075487 0.620929383621151 -0.06495888561397958
0.6138323829839222 0.026701010594164208 -0.06495888561397958
0.55959656117428 0.49445346379512634 -0.06447411781089019
0.32257419153174866 0.532759815595251 -0.06447411781089019
0.2741458880031177 0.5024909139703486 -0.06369848932594716
0.3001391376047713 0.5104217152288913 -0.06369848932594716
0.28692436729255427 0.0219793721920735 -0.06369848932594716
0.6079085204301695 0.1624456908152581 -0.06369848932594716
0.6056979792480821 0.5104217152288913 -0.06369848932594716
0.45716512438148976 -0.10661013525542083 -0.06369848932594716
0.6204833972423085 0.5056128186222444 -0.06301981440162199
0.5674013228040194 0.48220822908908806 -0.06301981440162199
0.2901723115732532 0.49659613748478154 -0.06301981440162199
0.29904356236978924 0.09910592966359705 -0.06301981440162199
0.32475564664565104 0.44757641723638153 -0.06301981440162199
0.5246932793518433 0.12777509753830413 -0.06301981440162199
0.3633237730594437 -0.04852525708924891 -0.06301981440162199
0.3033289097490995 0.4462093720316692 -0.06301981440162199
0.6244003210912711 0.611689709294267 -0.06301981440162199
0.30425966393103115 -0.011867115819628415 -0.06301981440162199
0.3138677617882631 -0.02226053751786518 -0.06301981440162199
0.6105165712107905 0.6246717910610011 -0.06301981440162199
0.4141371341792746 0.65307918432204 -0.06301981440162199
0.4620128024123838 0.6494240350867458 -0.06301981440162199
0.44135199864471353 -0.08025815747948101 -0.06301981440162199
0.6019361810961082 0.08533852405585807 -0.06301981440162199
0.34262418786752624 0.5056128186222444 -0.06253504659853258
0.57825042623716 0.5072222477285012 -0.06253504659853258
0.29805463605148685 0.5230644595334629 -0.06175941811358954
0.3447086894208107 0.48168467986175173 -0.06175941811358954
0.5351933499667596 0.03474815612544824 -0.06175941811358954
0.6294322108873389 0.5232680620107604 -0.06175941811358954
0.5618458837806148 0.47315276652737803 -0.06175941811358954
0.6156841959917237 0.49609197896956864 -0.061080743189264396
0.2901723115732532 0.49609197896956864 -0.061080743189264396
0.2967845444073926 0.058181831726789854 -0.061080743189264396
0.42870925434014195 -0.09023467886706096 -0.061080743189264396
0.284238753663439 0.12115316934810298 -0.061080743189264396
0.29554353883148377 0.45043654727460886 -0.061080743189264396
0.6048835693388919 0.6702011831271576 -0.061080743189264396
0.602634246732557 0.2456609318935845 -0.061080743189264396
0.5661603172281106 -0.04423021435387685 -0.061080743189264396
0.3060726955145855 0.3482959711636723 -0.061080743189264396
0.5841064212984801 0.4249280654760446 -0.061080743189264396
0.603817080172095 -9.210588258698493E-4 -0.061080743189264396
0.35971710060445855 -0.027709327624590014 -0.061080743189264396
0.5553306045070933 0.09772918910282305 -0.061080743189264396
0.34262418786752624 0.5095394378272686 -0.060595975386174984
0.6305859582586917 0.5345922378909288 -0.060595975386174984
0.2901432255050678 0.32844957730519225 -0.05982034690123195
0.6316912288497355 0.0219793721920735 -0.05982034690123195
0.6444600127831104 0.46891589592837685 -0.05982034690123195
0.2876321282850647 0.5474094986046125 -0.059141671976906784
0.32843988194913043 0.5537405661129601 -0.059141671976906784
0.5671395481903512 0.5011141734095748 -0.059141671976906784
0.6142201972263936 0.096177932132937 -0.059141671976906784
0.2843066211558714 0.11968917058277288 -0.059141671976906784
0.28526646140598844 0.5925122950040502 -0.059141671976906784
0.5871604584579433 0.4164834103462272 -0.059141671976906784
0.3263165989715988 -0.032760608132781574 -0.059141671976906784
0.2757262310411891 0.4593077980711448 -0.059141671976906784
0.6003170566337896 0.39666610255593265 -0.059141671976906784
0.31063920821968766 5.623306515837714E-4 -0.059141671976906784
0.3573708244375058 -0.03006529914760459 -0.059141671976906784
0.30896191162099834 0.39325333722218325 -0.059141671976906784
0.34568792038305124 0.09917379715602948 -0.059141671976906784
0.34901342751224457 0.672741366415346 -0.058656904173817394
0.4447453732663393 -0.06942844475846391 -0.05788127568887435
0.5351933499667596 0.04751694005882311 -0.05788127568887435
0.5983004225729378 0.4429517323949086 -0.05788127568887435
0.5630481079322764 0.6668175038615937 -0.05788127568887435
0.39275887406303206 0.6668175038615937 -0.05788127568887435
0.3462405556785732 0.5199910316618761 -0.05788127568887435
0.28405454189826496 0.540380365459816 -0.05720260076454919
0.5747504026988547 0.5543707642569763 -0.05720260076454919
0.6256510220232417 0.503024158553747 -0.05720260076454919
0.6047672250661503 0.09061279775347071 -0.05720260076454919
0.4750627516715505 -0.047429681854266874 -0.05720260076454919
0.6191939148860909 0.4226884382257717 -0.05720260076454919
