-0.08472231849245479 0.3732522793222645 -0.07011765889673378
0.34837847949771966 0.4799427585573926 -0.07011765889673378
0.36698221604033177 -0.3996247771995636 -0.07011765889673378
0.33330738836517193 0.5511844409936925 -0.06958240959217857
0.25559683576239045 0.47478142597775314 -0.06958240959217857
0.28706184845160093 0.33475256148747096 -0.06958240959217857
0.6233360472477362 -0.24784336726497627 -0.06958240959217857
0.6567432502706183 -0.4673796927376179 -0.06958240959217857
0.3456640008817609 -0.19474663625309846 -0.06958240959217857
0.014956394853000167 0.35606313022740527 -0.06958240959217857
0.06485692287481963 0.29997664952865466 -0.06958240959217857
-0.41952840491038135 0.008839259943797676 -0.06958240959217857
-0.3644206657971032 0.25309645686825416 -0.06958240959217857
-0.19549598527947576 -0.016929170861217833 -0.06920008866035343
-0.20557396504238698 -0.359343443822465 -0.06858837516943317
0.32723613196778834 0.5697728846990316 -0.06858837516943317
0.14950277718090946 -0.20827315082107245 -0.06858837516943317
0.6457782859458728 -0.15232430565777902 -0.06858837516943317
-0.41357184479254533 0.31240972623160884 -0.06805312586487794
-0.4323973274756161 0.049732306811816465 -0.06805312586487794
0.05456484339008638 0.28533375783975123 -0.06805312586487794
0.012685408517958756 0.3662940383630464 -0.06805312586487794
0.6965505056922536 -0.26408436044890893 -0.06805312586487794
0.6406475390407791 -0.44726196530497814 -0.06805312586487794
0.33794876447752936 -0.5664849246853352 -0.06805312586487794
0.3135872747016303 0.30001488162183737 -0.06805312586487794
0.3038075052655428 0.5237567373445557 -0.06805312586487794
0.3280313595059848 0.5457325445058657 -0.06805312586487794
-0.4573475914865259 0.3154147687557546 -0.06705909144213254
0.0764183078532124 0.2952741020672054 -0.06705909144213254
0.2946241564831026 0.24491478892719562 -0.06705909144213254
0.35967223982383484 -0.2803941714005701 -0.06705909144213254
0.734170885383849 -0.3996247771995636 -0.06705909144213254
-0.10294373410324174 0.34136671360804627 -0.06652384213757732
-0.41370183390936593 0.017984376633055417 -0.06652384213757732
-0.4397455357852956 0.30283641009870704 -0.06652384213757732
0.379981127722387 0.464764617563934 -0.06652384213757732
0.31058223217748454 0.2835139102042635 -0.06652384213757732
0.2850584867688371 -0.2595653270347356 -0.06652384213757732
0.30170474014050436 -0.10362426536189051 -0.06652384213757732
0.6808524082315127 -0.33335326687699085 -0.06652384213757732
0.6995173161232169 -0.17712164129595867 -0.06652384213757732
0.3401815187193883 -0.2868324558925057 -0.06614152120575216
0.6327411421706349 -0.4624706919729829 -0.06552980771483193
0.267762287813067 -0.2888434639939061 -0.06552980771483193
0.27938484414055187 0.36104859517840543 -0.06552980771483193
-0.14564898218811184 0.0737114756558904 -0.06552980771483193
0.05617823772238853 0.29330897247762405 -0.0649945584102767
0.12684643876095059 -0.4112549799456849 -0.0649945584102767
-0.4412748195125963 0.10918321171062832 -0.0649945584102767
-0.3449528839485662 0.20594099313693925 -0.0649945584102767
0.29460121722719296 0.5091367849115617 -0.0649945584102767
0.3103681324556625 0.2873447659411516 -0.0649945584102767
0.2869547985906898 -0.5602301542406756 -0.0649945584102767
0.333185045666988 -0.4117137650638751 -0.0649945584102767
0.6828787091701859 -0.38548654914066927 -0.0649945584102767
0.6961834775977015 -0.0815414083396694 -0.0649945584102767
0.7265703452591649 -0.4096951105438382 -0.06461223747845153
0.7005113505459623 -0.07095111852811262 -0.0640005239875313
0.11669964123031094 0.013281829171606025 -0.0640005239875313
0.2949682453217451 0.583077653126547 -0.0640005239875313
-0.4024233664205238 0.2852037687229307 -0.0640005239875313
-0.3899138255312047 0.28325393197062243 -0.06346527468297608
-0.42246462966679854 0.20270655805369842 -0.06346527468297608
0.013954714011618253 0.3712795033140466 -0.06346527468297608
-0.13196189282877116 0.030738602918742704 -0.06346527468297608
0.3388739811325463 -0.18911887213663212 -0.06346527468297608
0.29830208384726054 -0.4471625618627036 -0.06346527468297608
0.6792848924110294 -0.32432284646728066 -0.06346527468297608
0.6453883185954111 -0.07647183278366784 -0.06346527468297608
0.3418713772380555 0.3856777096065821 -0.06346527468297608
0.306728437184687 0.4946927001072072 -0.06346527468297608
0.6662783343103377 -0.14785115075542463 -0.06308295375115092
0.689699314593947 -0.42983577723238753 -0.06247124026023065
0.3076918859328865 -0.3893326977148303 -0.06247124026023065
0.35840293433017534 0.43626641530568677 -0.06247124026023065
-0.1402047321189216 0.16435212217299852 -0.06247124026023065
-0.40237748790870476 0.2900133660452911 -0.06247124026023065
-0.4603755732665811 0.28221401903605803 -0.061935990955675424
-0.4135336126993629 0.001751029867759322 -0.061935990955675424
-0.055941198744657 0.38264972782652673 -0.061935990955675424
0.35308102695916893 -0.3883539561293579 -0.061935990955675424
0.31127040985476984 -0.30318814535598604 -0.061935990955675424
0.7234353136181986 -0.40896105435473395 -0.061935990955675424
0.6194746058363019 -0.17375721709589728 -0.061935990955675424
0.29146618558622667 0.2858613607256701 -0.061935990955675424
0.299647853527285 0.5266164979146079 -0.061935990955675424
0.7209578739799717 -0.42983577723238753 -0.06155367002385029
-0.22571463173093625 -0.25863246396108225 -0.060941956532930025
0.32343586190544643 0.5477282597699931 -0.060941956532930025
0.30253055335324675 0.22218963273950842 -0.060941956532930025
0.3080512676088021 -0.3925747792167077 -0.060941956532930025
0.6303172274628633 -0.32480457084138037 -0.060941956532930025
0.30001488162183715 0.47683831259097254 -0.0604067072283748
0.2381477084338904 0.509824962588847 -0.0604067072283748
0.3045186221987375 0.30545148527239097 -0.0604067072283748
-0.38472955369565554 0.1989751057590849 -0.0604067072283748
-0.42955285974283697 0.012127219957494079 -0.0604067072283748
-0.18390401462653705 -0.10701927523649793 -0.0604067072283748
0.34169550960941597 -0.39410406294400835 -0.0604067072283748
0.3296371074196505 -0.4473154902354337 -0.0604067072283748
0.6765015960273425 -0.2938824538753617 -0.0604067072283748
0.6361896769756977 -0.45503837305830186 -0.0604067072283748
0.7038146033969315 -0.07735117092686566 -0.0594126728056294
0.3507488692750356 -0.39885248891727676 -0.0594126728056294
0.23755128778024315 0.4904489377639481 -0.0594126728056294
0.011683727676576845 0.3860065056079516 -0.0594126728056294
-0.5177695915521737 0.22355834167544228 -0.0594126728056294
0.6272051350778067 -0.37056838638085166 -0.05887742350107418
0.7036310893496555 -0.15763856661014863 -0.05887742350107418
0.31354139618981125 -0.07556190896592396 -0.05887742350107418
0.35050418387866744 -0.36591936384985774 -0.05887742350107418
-0.12351260023543528 0.21176756413795467 -0.05887742350107418
-0.4043732031728321 0.1957789027690265 -0.05887742350107418
-0.04623789349493447 0.39262065772852683 -0.05887742350107418
0.30533678899284333 0.4893019749684726 -0.05887742350107418
0.30870885961154126 0.4648487281689355 -0.05887742350107418
0.7008172072914223 -0.18596854765839288 -0.058495102569249016
0.7031570113941924 -0.07339797249179357 -0.05788338907832878
-0.2182287878857997 -0.17806215078824858 -0.05788338907832878
0.3034557700082637 0.26705881729850883 -0.05788338907832878
-0.44927297340637856 0.29433359257491537 -0.05788338907832878
0.09551141518856072 -0.43554765195385536 -0.05734813977377356
-0.39038025706803137 0.11222648632795676 -0.05734813977377356
-0.37362695383545297 0.2738947155595427 -0.05734813977377356
0.2678311055807954 0.39245243651852385 -0.05734813977377356
0.3411067353744052 0.4677084887389876 -0.05734813977377356
0.301773557908233 0.23555557251611586 -0.05734813977377356
0.30030544553002436 -0.29671162877086776 -0.05734813977377356
0.34111438179304154 -0.2689704219576344 -0.05734813977377356
0.6239554071572928 -0.3417184488653254 -0.05734813977377356
0.6920314722780802 -0.08071559512692714 -0.05734813977377356
-0.4774882581750751 0.10392247568871425 -0.05635410535102816
0.30571910992466855 0.27254129946088146 -0.05635410535102816
-0.22571463173093625 -0.07735117092686566 -0.05635410535102816
0.6303172274628633 -0.11764015072260076 -0.05635410535102816
0.06750258372304975 0.28654189198431884 -0.05581885604647294
-0.4604520374529461 0.13231362808605038 -0.05581885604647294
-0.023917997494981826 0.40115406092686445 -0.05581885604647294
0.2937142326653587 0.51965825695539 -0.05581885604647294
0.36874853874536395 0.5059252890842305 -0.05581885604647294
0.31903917118945696 -0.11872594216898417 -0.05581885604647294
0.6553898341719572 -0.468763694510825 -0.05581885604647294
0.6823663991215404 -0.2427126203598826 -0.05581885604647294
-0.2114693538111309 -0.026999504205492526 -0.05543653511464777
0.2999842959472912 0.2575849046078814 -0.05482482162372751
-0.4218835018504243 0.18522684505065223 -0.05482482162372751
0.6303172274628633 -0.10756981737832617 -0.05482482162372751
0.10900734408198878 -0.017495005840319162 -0.05428957231917229
0.009925051390181091 0.17079040666493425 -0.05428957231917229
0.0032573743391503527 -0.17939262763100006 -0.05428957231917229
-0.1506956184882039 -0.4283217863423599 -0.05428957231917229
-0.48589167225659213 0.2639773105879979 -0.05428957231917229
0.3063843483460443 0.49804947788863224 -0.05428957231917229
0.2261198919186709 0.4914888506985125 -0.05428957231917229
0.3199567414258374 -0.11843537826079707 -0.05428957231917229
0.6448071907790369 -0.4554130475714905 -0.05428957231917229
0.6472158126495353 -0.29615344021040313 -0.05428957231917229
-0.1561092828828481 0.12406314237726364 -0.05390725138734715
0.6303172274628633 -0.12771048406687543 -0.05329553789642688
-0.4573475914865259 0.31419898819255065 -0.05329553789642688
0.005918328024653438 0.39720086249179215 -0.05329553789642688
0.25007612150683534 0.5470477285113443 -0.05329553789642688
-0.10095566525775099 -0.07546250552364939 -0.052760288591871665
-0.003524998991427937 0.17062218545493124 -0.052760288591871665
-0.02875053407325185 -0.1780468579509756 -0.052760288591871665
0.6496244345200338 -0.15831909786879753 -0.052760288591871665
0.6551527951942258 -0.39378291336127524 -0.052760288591871665
0.3089688378451825 -0.20669034216331633 -0.052760288591871665
0.3396462694148331 0.38962326162301764 -0.052760288591871665
0.28746710863933556 0.48198435233333914 -0.052760288591871665
-0.4061318794592278 0.3035016485200827 -0.052760288591871665
-0.4189702163499166 0.022572227814957366 -0.052760288591871665
-0.3550155708742043 0.265055455615745 -0.05176625416912626
-0.1300961666814644 0.30194942553687254 -0.05176625416912626
0.3785436010187245 0.5192529967676555 -0.05176625416912626
0.3064837517883188 -0.3492654640595539 -0.05176625416912626
0.3128073400007069 0.24977026476137526 -0.051231004864571036
0.3036928089859953 0.4840412389465583 -0.051231004864571036
0.22558464261411573 0.4711799627999601 -0.051231004864571036
-0.38137277591423063 0.1921315610794145 -0.051231004864571036
-0.1327953524601501 0.2864042564488618 -0.051231004864571036
-0.006560627190119726 -0.029736922077360683 -0.051231004864571036
-0.16818297790988662 -0.2674411382303337 -0.051231004864571036
-0.07572248375729065 0.047560723919049634 -0.051231004864571036
0.31896270700309204 -0.190135845815287 -0.051231004864571036
0.6781149903596445 -0.2929495908017083 -0.051231004864571036
0.6227855051059079 -0.4600467772652114 -0.05084868393274588
-0.3936299849885452 0.2827722075965226 -0.05023697044182564
0.35438856454601114 0.4664774153385106 -0.05023697044182564
0.36358720616572443 -0.36176735853023656 -0.05023697044182564
0.3127385222329785 0.2533564351018952 -0.049701721137270415
0.3121115159047853 0.5063076100160555 -0.049701721137270415
0.22057623840720617 0.4914888506985125 -0.049701721137270415
-0.4676243781339861 0.21383209716981036 -0.049701721137270415
-0.16527733882801535 -0.0143829134552623 -0.049701721137270415
-0.139830057605733 -0.4650628278907575 -0.049701721137270415
-0.09791239064042266 -0.2295760731423702 -0.049701721137270415
-0.006560627190119726 -0.21597309438803114 -0.049701721137270415
0.6374972145625399 -0.08271131039105442 -0.049701721137270415
0.675645197140054 -0.32917067588282367 -0.049701721137270415
0.0764183078532124 0.2952741020672054 -0.04931940020544525
-0.4573399450678894 0.16435212217299852 -0.048707686714525016
0.25274472161097483 0.3859071021656772 -0.048707686714525016
0.267762287813067 -0.31905446402672993 -0.048707686714525016
0.36772391864807263 0.508807988910192 -0.04817243740996979
0.3175863516485214 0.48195376665879297 -0.04817243740996979
0.30416688694145844 0.2705302913594811 -0.04817243740996979
-0.3771137207336984 0.19035759195574578 -0.04817243740996979
-0.07998153893782281 0.3572483251160633 -0.04817243740996979
-0.006407698817389586 -0.013870603406616644 -0.04817243740996979
-0.0755695553845605 0.17543178277729166 -0.04817243740996979
0.15212549877322995 -0.2712872868044948 -0.04817243740996979
0.2904568583262082 -0.39723909458497464 -0.04817243740996979
0.6411674955080614 -0.2339880566956325 -0.04817243740996979
0.6108417991956899 -0.43185443175242433 -0.04817243740996979
-0.4518039379750611 0.3134725784220828 -0.047178402987224366
0.0764183078532124 0.3053444354114801 -0.047178402987224366
0.26299092258388906 0.5576533111601741 -0.047178402987224366
0.6303172274628633 -0.30898413068245534 -0.047178402987224366
0.2621880486270561 0.38523421732566476 -0.04664315368266914
0.30776070370061487 0.4764865773336932 -0.04664315368266914
-0.395633346671309 0.30174297223368707 -0.04664315368266914
-0.13997533955982647 -0.46501694937893845 -0.04664315368266914
-0.10048158730228782 0.21057472283066012 -0.04664315368266914
-0.029805739845089215 0.2781461243214383 -0.04664315368266914
0.09551906160719727 0.02890346244598199 -0.04664315368266914
-0.12933917123645067 -0.47082822754268083 -0.04664315368266914
0.29300311573216375 -0.1983557458495279 -0.04664315368266914
0.6664771411948868 -0.29746097779724506 -0.04664315368266914
-0.40519901638557443 0.2852037687229307 -0.04626083275084401
0.6504578941514128 -0.48019509037239716 -0.04626083275084401
0.36098742382931337 -0.28108999549649194 -0.045649119259923744
0.31834334709353534 0.557118061855619 -0.045649119259923744
-0.4179991211830807 0.32548510210002923 -0.045649119259923744
0.3457863435799451 0.3861212018874992 -0.04511386995536852
0.3560707766460418 0.5331465394301816 -0.04511386995536852
-0.36581996040758324 0.26577421896757625 -0.04511386995536852
0.10269140228823724 -0.01357239307979301 -0.04511386995536852
0.06478045868845457 0.3118362448338712 -0.04511386995536852
-0.0733215083054286 -0.22786327536779358 -0.04511386995536852
0.15809735172833897 -0.3476367768899787 -0.04511386995536852
0.05561240274328731 0.2829939537369814 -0.04511386995536852
-0.035020597355184375 0.2791248659069108 -0.04511386995536852
0.33905749517982237 -0.29164205321486625 -0.04511386995536852
0.6969098873681693 -0.0826883711351449 -0.04511386995536852
0.6810206294415156 -0.3831620378751723 -0.04511386995536852
0.29066331162939396 0.5281687208978181 -0.04473154902354336
0.6806765406028732 -0.3926741826589822 -0.04411983553262312
-0.48508879829975926 0.2783143455314413 -0.04411983553262312
0.25158246597822626 0.4401737352289398 -0.04411983553262312
0.3050385786660198 0.26362557533071884 -0.0435845862280679
0.2887822926448141 0.49738423946725635 -0.0435845862280679
0.2516130516527724 0.5374132410293504 -0.0435845862280679
-0.3806310733064898 0.208219625890617 -0.0435845862280679
0.058028671032422326 0.31328906437480675 -0.0435845862280679
-0.17814626139325018 -0.21376327940208173 -0.0435845862280679
-0.09975517753182003 0.28332274973835087 -0.0435845862280679
-0.031151509525113783 0.22521761451956357 -0.0435845862280679
0.07439200691453905 0.22341305972134892 -0.0435845862280679
-0.1495333628554554 -0.4943027327567454 -0.0435845862280679
0.27509520328547354 -0.32452929977046624 -0.0435845862280679
0.630722487650598 -0.24571766288402835 -0.0435845862280679
0.6891334796148456 -0.44671142316314993 -0.0435845862280679
0.267762287813067 -0.31905446402672993 -0.043202265296242735
0.3260432906604938 -0.38305498801426124 -0.0425905518053225
-0.0697812164767277 0.39189424795805905 -0.0425905518053225
0.31439014865846326 0.5334218105010956 -0.0425905518053225
-0.11907003100762693 -0.5473535852568043 -0.04205530250076728
9.175702363804117E-5 -0.5419934457926155 -0.04205530250076728
-0.10031336609228471 0.10373896164143817 -0.04205530250076728
0.15809735172833897 -0.1031425409877908 -0.04205530250076728
-0.0733215083054286 0.033812463210616976 -0.04205530250076728
-0.21030709817838242 -0.24571001646539184 -0.04205530250076728
0.28253516861879097 -0.38738286096252206 -0.04205530250076728
0.6552292593805906 -0.32710614285096784 -0.04205530250076728
0.621026828819512 -0.08211488973740716 -0.04205530250076728
0.2989367365940903 0.5285816275041892 -0.04205530250076728
0.28083766368148744 0.36754805101943305 -0.04205530250076728
-0.372487637458614 0.27910957306963774 -0.04205530250076728
0.35840293433017534 0.5470477285113443 -0.041672981568942113
0.6189164172758372 -0.1889888830198116 -0.04106126807802187
-0.14029648914255963 -0.38917212292346376 -0.04106126807802187
0.009947990646090601 0.38914918366755435 -0.04106126807802187
-0.11534622513164984 0.31659996364441256 -0.040526018773466656
-0.1959624168163025 -0.02709890764776711 -0.040526018773466656
-0.19666588733086077 -0.34155787407395877 -0.040526018773466656
0.059703236713816575 -0.0774429279505037 -0.040526018773466656
-0.03099858115238375 -0.07521017370864477 -0.040526018773466656
-0.10016043771955467 -0.04756837033768596 -0.040526018773466656
0.27266364215906547 -0.31971970244810577 -0.040526018773466656
0.6771897737046276 -0.3265403078718666 -0.040526018773466656
0.6967340197395298 -0.17345900676907366 -0.040526018773466656
0.29756038123951967 0.5095573379365694 -0.040526018773466656
0.3158964931298542 0.3667375306439638 -0.040526018773466656
-0.46502459579757505 0.13166368250194777 -0.040526018773466656
-0.05450367204099439 0.3758367688214025 -0.04014369784164149
0.6403875608071381 -0.4701171106094861 -0.03953198435072122
-0.4375357207993462 0.10210262805322651 -0.03953198435072122
0.30287464219188953 0.23316224348289025 -0.03953198435072122
0.30656786239332035 0.5799196822296713 -0.038996735046166
0.3150936191730214 0.4812120640510523 -0.038996735046166
0.05839569912697449 0.3093435123583712 -0.038996735046166
-0.38398020466927824 0.19109929456348665 -0.038996735046166
-0.11834362123715914 -0.4264407673577801 -0.038996735046166
0.090074811538007 -0.2401663629539271 -0.038996735046166
0.2789413518596345 -0.36227202216024573 -0.038996735046166
0.6908921559012412 -0.08261955336741639 -0.038996735046166
0.6290555683878404 -0.33826991406026236 -0.038996735046166
-0.05450367204099439 0.3783983190646309 -0.03861441411434087
0.3633731064439022 -0.3955415896476709 -0.0380027006234206
-0.372548808807706 0.21470378889437175 -0.0380027006234206
0.3281919342973513 0.3959774355099517 -0.0380027006234206
0.29027334427893214 0.5099931837988501 -0.03746745131886538
0.33575424232885287 0.3741316174654622 -0.03746745131886538
-0.10620875486102863 0.332213950500152 -0.03746745131886538
-0.4245903340477464 0.3170052238321472 -0.03746745131886538
-0.05836511345242844 -0.23180882738422914 -0.03746745131886538
0.07472080291590874 -0.2350662017233795 -0.03746745131886538
0.27897193753418065 -0.2930872263371654 -0.03746745131886538
0.6904027851085051 -0.0823748679710483 -0.03746745131886538
0.631953561051075 -0.3340949694847317 -0.03746745131886538
0.04948762141544828 0.34747620209861235 -0.03708513038704022
0.6544187390051214 -0.4096951105438382 -0.03647341689611998
0.12855923653552734 -0.13931774755708712 -0.03647341689611998
-0.14517490423264867 -0.45052698606276503 -0.03647341689611998
0.020775319435379025 0.3859071021656772 -0.03647341689611998
0.6791013783637534 -0.3807916480978564 -0.035938167591564756
0.612042286921621 -0.15828851219425147 -0.035938167591564756
0.3467727315840539 -0.39710145904951755 -0.035938167591564756
0.0925293119203245 -0.23179353454695617 -0.035938167591564756
-0.017043867140765494 -0.17751160864642032 -0.035938167591564756
-0.4689548549767376 0.2856166753293019 -0.035938167591564756
-0.09613842151675395 0.34995364173683924 -0.035938167591564756
0.2706144019644826 0.37365753950999914 -0.035938167591564756
0.3147112982411962 0.49413451154674265 -0.035938167591564756
0.037620379691595464 -0.3794841105110143 -0.03555584665973959
0.6542658106323912 -0.4399061105766621 -0.03494413316881936
0.12855923653552734 -0.1842251642092701 -0.03494413316881936
0.3497471884336537 0.3758367688214025 -0.03494413316881936
-0.4109567696188613 0.10139915753866811 -0.03494413316881936
0.6857767018334208 -0.23819358694570933 -0.034408883864264134
0.3585023377724497 -0.3234282154868098 -0.034408883864264134
0.09314867182988128 -0.2915961747030472 -0.034408883864264134
0.13239773869105187 -0.08024151717146386 -0.034408883864264134
-0.14813406824497538 -0.4464667377667818 -0.034408883864264134
-0.44925768056910553 0.11357225600798122 -0.034408883864264134
0.03928729895435318 0.3535168728214497 -0.034408883864264134
0.30730191858242467 0.49682605090679177 -0.034408883864264134
0.30253055335324675 0.5553976176624058 -0.03402656293243897
0.35840293433017534 0.3859071021656772 -0.033414849441518735
0.11523917527073882 -0.19561832797765985 -0.033414849441518735
0.6324811639369938 -0.18692434998795576 -0.033414849441518735
-0.08843083153115881 -0.20398350996599424 -0.03287960013696351
0.07899515093371397 -0.22908670234963405 -0.03287960013696351
0.13119725096512092 -0.39214657977306355 -0.03287960013696351
0.6244065458568465 -0.353096319796442 -0.03287960013696351
0.705886782847424 -0.1581508766587944 -0.03287960013696351
0.3048703574560168 0.4903265950657639 -0.03287960013696351
0.2724036639254244 0.3646347655189254 -0.03287960013696351
0.04733897777859097 0.3462221894422257 -0.03287960013696351
-0.10471005680827403 0.3571259824178793 -0.03249727920513835
0.35840293433017534 0.3758367688214025 -0.031885565714218085
0.026058994713202714 -0.15903021480199223 -0.031885565714218085
0.6403875608071381 -0.0785669514900697 -0.031885565714218085
-0.09036537544619411 -0.19156572610031317 -0.03135031640966286
0.1277257769041484 -0.1537618323614416 -0.03135031640966286
0.09879937520225714 -0.37485802723592987 -0.03135031640966286
0.6861972548584285 -0.3725105767145234 -0.03135031640966286
0.6822746420979023 -0.24280437738352068 -0.03135031640966286
0.35320336965735316 0.5443714819885682 -0.03135031640966286
0.288170579153894 0.4966272440222426 -0.03135031640966286
-0.025439634803645937 0.40487786680284144 -0.03135031640966286
-0.3922306903780651 0.29840148728953514 -0.03135031640966286
0.3151089120102945 0.3657664354771278 -0.03035628198691746
0.15698097460740948 -0.03706983754976711 -0.03035628198691746
0.3559790196224038 -0.33596834205067494 -0.03035628198691746
-0.09382155666989352 -0.21162228218386084 -0.02982103268236224
0.035762299962925244 -0.1680376959557929 -0.02982103268236224
0.07723647464731823 -0.3723805875977029 -0.02982103268236224
0.6272510135896258 -0.35522202417738985 -0.02982103268236224
0.6879865168193701 -0.07531722356955589 -0.02982103268236224
0.3506724050886705 0.47657068793869495 -0.02982103268236224
0.262883872722978 0.3703237009844837 -0.02982103268236224
-0.38039403432875823 0.21614131559803426 -0.02982103268236224
-0.09479265183672948 0.3755691441691249 -0.029438711750537076
0.27880371632417744 -0.3525916561664328 -0.028826998259616838
-0.40519901638557443 0.21470378889437175 -0.028826998259616838
0.29066331162939396 0.5614306419666066 -0.028826998259616838
-0.017326784630316158 -0.2344009633020037 -0.028291748955061615
0.09161938810258063 -0.2976674311004307 -0.028291748955061615
0.3467650851654174 -0.39109137400122607 -0.028291748955061615
0.6631433026693714 -0.2949223668099261 -0.028291748955061615
0.283689777832903 0.5719291747545254 -0.028291748955061615
0.30032838478593377 0.5428192590053581 -0.028291748955061615
-0.0811667338264808 0.3575541818615233 -0.028291748955061615
0.2778326211573417 -0.3272896568982439 -0.027909428023236454
0.3281919342973513 0.4161257486171376 -0.027297714532316216
0.02275574186223334 -0.09749948403405148 -0.027297714532316216
0.7047245272146754 -0.0785669514900697 -0.027297714532316216
0.027550046347320774 -0.08386591960516637 -0.026762465227760993
0.0886372848343444 -0.3700943084253885 -0.026762465227760993
0.6454341971072302 -0.39287298954353134 -0.026762465227760993
0.6958164495031492 -0.09766005882541805 -0.026762465227760993
0.2954729089517543 0.5167755571294284 -0.026762465227760993
0.3456410616258515 0.3845383932297431 -0.026762465227760993
-0.4500605545259384 0.10641520816421422 -0.026762465227760993
0.3499918738300217 0.3758367688214025 -0.025768430805015594
0.04619966140175199 -0.13778081741115003 -0.025768430805015594
-0.4015516746959625 0.30600967383285577 -0.02523318150046037
-0.10342545847734146 0.3426589583576154 -0.02523318150046037
0.29268196614943065 0.5526907854650835 -0.02523318150046037
0.6121722760384415 -0.18180124950149865 -0.02523318150046037
0.6495479703336688 -0.38823161343117396 -0.02523318150046037
0.270346777312205 -0.3160723607584937 -0.02523318150046037
0.28943988464755344 0.5873290618884428 -0.02423914707771494
-0.4573399450678894 0.1744224555172732 -0.02423914707771494
0.6001062274300395 -0.07735117092686566 -0.02423914707771494
-0.3870081864493335 0.21158405009067857 -0.023703897773159722
0.26310561886343653 0.469643032654023 -0.023703897773159722
0.6200786729085856 -0.07394851463362181 -0.023703897773159722
0.6449065942213115 -0.4332690192001774 -0.023703897773159722
0.28355214229744596 -0.28846878948071736 -0.023703897773159722
0.7051221409837737 -0.0835371236037968 -0.02270986335041432
0.13288710948378812 -0.1826194162956045 -0.02270986335041432
0.28291748955061624 0.3657664354771278 -0.02270986335041432
-0.022220492557678172 0.40614717229650094 -0.022174614045859097
0.29322486187262253 0.5564145913410605 -0.022174614045859097
0.6120499333402575 -0.1826041234583314 -0.022174614045859097
0.6488292069818377 -0.32611210842822236 -0.022174614045859097
0.354189757661462 -0.38901919455073375 -0.022174614045859097
-0.02751946067277483 -0.5214169332417856 -0.022174614045859097
0.05627764116466311 -0.0886372848343443 -0.021180579623113698
0.24762162112451783 0.4161257486171376 -0.021180579623113698
-0.3778248376668932 0.19626062714312614 -0.020645330318558475
0.31032990036248004 0.5585097100474624 -0.020645330318558475
0.6361208592079693 -0.08192372927149454 -0.020645330318558475
0.6447613122672179 -0.435845862280679 -0.020645330318558475
0.27897193753418065 -0.3046180256410121 -0.020645330318558475
0.3035934055437208 0.5501904065709471 -0.019651295895813076
0.020920601389472625 -0.08209195048149764 -0.019651295895813076
0.6069038935978909 -0.1579214840996993 -0.019651295895813076
-0.03532645410064455 0.4073553064410683 -0.019116046591257853
0.29112209674758416 0.5572709902283489 -0.019116046591257853
0.6807147726960556 -0.08189314359694859 -0.019116046591257853
0.6290555683878404 -0.33826991406026236 -0.019116046591257853
0.3511311902068607 -0.2884764358993539 -0.019116046591257853
0.6082420168592788 -0.16206584300068402 -0.01812201216851245
0.3485008221959036 -0.359343443822465 -0.01812201216851245
0.30208706107232963 0.5482405698186388 -0.01812201216851245
0.6133804101830089 -0.18489804904928242 -0.01758676286395723
0.6548698777046751 -0.3271978998746059 -0.01758676286395723
0.12689231727276962 -0.0820843040628611 -0.01758676286395723
0.3021788180959677 0.5252172033041279 -0.01758676286395723
-0.3879028174298043 0.11565208187711001 -0.01758676286395723
0.34968601708456165 0.3657664354771278 -0.0165927284412118
0.04619966140175199 -0.12771048406687543 -0.0165927284412118
0.7018647666446233 -0.11269291786478318 -0.0165927284412118
0.6218144099390719 -0.17966789870191419 -0.01605747913665658
0.6479651616759128 -0.3286354265782684 -0.01605747913665658
0.04067130072756023 -0.1807919222414802 -0.01605747913665658
0.30637670192740796 0.5838270021529244 -0.01605747913665658
-0.027603571277776334 0.4155981457312187 -0.01605747913665658
0.6711643958190633 -0.06912362447398833 -0.015675158204831445
-0.4573399450678894 0.16435212217299852 -0.015063444713911179
0.6530500300691873 -0.31425251312300595 -0.015063444713911179
0.30799009625970997 0.5407470795548658 -0.014528195409355958
0.0043737514600798175 0.38612884830613575 -0.014528195409355958
0.127764008997331 -0.08369005197652682 -0.014528195409355958
0.3525687169105234 -0.2930872263371654 -0.014528195409355958
0.6298355030887638 -0.2572790478624211 -0.014528195409355958
0.7026599941828197 -0.11478039015254862 -0.014145874477530794
0.6901351604562275 -0.06659265990530577 -0.013534160986610557
0.2956870086735764 -0.389554443855289 -0.013534160986610557
0.3441423635730969 0.4507793178777697 -0.012998911682055334
0.26700529236805326 0.3644130193784668 -0.012998911682055334
-0.3969791163513336 0.1163784916475778 -0.012998911682055334
0.2801036074923831 -0.29085447209530646 -0.012998911682055334
0.6187023175540151 -0.152217255796868 -0.012998911682055334
0.29066331162939396 -0.40198752055824305 -0.012616590750230172
0.6077755853224522 -0.1679918174439739 -0.012004877259309934
-0.36670694496941764 0.22477412223864646 -0.012004877259309934
-0.0648492764561831 0.38849159166481523 -0.01146962795475471
0.3075924824906119 0.5814642587942449 -0.01146962795475471
0.3528057558882548 -0.39110666683849904 -0.01146962795475471
0.647789294047273 -0.2887287677143585 -0.01146962795475471
0.7100999595161371 -0.13778081741115003 -0.011087307022929548
0.6907468739471478 -0.13014969161191986 -0.01047559353200931
-0.4737873915550076 0.22477412223864646 -0.01047559353200931
0.6897299002684929 -0.26812931590761907 -0.009940344227454089
0.27550046347320817 -0.30921352324155044 -0.009940344227454089
0.33865988141072406 0.3674486475771585 -0.009940344227454089
-0.02881170542234384 0.4069729855092433 -0.009940344227454089
0.29797328784589083 0.6124475471093556 -0.00894630980470866
0.2576919544687923 -0.36941377716673973 -0.00894630980470866
0.2919479099603265 0.5675401304571728 -0.00841106050015344
0.26263154090797347 0.47085116679859046 -0.00841106050015344
0.1358386270774783 -0.08363652704607126 -0.00841106050015344
0.29169557814532177 -0.40000709813138874 -0.00841106050015344
0.6229002013854553 -0.08178609373603758 -0.00841106050015344
0.34993070248092983 0.3657664354771278 -0.007417026077408038
0.13820901685479428 -0.1579214840996993 -0.007417026077408038
-0.3795223426041969 0.21111761855385183 -0.006881776772852816
0.2559868031128522 0.44944119461638177 -0.006881776772852816
0.2755234027291176 -0.30946585505655505 -0.006881776772852816
0.6412974846248819 -0.29291135870852575 -0.006881776772852816
0.3181216009530768 0.5973993952327175 -0.005887742350107415
0.2828333789456147 -0.3996247771995636 -0.005887742350107415
-0.461331375596144 0.21845053402625836 -0.005352493045552193
0.3145736627057391 0.5569192549710698 -0.005352493045552193
0.1185653673776177 -0.062241847701135465 -0.005352493045552193
0.28210696917514694 -0.38635824086523063 -0.005352493045552193
0.6224567091045382 -0.18752841706023946 -0.005352493045552193
0.36358720616572443 -0.389554443855289 -0.004358458622806792
-0.458899814469736 0.10271434154414685 -0.004358458622806792
0.26887101851536005 0.3642218589125542 -0.0038232093182515707
0.13277241320424057 -0.07653300413275983 -0.0038232093182515707
0.27626510533685844 -0.28529552574656863 -0.0038232093182515707
0.6219596918931655 -0.18640439352067345 -0.0038232093182515707
0.36679870199305564 -0.36941377716673973 -0.00282917489550617
-0.47241868261907355 0.1772286911568698 -0.00282917489550617
0.25728669428105766 0.4527138617928051 -0.0022939255909509475
0.3150859727543849 0.574490724997754 -0.0022939255909509475
0.2816175983824108 -0.2895775201830104 -0.0022939255909509475
0.669306316090393 -0.07611245110775222 -0.0022939255909509475
0.26169867783431994 0.4966884153713347 -0.00129989116820552
0.2879029545016162 -0.31905446402672993 -0.00129989116820552
-0.4102303598483935 0.11140831953385093 -0.00129989116820552
0.304480390105555 0.559534330144754 -7.646418636502978E-4
0.02634955862138981 -0.07480491352091014 -7.646418636502978E-4
0.35214051746687913 -0.29206260623987396 -7.646418636502978E-4
0.6965199200177077 -0.17811567571870415 -7.646418636502978E-4
0.31834334709353534 0.3592211011242812 2.2939255909510293E-4
0.34833260098590063 -0.31905446402672993 2.2939255909510293E-4
-0.39691794500224153 0.15670570353649538 2.2939255909510293E-4
-0.3965279776517799 0.10728689988877561 7.64641863650325E-4
0.26512427338347344 0.37173828843223683 7.64641863650325E-4
0.2752940101700227 -0.37326757215953726 7.64641863650325E-4
0.6965505056922536 -0.26408436044890893 7.64641863650325E-4
-0.3952739649953934 0.16435212217299852 0.0011469627954754874
0.2867101131943218 0.35569610213285313 0.0017586762863957257
0.01598866136892802 -0.19820281747679785 0.0017586762863957257
-0.43979141429711466 0.12056108264174499 0.0017586762863957257
0.31845039695444627 0.601467289947337 0.0022939255909509475
0.026364851458662887 -0.05323436654733479 0.0022939255909509475
0.3585711555401783 -0.28529552574656863 0.0022939255909509475
0.6221049738472592 -0.1869319964065922 0.0022939255909509475
-0.4574317020915274 0.1844927888615479 0.0032879600136963482
0.04619966140175199 -0.10756981737832617 0.0032879600136963482
0.2533793743578046 0.3821221249406081 0.0032879600136963482
-0.3898526541821126 0.11347285256570663 0.0038232093182515707
0.3397609656943805 0.37279349420407426 0.0038232093182515707
0.354189757661462 -0.38901919455073375 0.0038232093182515707
0.6829551733565511 -0.2896310451134659 0.0038232093182515707
0.057394018285592575 -0.08742150427114036 0.004205530250076733
0.3408544035594005 0.42619608196141207 0.004817243740996971
0.043003458411693625 -0.09265930103714502 0.004817243740996971
-0.4567129387396961 0.11007784269109933 0.005352493045552193
0.33796405731480245 0.3670128017148779 0.005352493045552193
0.13041731626419756 -0.17901795311781146 0.005352493045552193
0.6801795233915005 -0.28796412585070824 0.005352493045552193
0.2610028537383983 0.4069653390906068 0.005734813977377355
0.33020294239875164 0.4060477688542264 0.006346527468297621
0.14250630412850904 -0.08742150427114036 0.006346527468297621
-0.46502459579757505 0.21574370182893615 0.006881776772852843
0.28326157838925875 0.3654758715689406 0.006881776772852843
0.35574198064467216 -0.370132540518571 0.006881776772852843
0.6955641176881447 -0.2695744890299182 0.006881776772852843
0.6623251358752655 -0.05721050423831639 0.007264097704677979
0.3684732676744498 -0.3794841105110143 0.007875811195598244
0.24762162112451783 0.401452271253688 0.007875811195598244
-0.38557065974567084 0.22248019664769542 0.008411060500153465
0.06487986213072915 -0.07946922888917704 0.008411060500153465
0.3660264137107688 -0.3393557055066458 0.008411060500153465
0.6199945623035842 -0.1783374218591627 0.008411060500153465
-0.36670694496941764 0.10392247568871425 0.009405094922898866
0.36530000394030104 -0.30230116079415165 0.009405094922898866
-0.45922096405246915 0.2210197306881233 0.009940344227454089
0.09606960374902551 -0.17002576480128376 0.009940344227454089
0.7059708934524255 -0.18690905715068268 0.009940344227454089
0.307959510585164 0.5921615984667128 0.009940344227454089
0.608364359557463 -0.12771048406687543 0.010934378650199517
-0.3953886612749409 0.2292625699782737 0.010934378650199517
0.026380144295935857 -0.08082264498783814 0.011469627954754738
0.35522202417738985 -0.29077800790894137 0.011469627954754738
0.34591633269676564 0.399250102686375 0.011469627954754738
0.267762287813067 -0.3489060823836383 0.011851948886579875
0.27109612633858243 -0.2888434639939061 0.012463662377500111
0.2589689063810883 0.47249514680543864 0.012998911682055334
0.6140074165112023 -0.11744899025668813 0.012998911682055334
0.13018792370510246 -0.07881928330507432 0.012998911682055334
0.3490207786631859 -0.34265131193897874 0.013381232613880524
0.020790612272651995 -0.06728083758259108 0.013992946104800763
0.26662297143622804 0.480478007861948 0.014528195409355984
0.27659390133822814 -0.317685755090796 0.014528195409355984
0.12375728563180335 -0.07368088998134423 0.014528195409355984
-0.4774882581750751 0.09385214234443956 0.015522229832101359
0.005918328024653438 -0.09749948403405148 0.015522229832101359
-0.39064788172030895 0.11562914262120061 0.01605747913665658
0.024690285777268638 -0.08959308716390718 0.01605747913665658
0.29081624000212386 -0.3971167518867905 0.01605747913665658
-0.4774882581750751 0.11399280903298895 0.017051513559402008
0.020117727432639766 -0.09273576522350999 0.017051513559402008
0.34733856656315526 0.43116625407513914 0.01758676286395723
0.28355214229744596 -0.39095373846576903 0.01758676286395723
0.11002431776064367 -0.08476055058563726 0.01758676286395723
0.3684732676744498 0.4463367486499615 0.018580797286702658
0.6030195129305472 -0.1760893747800308 0.018580797286702658
0.7031111328823734 -0.07204455639313258 0.01911604659125788
0.0345465193997212 -0.16931464786808895 0.01911604659125788
0.6662783343103377 -0.19820281747679785 0.019498367523083013
0.15698097460740948 -0.09749183761541494 0.020110081014003252
-0.3855783061643074 0.22062976333766174 0.020645330318558475
0.11338874196070503 -0.07919395781826291 0.020645330318558475
0.662057511222988 -0.07969862144827214 0.020645330318558475
0.29620696514085865 -0.389554443855289 0.021027651250383667
0.02208285702222111 -0.09428798820672014 0.0216393647413039
-0.46606450873213945 0.10723337495832005 0.022174614045859124
0.12875039700143984 -0.18113601108012287 0.022174614045859124
0.7092053285356663 -0.19010526014074106 0.022174614045859124
0.34995364173683924 0.36190499406569376 0.0231686484686045
0.267762287813067 -0.3681979966035357 0.0231686484686045
0.6667906443589834 -0.08615219877748086 0.023703897773159722
0.31647762094622855 -0.40121523227595624 0.023703897773159722
0.05215622151958791 -0.07964509651781669 0.023703897773159722
0.35392977942782095 -0.28055474619193665 0.02408621870498491
0.02049240194582847 -0.07735117092686566 0.02469793219590515
0.2641684710539105 0.372151195038608 0.02523318150046037
0.3164393888530461 -0.3945016767131065 0.02523318150046037
0.608547873604739 -0.19231507512669047 0.02523318150046037
0.35599431245967667 0.4161257486171376 0.026227215923205798
0.020912954970836086 -0.048111266060877664 0.026227215923205798
0.6643132047207563 -0.10073391911729232 0.02676246522776102
0.3545491393373776 -0.3883310168734484 0.02676246522776102
0.04710193880085932 -0.07870458702552677 0.02676246522776102
-0.4774882581750751 0.11399280903298895 0.027144786159586157
0.1409999596571179 -0.0471401708940418 0.027756499650506396
0.6080202707188203 -0.1853262484929266 0.028291748955061615
0.3557266878073991 -0.3868170259834208 0.028291748955061615
0.13820901685479428 -0.08862199199707133 0.028291748955061615
0.267762287813067 -0.33693179079887436 0.028674069886886807
0.01598866136892802 -0.18934826469572721 0.029285783377807045
-0.3802334595373917 0.17790922241551854 0.029821032682362265
0.12486601633409627 -0.0786281228391617 0.029821032682362265
0.6565826754792516 -0.10205674954140738 0.029821032682362265
0.3262497439636795 -0.3643365551921016 0.0302033536141874
0.3657893747330372 -0.3661640492462258 0.03081506710510764
-0.3818697931256034 0.10742453542423268 0.03135031640966286
0.2564838203242249 0.359871046708384 0.03135031640966286
0.27843668822962525 -0.3448305412503821 0.03135031640966286
0.6811353257210634 -0.14155050179894604 0.03135031640966286
0.6662783343103377 -0.07469786365999911 0.03234435083240829
-0.36670694496941764 0.22477412223864646 0.03234435083240829
0.6146497156766686 -0.16188997537204447 0.03287960013696351
0.2797901043282865 -0.31461954121755814 0.03287960013696351
0.07998153893782281 -0.08355241644106977 0.03287960013696351
0.3657893747330372 -0.3836590550865451 0.03326192106878865
0.15698097460740948 -0.08742150427114036 0.03387363455970894
0.34944133168819347 0.3585711555401783 0.03440888386426416
0.2820457978260548 -0.3903726106493948 0.03440888386426416
0.05124629770184404 -0.07404027165725986 0.03440888386426416
-0.3834067232715405 0.11512447899119138 0.03440888386426416
0.6385982988461962 -0.10756981737832617 0.03540291828700953
0.2661871255739474 0.36305195686116926 0.035938167591564756
0.6136862669284692 -0.1793161634446351 0.035938167591564756
0.11621791685621123 -0.07201397071858652 0.035938167591564756
-0.46512399923984954 0.1284445402559798 0.035938167591564756
0.6741847311804818 -0.11764015072260076 0.03693220201431018
0.6114840983611561 -0.1844163246751827 0.037467451318865405
0.04116067152029637 -0.17834506827779925 0.037467451318865405
-0.41243252841570643 0.1201252367794644 0.037467451318865405
0.2451594743235638 0.45640708199423613 0.03784977225069054
0.3495177958745586 0.44540388557630795 0.038996735046166
0.29518234504356733 -0.3147954088461978 0.038996735046166
0.036519295407938974 -0.061813648257491305 0.038996735046166
-0.4447692328294782 0.1109877665088432 0.038996735046166
0.34510581232129633 0.3626772823479806 0.040526018773466656
0.29756038123951967 -0.38849923808345155 0.040526018773466656
-0.4287423393673676 0.11127833041703018 0.040526018773466656
-0.4676014388780766 0.21986512147401147 0.040526018773466656
0.005918328024653438 -0.08742150427114036 0.04152005319621208
0.3470403562363315 0.4224722760854351 0.042055302500767305
0.2905103832566638 -0.39041848916121386 0.042055302500767305
-0.4114308475743245 0.12258738358041844 0.042055302500767305
0.3222965455286074 0.4966884153713347 0.042437623432592435
0.2524312184468782 0.4797286588355706 0.0435845862280679
0.3282454592278068 -0.30182708283868837 0.0435845862280679
0.05830394210333645 -0.07890339391007582 0.0435845862280679
-0.46539927031076367 0.12913271793326508 0.0435845862280679
0.1369167721052253 -0.1679918174439739 0.044578620650813326
0.34999952024865827 0.47071353126313337 0.04511386995536855
0.2716849005735931 -0.3986536820327277 0.04511386995536855
0.128949203885989 -0.08095263410465867 0.04511386995536855
-0.38469132160247305 0.14840169289725308 0.04511386995536855
0.2957023015108494 0.39860015710227237 0.04664315368266914
0.2543351766873675 0.4785816960400951 0.04664315368266914
0.032795489531961985 -0.15580342613738793 0.04664315368266914
-0.3995788986877446 0.1388360231829876 0.04664315368266914
0.0415812245453041 -0.08742150427114036 0.04763718810541457
0.299479632317282 0.4026298197237094 0.04817243740996979
0.29880674747726976 -0.36707397306396966 0.04817243740996979
-0.42786300122416976 0.1364350477311257 0.04817243740996979
0.31439014865846326 -0.32720554629324233 0.04916647183271522
0.3076001289092484 0.37127185689541004 0.04970172113727044
0.6571102783651706 -0.07811581279051605 0.04970172113727044
0.030815067105107667 -0.05600237009374899 0.04970172113727044
-0.4085328549110898 0.19307971699034085 0.04970172113727044
0.3122262121843327 0.3863888265397768 0.051231004864571036
0.3485925792195417 0.43092156867877096 0.051231004864571036
0.02963751863508621 -0.15819675517061343 0.051231004864571036
-0.4550918979887575 0.20581865043875505 0.051231004864571036
-0.47813820375917787 0.20379999591871836 0.052760288591871686
0.27784791399461456 0.4273889232687066 0.052760288591871686
0.04103832882211239 -0.1739866096549924 0.052760288591871686
0.058839191407891726 -0.08683273003612962 0.053754323014617064
-0.42183762333860525 0.21800704174534102 0.05428957231917229
0.25788311493470495 0.423305735716814 0.05428957231917229
0.12245739446359781 -0.14888341727135257 0.05428957231917229
0.13467637144472983 -0.1848062920256444 0.055283606741917714
0.3587776088433638 0.4802333224655798 0.05581885604647294
0.133965254511535 -0.07729764599641022 0.05581885604647294
0.6459388607372394 -0.09858527548043489 0.05581885604647294
0.29144324633031726 0.4358152766061331 0.057348139773773586
0.26112519643658233 0.4551071908260305 0.057348139773773586
0.03651164898930254 -0.15277544435733267 0.057348139773773586
0.022549288559047746 -0.1579214840996993 0.05773046070559872
0.27740442171369745 0.4376351242416208 0.05887742350107418
0.6732748073627379 -0.09398213146126008 0.05887742350107418
0.13433228260608718 -0.07769525976550831 0.05887742350107418
0.13478342130564083 -0.1849362811424649 0.05987145792381961
0.30294345995961797 0.460023838009302 0.06040670722837483
0.11084248455474949 -0.1799202305169188 0.06040670722837483
0.07837579102415719 -0.16813709939806748 0.0614007416511202
0.32224302059815185 0.45878511819018847 0.061935990955675424
0.13004264175100896 -0.15620103990648615 0.061935990955675424
0.08357535569697938 -0.1844163246751827 0.06293002537842085
0.03916495625616909 -0.05164391147094214 0.06346527468297608
0.312654411627977 -0.37433042435001124 0.06346527468297608
0.1437297311103495 -0.0471401708940418 0.06445930910572151
0.12591357568729722 -0.17534767217228994 0.06499455841027672
0.32226595985406126 0.3859071021656772 0.0659885928330221
0.29031157637211485 0.3924677293557967 0.06652384213757732
0.30437334024464413 -0.3153459509880259 0.06652384213757732
0.14169578375303976 -0.0435387077162488 0.06751787656032275
0.1398529968616425 -0.07809287353460653 0.06805312586487797
0.6506414081986889 -0.07949216814508656 0.06805312586487797
0.29797328784589083 -0.32791666322643714 0.06904716028762334
0.03620579224384237 -0.15309659394006583 0.06958240959217857
0.3080512676088021 0.40483963470965895 0.070576444014924
0.6472387519054448 -0.07876575837461876 0.07111169331947921
0.03851501067206637 -0.17239615457859975 0.07111169331947921
0.1232679148390671 -0.0892413519066281 0.07210572774222465
0.3146883589852868 -0.32426167511818865 0.07264097704677987
-0.40910633630882753 0.12529421577774044 0.07264097704677987
0.3155218186166657 0.37650965366141476 0.07417026077408047
0.13845370225116238 -0.07719059613549908 0.07417026077408047
0.10252318107823412 -0.17806215078824858 0.0751642951968259
0.6446466159876703 -0.08135789429239332 0.07569954450138111
0.044869184559000394 -0.18055488326374855 0.07569954450138111
0.6414274737417025 -0.09674248858903764 0.07722882822868171
0.046459639635393034 -0.17547001487047403 0.07722882822868171
0.14386736664580657 -0.04545795879401112 0.07748880646232285
0.2987302832909048 -0.29944904664273597 0.07875811195598235
-0.43062335835194737 0.11318993507615598 0.07875811195598235
0.6628450923425478 -0.07752703855550531 0.08028739568328301
0.023826240471343785 -0.07670122534276294 0.08028739568328301
0.1287198113268939 -0.0457867547953807 0.0818166794105836
0.04733897777859097 -0.0471401708940418 0.08213782899331674
0.12824573337143072 -0.058120428056060255 0.08334596313788425
0.2879029545016162 0.3657664354771278 0.08446234025881372
0.1272822846232313 -0.04341636501806481 0.08487524686518484
0.29240669507851674 0.38715346840342707 0.0864045305924855
0.025630795269558557 -0.07840637669870314 0.0864045305924855
0.3080512676088021 -0.3782683299478103 0.08678685152431063
0.03649635615202946 -0.17597467850048326 0.08793381431978615
0.3120656373929663 0.39366057066309124 0.08946309804708674
-0.41962016193401935 0.13850722718161793 0.08946309804708674
0.31805278318534813 0.3730381796004422 0.0909923817743874
-0.4177162036935301 0.13463813935154734 0.0909923817743874
0.3176245837417039 -0.37168476350178115 0.09252166550168799
-0.40941983947292415 0.13280299887878652 0.09252166550168799
0.13008852026282797 -0.18312407992561372 0.09405094922898864
0.1469106412631348 -0.18813248413252318 0.09431092746262974
0.03773507597114302 -0.18000434112192043 0.09558023295628928
0.03632048852338992 -0.18813248413252318 0.0966354387281267
0.03592287475429182 -0.1581279374028849 0.09710951668358989
-0.4231375145068108 0.10812035952015453 0.09863880041089053
0.126747035318676 -0.1762346567341243 0.09863880041089053
0.2913056107948602 0.36804506823080574 0.10016808413819113
