0.27540578626277384 0.08522892514448178 -0.15715023467205352
0.4521162097184765 0.003586034610335588 -0.15648986932422948
0.09871208091714255 0.08065652203992792 -0.15648986932422948
0.11212000519448158 0.10975439261936501 -0.15547842366490405
0.4760481842858219 0.06054463562391931 -0.15547842366490405
0.4649306410882776 0.0474794326030459 -0.15547842366490405
0.3886124686119027 0.010983798316972194 -0.15547842366490405
0.11632460987746258 0.07124422606967616 -0.15547842366490405
0.19949720748315053 0.15611371184762074 -0.15547842366490405
0.31739331970733364 0.20377704366145324 -0.15547842366490405
0.3419104281271812 0.016500774640565534 -0.15547842366490405
0.11418469178831121 0.049761454627804944 -0.15547842366490405
0.5997538397598494 0.13570089945032535 -0.15419948824443466
0.09331213136404963 0.05863877107576892 -0.15419948824443466
0.204780130265743 0.1483481497194114 -0.15380661265775453
0.1183140649759705 0.0355677791771057 -0.15380661265775453
0.3163651559379368 0.011802985710475443 -0.15380661265775453
0.3717271774396926 0.007297455046207513 -0.15380661265775453
0.11318996423905726 0.08382460389847615 -0.15380661265775453
0.2027823161121993 0.15636448349869317 -0.15380661265775453
0.5163806248333036 0.11222867290994622 -0.15380661265775453
0.17542312898019768 0.03170589575059031 -0.15380661265775453
0.40222101021009965 0.12492607750924677 -0.15380661265775453
0.27540578626277384 0.10514019423963232 -0.15380661265775453
0.12841180345915362 0.12281123658520264 -0.15213480165060503
0.12757589795557878 0.12990807431055232 -0.15213480165060503
0.10667826036620996 0.11237913590058968 -0.15213480165060503
0.11244600834087574 0.07641012208176809 -0.15213480165060503
0.1951672169746333 0.10165446828972571 -0.15213480165060503
0.3336098864766838 0.014854040798523368 -0.15213480165060503
0.28767687905525124 0.15178372133910364 -0.15213480165060503
0.39788266064654665 0.20378540271648893 -0.15213480165060503
0.5447011032944163 0.14670977493240478 -0.15190910716463984
0.09331213136404963 0.014594910092415144 -0.15190910716463984
0.2042451507434551 0.08007138818742553 -0.15046299064345553
0.11386704769695284 0.03528357130589023 -0.15046299064345553
0.49253224081631586 0.1611960173093553 -0.15046299064345553
0.11745308230728854 0.0958532840949169 -0.15046299064345553
0.19744923899939246 0.15297906620921542 -0.15046299064345553
0.23118638512366937 0.1579527039554853 -0.15046299064345553
0.41908958327223816 0.02631430525253319 -0.15046299064345553
0.40128479604609585 0.021432617111656605 -0.15046299064345553
0.5336922278123367 0.16872752589656376 -0.14961872608484503
0.09331213136404963 0.12469202396824579 -0.14961872608484503
0.1357761309456472 0.11853975946193568 -0.14879117963630598
0.44847166172289066 0.035910500433571316 -0.14879117963630598
0.3412333446692856 0.22043664034769792 -0.14879117963630598
0.11224539102001779 0.0742785630476525 -0.14879117963630598
0.28624748064413835 0.11598188862099697 -0.14879117963630598
0.25531061795683685 0.20612593812649824 -0.14879117963630598
0.20957822785626207 0.06954733789741938 -0.14879117963630598
0.19536783429549123 0.07951969055506616 -0.14879117963630598
0.46742999854396616 0.17556523291580534 -0.14879117963630598
0.2474447471681984 0.23478913784407654 -0.14731998595001444
0.09331213136404963 0.06964764655784836 -0.14731998595001444
0.2611034430966098 0.13570089945032535 -0.14731998595001444
0.20581665309017566 0.07536524020229965 -0.1471193686291565
0.2013194814809435 0.1541409748591844 -0.1471193686291565
0.39056848749026757 0.047044761741187095 -0.1471193686291565
0.3873586103565405 0.19900402323604133 -0.1471193686291565
0.1164583547580346 0.15185895283442524 -0.1471193686291565
0.48004381259290907 0.05633167188590251 -0.1471193686291565
0.36290837437697904 0.22096326081495016 -0.1471193686291565
0.3373129478575201 0.21366580576874253 -0.1471193686291565
0.39878543859040744 0.20427858696359802 -0.1471193686291565
0.4036253314561052 0.16688853378869933 -0.1471193686291565
0.22619602926732815 0.03849344843961729 -0.1471193686291565
0.11695153900514367 0.0923006857047241 -0.1471193686291565
0.3926749693592759 0.20569126726463943 -0.14544755762200698
0.2608275942804302 0.20099347833454922 -0.14544755762200698
0.3675978042520333 0.012697404599300422 -0.14544755762200698
0.37841442146829074 0.21693419628771984 -0.14544755762200698
0.10233155174762129 0.19067840442043682 -0.14544755762200698
0.40696059441536847 0.048933908179266024 -0.14544755762200698
0.40491262593161026 0.2078311853537908 -0.14544755762200698
0.27134328551540055 0.15178372133910364 -0.14544755762200698
0.31241132290602824 0.05455955221832413 -0.14544755762200698
0.1433828710281774 0.21277138687991753 -0.14502960487021962
0.11745308230728854 0.01935121240775551 -0.14502960487021962
0.5667188542585752 0.04762989559368936 -0.14502960487021962
0.5116744768481777 0.027726985553574494 -0.14436088046735981
0.19240036975780095 0.003586034610335588 -0.14436088046735981
0.20389407043195382 0.21794564194704527 -0.14436088046735981
0.38110603718980135 0.15821183466159341 -0.14436088046735981
0.4346039894185856 0.23478913784407654 -0.14436088046735981
0.3875257914572554 0.17569061874134156 -0.14377574661485748
0.11147635795672903 0.11186923354340914 -0.14377574661485748
0.39208147645173785 0.2120357900367718 -0.14377574661485748
0.29196507428858964 0.012655609324121724 -0.14377574661485748
0.14416026314650196 0.024542185584954683 -0.14377574661485748
0.484950577898893 0.04902585778465921 -0.14377574661485748
0.5035243981883238 0.14726147256476413 -0.14377574661485748
0.2695293705726433 0.14726147256476413 -0.14377574661485748
0.19802601379685894 0.14952677647945173 -0.14377574661485748
0.19957243897847224 0.009370500695072939 -0.1433577938630701
0.19240036975780095 0.2224511726113132 -0.14268906946021032
0.3681411428293569 0.06964764655784836 -0.14268906946021032
0.2584536226502778 0.13570089945032535 -0.14268906946021032
0.359497879922394 0.1976414972652145 -0.14268906946021032
0.5336922278123367 0.02560378557449458 -0.14268906946021032
0.396152336254147 0.16204028186796576 -0.14210393560770798
0.11588993901560378 0.12231805233809355 -0.14210393560770798
0.43328325872293744 0.2030916011485219 -0.14210393560770798
0.3985179488292634 0.05817902304880275 -0.14210393560770798
0.5077707981464836 0.15390692131818343 -0.14210393560770798
0.5041931225911838 0.16226597635393097 -0.14210393560770798
0.5271721648844536 0.11165189811247973 -0.14210393560770798
0.26740617059356353 0.07660238034759025 -0.14210393560770798
0.19930494921732836 0.1530292205394299 -0.14210393560770798
0.21685896479239813 0.22378026236199697 -0.1416859828559206
0.3012854206534482 0.09033630777132344 -0.1410172584530608
0.3886960591622601 0.043007338158921 -0.1410172584530608
0.33552411007987015 0.23346004809339274 -0.1410172584530608
0.3990111330763726 0.1642470723974032 -0.14043212460055846
0.19822663111771688 0.19778360120082228 -0.14043212460055846
0.3607851743978991 0.008827162117749369 -0.14043212460055846
0.47275471660173735 0.18199334623829513 -0.14043212460055846
0.319633546456914 0.2224428135562774 -0.14043212460055846
0.47231168668484275 0.17886705965492558 -0.14043212460055846
0.4027309125672802 0.1742110660000142 -0.14043212460055846
0.28874683809982693 0.07052534733660189 -0.14043212460055846
0.1985275570990038 0.1573759291580187 -0.14043212460055846
0.2600836383822486 0.23478913784407654 -0.13934544744591132
0.37960140728336683 0.16872752589656376 -0.13934544744591132
0.5777360887956905 0.05863877107576892 -0.13934544744591132
0.39801640552711864 0.061572799393316294 -0.13876031359340898
0.3768596372316416 0.21184353177094953 -0.13876031359340898
0.33822408485641653 0.22176573009838194 -0.13876031359340898
0.39122885283809156 0.05445088450285937 -0.13876031359340898
0.4943963100892877 0.17011512903249795 -0.13876031359340898
0.21746917581000774 0.21807938682761727 -0.13876031359340898
0.41849609036470004 0.022753347807304723 -0.13876031359340898
0.20463802633013534 0.14830635444423257 -0.13876031359340898
0.19866130197957582 0.07480518351490462 -0.13876031359340898
0.2474447471681984 6.854425129312441E-4 -0.13834236084162158
0.5557099787764956 0.19075363591575856 -0.1376736364387618
0.2584536226502778 0.13570089945032535 -0.1376736364387618
0.2600836383822486 -0.007422840871743849 -0.1376736364387618
0.11747815947239579 0.03372878706924125 -0.13708850258625946
0.11987720826765538 0.10379438637887696 -0.13708850258625946
0.3976235299404384 0.17054979989435676 -0.13708850258625946
0.25429081324247566 0.21359893332845659 -0.13708850258625946
0.19118830677761747 0.21132527035873322 -0.13708850258625946
0.09984055334696851 0.029448950890938512 -0.13708850258625946
0.48352117948778 0.05466821993378877 -0.13708850258625946
0.4058070448204353 0.05551248449239927 -0.13708850258625946
0.28948243494297266 0.06790896311041289 -0.13708850258625946
0.29591890732049825 0.07055878355674479 -0.13708850258625946
0.2860217861581732 0.2301164260790937 -0.1360018254316123
0.48965672588401876 0.016718110071495058 -0.1360018254316123
0.2611034430966098 0.08368249996286847 -0.1360018254316123
0.35748334765877887 0.009027779438607317 -0.13541669157910996
0.3995544716536962 0.04951068297673251 -0.13541669157910996
0.17197919830546965 0.022118059624587967 -0.13541669157910996
0.10410367141519979 0.1067451328064959 -0.13541669157910996
0.26499040368823246 0.21607321361903778 -0.13541669157910996
0.10098574388686592 0.10847545719889559 -0.13541669157910996
0.3219824409219591 -4.263118068231401E-4 -0.13541669157910996
0.4084568652667673 0.023188018669163653 -0.13541669157910996
0.20085973345397734 0.08007138818742553 -0.13541669157910996
0.31114910559563025 0.1691538377033869 -0.13541669157910996
0.27540578626277384 0.10514019423963232 -0.13541669157910996
0.5226833523302572 0.17973640137864333 -0.1343300144244628
0.39136259771866355 0.08065652203992792 -0.1343300144244628
0.2860217861581732 -0.00469778893009021 -0.1343300144244628
0.39781578820626073 0.16635355426641155 -0.13374488057196046
0.3574164752184929 0.21538777110610655 -0.13374488057196046
0.4033411235848898 0.17172006759936143 -0.13374488057196046
0.339135221855313 0.0045807621595895425 -0.13374488057196046
0.11168533433262277 0.19624553507424464 -0.13374488057196046
0.2996637639765132 0.21889021516608484 -0.13374488057196046
0.40670146370926025 0.22345425921560294 -0.13374488057196046
0.43402721462111893 0.026180560371961183 -0.13374488057196046
0.4120763360972459 0.17730391636324083 -0.13374488057196046
0.2890477640811139 0.06914610325570349 -0.13374488057196046
0.2826029326485525 0.1606944740072104 -0.13374488057196046
0.3084825670392268 0.17973640137864333 -0.13265820341731327
0.5336922278123367 0.049744736517733486 -0.13265820341731327
0.3010680852225188 0.09166539752200735 -0.13265820341731327
0.12776815622140095 0.11742800514218119 -0.13207306956481094
0.13110341918066423 0.11718559254614454 -0.13207306956481094
0.400582635423093 0.010574204620220629 -0.13207306956481094
0.2862224034790311 0.21797071911215252 -0.13207306956481094
0.11709364294075146 0.027927602874432442 -0.13207306956481094
0.10493121786373871 0.04029900432733882 -0.13207306956481094
0.2781057610393204 0.22367159464653222 -0.13207306956481094
0.10043404625450657 0.19895386890582684 -0.13207306956481094
0.4157292431478677 0.01500450378916671 -0.13207306956481094
0.4135893250587163 0.2065104546581427 -0.13207306956481094
0.2712178996898643 0.07518970004654894 -0.13207306956481094
0.2816834365946203 0.06766655051437624 -0.13207306956481094
0.4676389749198599 0.21277138687991753 -0.13098639241016377
0.3024974836336316 0.09166539752200735 -0.13098639241016377
0.5226833523302572 0.04762989559368936 -0.13098639241016377
0.11416797367823976 0.031739331970733344 -0.13040125855766144
0.3723039522371592 0.011050670757258137 -0.13040125855766144
0.4984504517816251 0.058655489185840376 -0.13040125855766144
0.2632935155159757 0.012003603031333392 -0.13040125855766144
0.24046493621334925 0.21387478214463626 -0.13040125855766144
0.28785241921100196 0.0020563275387938513 -0.13040125855766144
0.3482047965690991 -0.004246399958159826 -0.13040125855766144
0.5222737586335056 0.13876031359340893 -0.13040125855766144
0.20093496494929908 0.1489583607370209 -0.13040125855766144
0.31119925992584474 0.16591052434951695 -0.13040125855766144
0.27540578626277384 0.1421373718278509 -0.13040125855766144
0.2584536226502778 0.05863877107576892 -0.12931458140301427
0.3255684755322948 0.04762989559368936 -0.12931458140301427
0.5336922278123367 0.16872752589656376 -0.12931458140301427
0.10116964309765242 0.03670461066196733 -0.12872944755051194
0.1109580965445127 0.12791861921204442 -0.12872944755051194
0.2892901766771505 0.06743249697337525 -0.12872944755051194
0.3221245448575668 0.06739070169819655 -0.12872944755051194
0.41086427311706253 0.20653553182324993 -0.12872944755051194
0.30694450091264924 0.22189947497895385 -0.12872944755051194
0.37245441522780265 0.00718878733074287 -0.12872944755051194
0.1800206092498588 0.2050392609718511 -0.12872944755051194
0.5492735063989702 0.11212000519448158 -0.12872944755051194
0.41384845576482443 0.1777135100599924 -0.12872944755051194
0.4134555801781443 0.04736240583254547 -0.12872944755051194
0.3149524756368954 0.23832501812419776 -0.12764277039586477
0.3918892181859157 0.14670977493240478 -0.12764277039586477
0.5447011032944163 0.06964764655784836 -0.12764277039586477
0.26708852650220505 0.1512571008718515 -0.12705763654336244
0.31111566937548735 0.16599411489987434 -0.12705763654336244
0.3107478709539144 0.17258940932307915 -0.12705763654336244
0.4271811485468417 0.0139512628546626 -0.12705763654336244
0.2807472224306165 0.22035304979734052 -0.12705763654336244
0.22778424972412015 0.011117543197544199 -0.12705763654336244
0.3951659677599287 0.17776366439020688 -0.12705763654336244
0.31242804101609967 0.232189471727959 -0.12705763654336244
0.5095596359241337 0.15153294968803122 -0.12705763654336244
0.3292464597480237 -0.010114456593254577 -0.12663968379157506
0.3800862324754401 0.17973640137864333 -0.12597095938871525
0.3920229630664876 0.09166539752200735 -0.12597095938871525
0.5777277297406548 0.13570089945032535 -0.12597095938871525
0.20581665309017566 0.0784915267856693 -0.12538582553621294
0.2044206908992058 0.15634776538862172 -0.12538582553621294
0.40547268261900543 0.00723058260592157 -0.12538582553621294
0.3058829009231093 0.005550412543736252 -0.12538582553621294
0.2927424664069142 0.220771002549128 -0.12538582553621294
0.3675810861419619 -0.002382330685188136 -0.12538582553621294
0.4055311960042557 0.04942709242637511 -0.12538582553621294
0.4055646322243986 0.20979556328719146 -0.12538582553621294
0.5055890847821536 0.16205699997803735 -0.12538582553621294
0.5116744768481777 0.19075363591575856 -0.12429914838156575
0.2584536226502778 0.1436503607893212 -0.12429914838156575
0.4346039894185856 -0.005299640892663936 -0.12429914838156575
0.10236498796776432 0.11364135321098764 -0.12371401452906342
0.2890143278609708 0.07597545121990928 -0.12371401452906342
0.3144592913897863 0.1714191416180745 -0.12371401452906342
0.4052637062431117 0.2204867946779124 -0.12371401452906342
0.37303119002526924 0.001446116521184219 -0.12371401452906342
0.3925328654236682 0.17649308802477323 -0.12371401452906342
0.2546502526090127 0.2197428387797309 -0.12371401452906342
0.5530601583301639 0.11560573114438831 -0.12371401452906342
0.41923168720784587 0.04861626408790753 -0.12371401452906342
0.47318102840856036 0.04961935069219727 -0.12371401452906342
0.4346039894185856 0.0013458078607553635 -0.12262733737441625
0.30080059546137483 0.08065652203992792 -0.12262733737441625
0.5557099787764956 0.18185960135772325 -0.12262733737441625
0.2042451507434551 0.14726147256476413 -0.12204220352191392
0.2827366775291244 0.15759326458894812 -0.12204220352191392
0.27540578626277384 0.12222610273270036 -0.12204220352191392
0.26514086667887593 0.008768648732499095 -0.12204220352191392
0.3111073103204516 0.2242650875540705 -0.12204220352191392
0.41976666673013363 0.005993442460630967 -0.12204220352191392
0.40867420069769667 0.01833976674842998 -0.12204220352191392
0.4082228117257663 0.21010484832351406 -0.12204220352191392
0.46385232298866624 0.19611179019367275 -0.12204220352191392
0.423595113936506 -0.007422840871743849 -0.12095552636726674
0.3266969479621207 0.16872752589656376 -0.12095552636726674
0.3436992659048312 0.24319834721003855 -0.12095552636726674
0.1276929247260792 0.11734441459182378 -0.1203703925147644
0.2682337170421024 0.15398215281350516 -0.1203703925147644
0.28533634364524196 0.17135226917778856 -0.1203703925147644
0.4132382447472149 0.21626547188486006 -0.1203703925147644
0.34801253830327694 -5.684157424309327E-4 -0.1203703925147644
0.3928003551848121 0.17659339668520221 -0.1203703925147644
0.343239517877865 0.23404518194589502 -0.1203703925147644
0.5547988417775993 0.10926120837225593 -0.1203703925147644
0.4202682100322785 0.1707504172152147 -0.1203703925147644
0.35579481854155787 -0.013499873882732334 -0.11995243976297704
0.2584536226502778 0.17973640137864333 -0.11928371536011723
0.3842574009382782 0.2017625113978381 -0.11928371536011723
0.5447011032944163 0.08065652203992792 -0.11928371536011723
0.2666204194202032 0.1517419260639248 -0.1186985815076149
0.2887719152649342 0.16360342515965054 -0.1186985815076149
0.2846759782974178 0.055972232519365436 -0.1186985815076149
0.4045531865650732 0.07174576937182103 -0.1186985815076149
0.409560260531486 0.006118828286167185 -0.1186985815076149
0.39689629215232847 0.16754889913652343 -0.1186985815076149
0.3643461318431276 0.224415550544714 -0.1186985815076149
0.42948824773670813 0.2229443568584223 -0.1186985815076149
0.4201428242067423 0.01853202501425226 -0.1186985815076149
0.357541861044029 0.24579801332615608 -0.11828062875582752
0.3638195113758754 -0.018431716353823405 -0.11761190435296771
0.2611034430966098 0.13438016875467723 -0.11761190435296771
0.5667188542585752 0.17085072587564368 -0.11761190435296771
0.20214702792948255 0.07714571892491394 -0.11702677050046541
0.2965207592830721 0.165442417267515 -0.11702677050046541
0.29582695771510503 0.06897892215498858 -0.11702677050046541
0.4111317628782064 0.006720680248740911 -0.11702677050046541
0.3373213069125558 0.2275418371280835 -0.11702677050046541
0.35298617604954674 -0.008634903851927207 -0.11702677050046541
0.41294567782096364 0.04728717433722374 -0.11702677050046541
0.39641982601529085 0.17788069116070743 -0.11702677050046541
0.4225836682771806 0.21594782779350158 -0.11702677050046541
0.48965672588401876 0.22589510328604123 -0.11594009334581822
0.2584536226502778 0.10267427300408691 -0.11594009334581822
0.3685507365261086 -0.018431716353823405 -0.11594009334581822
0.1236722192538847 0.11375002092645228 -0.1153549594933159
0.2700225548197524 0.07458784808397509 -0.1153549594933159
0.285369779865385 0.06482447180222205 -0.1153549594933159
0.5510038307913698 0.11782923978389707 -0.1153549594933159
0.3548502453225184 -0.001696888172256773 -0.1153549594933159
0.39412108588046024 0.22573628124036196 -0.1153549594933159
0.36629379166645676 0.23359379297396463 -0.1153549594933159
0.5388330466593215 0.08025528739821201 -0.1153549594933159
0.48050356061987526 0.038418216944295557 -0.1153549594933159
0.42314372496457575 0.17938532106714192 -0.1153549594933159
0.27687697994906546 0.16872752589656376 -0.11426828233866872
0.40453646845500174 0.2017625113978381 -0.11426828233866872
0.5447011032944163 0.06964764655784836 -0.11426828233866872
0.20480520743085023 0.07885932520724216 -0.11368314848616638
0.3143422646192858 0.16692197000884235 -0.11368314848616638
0.19196569889594203 0.07544047169762137 -0.11368314848616638
0.4049460621517533 0.06442323716050614 -0.11368314848616638
0.3176775275785491 0.22688147178025939 -0.11368314848616638
0.3690272026631462 -0.009704862896502893 -0.11368314848616638
0.4124608526288903 0.013667054983447134 -0.11368314848616638
0.396018591373575 0.1782484895822803 -0.11368314848616638
0.42436414699979486 0.18015435413043068 -0.11368314848616638
0.39340220714738594 0.23987144330581106 -0.1125964713315192
0.3024974836336316 0.12469202396824579 -0.1125964713315192
0.4786478504019392 0.0014711936862914624 -0.1125964713315192
0.2647145548720528 0.14884133396652047 -0.11201133747901687
0.20446248617438462 0.07233926227935908 -0.11201133747901687
0.3216815149406722 0.0669727489464092 -0.11201133747901687
0.33290772585368117 -0.0018055558877215347 -0.11201133747901687
0.3456385666731246 0.23105264024309738 -0.11201133747901687
0.5577579472602539 0.11394227919227456 -0.11201133747901687
0.37724415376328607 -0.012154066021976972 -0.11201133747901687
0.5434221678739468 0.09969844941136072 -0.11201133747901687
0.42525020683358405 0.17829864391249478 -0.11201133747901687
0.40681849047976076 0.043726216891995275 -0.1109246603243697
0.39320158982652803 0.08065652203992792 -0.1109246603243697
0.5777360887956905 0.15771865041448432 -0.1109246603243697
0.3106809985136284 0.06092915215556363 -0.11033952647186737
0.29198179239866123 0.1521933150358552 -0.11033952647186737
0.4172087958891949 0.2206288986135203 -0.11033952647186737
0.38887995837304656 -8.359055035748242E-4 -0.11033952647186737
0.3599910641695031 4.430299168945962E-4 -0.11033952647186737
0.4171084872287659 0.048089643620655535 -0.11033952647186737
0.39580961499768125 0.18026302184589543 -0.11033952647186737
0.5316609774386502 0.0819939708456475 -0.11033952647186737
0.5336922278123367 0.05863877107576892 -0.1092528493172202
0.32648797158622705 0.16740679520091578 -0.1092528493172202
0.39248271109345373 0.24313983382478827 -0.1092528493172202
0.47369093076574104 0.1994052578777572 -0.10866771546471787
0.3614706169108305 0.23356871580885752 -0.10866771546471787
0.5589616511854015 0.10959557057368577 -0.10866771546471787
0.4172756683294809 -0.00264146139129624 -0.10866771546471787
0.43328325872293744 0.01807227698728609 -0.10866771546471787
0.5321458026307234 0.14637541273097493 -0.10866771546471787
0.26610215800798687 0.15513570240843835 -0.10866771546471787
0.2831044759506974 0.17118508807707364 -0.10866771546471787
0.5667188542585752 0.04762989559368936 -0.1075810383100707
0.3004077198746947 0.08065652203992792 -0.1075810383100707
0.4234697281109698 0.2171849679387923 -0.10699590445756836
0.38079675215347875 -0.002808642492011276 -0.10699590445756836
0.3945557567423192 0.17599154472262837 -0.10699590445756836
0.36129507675507977 0.22778424972412015 -0.10699590445756836
0.40750393299269205 0.23265757880996096 -0.10699590445756836
0.4314693437801802 0.022118059624587967 -0.10699590445756836
0.20478848932077878 0.07887604331731363 -0.10699590445756836
0.2962532695219282 0.16569318891858742 -0.10699590445756836
0.29662106794350107 0.15909789449538272 -0.10699590445756836
0.3936028244682439 0.09166539752200735 -0.10590922730292118
0.28485151845316853 0.03661266105657414 -0.10590922730292118
0.5475181048414631 0.09537681795787928 -0.10532409345041886
0.3589294641799632 0.23233993471860245 -0.10532409345041886
0.4001897598364129 -0.00403742358226609 -0.10532409345041886
0.370490037294402 0.002775206271868126 -0.10532409345041886
0.4154951896068667 0.05747686242579993 -0.10532409345041886
0.20162040746223042 0.14961872608484503 -0.10532409345041886
0.19829350355800296 0.15149115441285238 -0.10532409345041886
0.19538455240556282 0.06693931272626617 -0.10532409345041886
0.2611034430966098 0.13570089945032535 -0.10423741629577167
0.3269059243380144 0.06964764655784836 -0.10423741629577167
0.46477181904259834 0.2063683507225349 -0.10365228244326935
0.36770647196749806 -0.006846066074277248 -0.10365228244326935
0.3794927395679021 -0.010657795170578147 -0.10365228244326935
0.37655871125035467 0.002900592097404344 -0.10365228244326935
0.48606233221864725 0.19062825009022233 -0.10365228244326935
0.2695293705726433 0.08007138818742553 -0.10365228244326935
0.2883205262930038 0.06973123710820588 -0.10365228244326935
0.2013612767561222 0.15876353229395276 -0.10365228244326935
0.2804713736144368 0.17603333999780718 -0.10256560528862217
0.4971882344712274 0.2017625113978381 -0.10256560528862217
0.5546567378419917 0.08065652203992792 -0.10256560528862217
0.5333662246659427 0.07420333155233078 -0.10198047143611985
0.39424647170599647 0.050179407379592415 -0.10198047143611985
0.39903621024147984 0.16414676373697423 -0.10198047143611985
0.39713870474836516 0.17852433839845996 -0.10198047143611985
0.43561543507791095 0.017219653373639808 -0.10198047143611985
0.20286590666255683 0.07278229219625368 -0.10198047143611985
0.31403297958296317 0.1672145369350935 -0.10198047143611985
0.3212301259687418 0.16059416534678142 -0.10198047143611985
0.3024974836336316 0.13570089945032535 -0.10089379428147266
0.525868152298877 0.04762989559368936 -0.10089379428147266
0.40668474559918877 0.0552784309513984 -0.10030866042897034
0.41037944792498926 0.226697572569473 -0.10030866042897034
0.4269805312259838 0.21334816167738416 -0.10030866042897034
0.4216976084433914 0.2154462844913568 -0.10030866042897034
0.46618449934363976 0.05863041202073313 -0.10030866042897034
0.4411909247867546 0.20386063421181067 -0.10030866042897034
0.2881867814124318 0.06889533160463104 -0.10030866042897034
0.28017044763315 0.15881368662416726 -0.10030866042897034
0.2804713736144368 0.1761587258233434 -0.09922198327432316
0.48965672588401876 0.21277138687991753 -0.09922198327432316
0.42996471387374563 -0.007422840871743849 -0.09922198327432316
0.4247820997515822 0.004037423582265972 -0.09863684942182083
0.42575175013572897 0.050722745956915984 -0.09863684942182083
0.39844271733394165 0.04912616644508819 -0.09863684942182083
0.40683520858983224 0.057777788407086854 -0.09863684942182083
0.43942716417421185 0.05965857579013012 -0.09863684942182083
0.19846904371375365 0.15011191033195412 -0.09863684942182083
0.28900596880593504 0.06473252219682886 -0.09863684942182083
0.3100039150557328 0.054041290806107686 -0.09863684942182083
0.3001485891685865 0.09166539752200735 -0.09755017226717366
0.3940792906052815 0.09166539752200735 -0.09755017226717366
0.5997538397598494 0.13570089945032535 -0.09755017226717366
0.42245828245164435 0.0029173102074758 -0.09696503841467133
0.5661922337913232 0.11500387918181447 -0.09696503841467133
0.5679810715689732 0.12013633897376348 -0.09696503841467133
0.45590286164967014 0.16077806455756793 -0.09696503841467133
0.44446767436076756 0.1985777114292183 -0.09696503841467133
0.19861114764936133 0.07218879928871562 -0.09696503841467133
0.31211875597977695 0.16703899677934278 -0.09696503841467133
0.32112145825327704 0.16071955117231765 -0.09696503841467133
0.2611034430966098 0.10267427300408691 -0.09587836126002415
0.3848007395156018 0.06752444657876844 -0.09587836126002415
0.5667188542585752 0.17085072587564368 -0.09587836126002415
0.3889551898683683 -0.004296554288374313 -0.09529322740752182
0.3992033913421948 -0.006469908597668595 -0.09529322740752182
0.3824351269404852 -0.013165511681302382 -0.09529322740752182
0.5512796796075496 0.0966975486535274 -0.09529322740752182
0.4277662823993441 0.1530292205394299 -0.09529322740752182
0.2001742909410461 0.15269485833800006 -0.09529322740752182
0.2936953986809895 0.061748339549067 -0.09529322740752182
0.19721518545839148 0.0657774040762973 -0.09529322740752182
0.2611034430966098 0.13438016875467723 -0.09420655025287465
0.5502682339482241 0.15771865041448432 -0.09420655025287465
0.3940792906052815 0.13295077034356445 -0.09420655025287465
0.49228146916524346 0.1936625870681987 -0.09362141640037232
0.3952161220901432 0.17666862818052395 -0.09362141640037232
0.43260617526504186 0.21692583723268408 -0.09362141640037232
0.5015516611998875 0.1951254216994545 -0.09362141640037232
0.42759910129862905 0.08587257238223434 -0.09362141640037232
0.46214707576137365 0.17728719825316924 -0.09362141640037232
0.2017123570676236 0.07756367167670129 -0.09362141640037232
0.2799949074773993 0.15549514177497545 -0.09362141640037232
0.2799949074773993 0.0685191741280224 -0.09362141640037232
0.39056848749026757 0.13157152626266605 -0.09320346364858494
0.46802349145150424 0.005700875534379714 -0.09253473924572513
0.38336298204945324 0.16872752589656376 -0.09253473924572513
0.20581665309017566 0.14884133396652047 -0.09194960539322282
0.2927759026270572 0.06191552064978192 -0.09194960539322282
0.19103784378697403 0.07448753942354625 -0.09194960539322282
0.402505218081315 0.061054537981099846 -0.09194960539322282
0.4350637374455516 0.2213310592365229 -0.09194960539322282
0.4350303012254087 0.006018519625738211 -0.09194960539322282
0.5032234722070369 0.03272570046495151 -0.09194960539322282
0.4659922410778176 0.12226789800787906 -0.09194960539322282
0.5887449642777701 0.14670977493240478 -0.09086292823857563
0.3940792906052815 0.14670977493240478 -0.09086292823857563
0.30771353397593804 0.18114072262464884 -0.09086292823857563
0.2728228382567279 0.07946953622485169 -0.0902777943860733
0.19625389412928054 0.0700739583646715 -0.0902777943860733
0.2752302461070231 0.12154901927480478 -0.0902777943860733
0.39917831417708755 0.132800307352921 -0.0902777943860733
0.45387997033101934 0.018774437610288908 -0.0902777943860733
0.5509536764611553 0.08279644012907929 -0.0902777943860733
0.4295300430118868 0.23106935835316894 -0.0902777943860733
0.46516469462927845 0.19999875078529528 -0.0902777943860733
0.3949151961088562 0.08065652203992792 -0.08919111723142613
0.5557099787764956 0.19075363591575856 -0.08919111723142613
0.2584536226502778 0.10267427300408691 -0.08919111723142613
0.2914133766562304 0.06935507963159722 -0.08860598337892381
0.4312854445693937 0.05037166564541458 -0.08860598337892381
0.5478942623180719 0.08321439288086664 -0.08860598337892381
0.4200341564912777 0.0040207054721945155 -0.08860598337892381
0.5691429802189419 0.10358541000298334 -0.08860598337892381
0.4775277370271492 0.030794758751693876 -0.08860598337892381
0.2584536226502778 0.13570089945032535 -0.08751930622427662
0.5116744768481777 0.2004334216471542 -0.08751930622427662
0.38317908283866675 0.04762989559368936 -0.08751930622427662
0.29609444747624897 0.15959107874249182 -0.08693417237177428
0.3993622133878739 0.04876672707855099 -0.08693417237177428
0.5419008198574409 0.15221003314592665 -0.08693417237177428
0.39238240243302475 -0.010749744775971333 -0.08693417237177428
0.5691931345491564 0.10245693757315738 -0.08693417237177428
0.47300548825280975 0.13422134670899796 -0.08693417237177428
0.5997538397598494 0.13570089945032535 -0.08584749521712712
0.3024974836336316 0.09166539752200735 -0.08584749521712712
0.32520903616575764 0.17973640137864333 -0.08584749521712712
0.2945647404047072 0.0692714890812397 -0.08526236136462478
0.3895737599410136 0.06250065450228419 -0.08526236136462478
0.5678138904682581 0.11103332803983444 -0.08526236136462478
0.4693609402572238 0.121540660219769 -0.08526236136462478
0.39032607489423093 -0.013616900653232766 -0.08526236136462478
0.49031709123184286 0.08476917711751561 -0.08526236136462478
0.5997538397598494 0.12469202396824579 -0.08417568420997762
0.44022963345764365 0.11368314848616634 -0.08417568420997762
0.2584536226502778 0.14854876704026934 -0.08417568420997762
0.29135486327098015 0.1589307133946677 -0.08359055035747529
0.431678320156074 0.1772119667578475 -0.08359055035747529
0.4662931670591045 0.017060831327960678 -0.08359055035747529
0.4012680779360244 0.23475570162393364 -0.08359055035747529
0.475011661461389 0.21082372705658833 -0.08359055035747529
0.48846974006894267 0.20697020268510874 -0.08359055035747529
0.49006631958077046 0.03224923432791388 -0.08359055035747529
0.5336922278123367 0.02560378557449458 -0.08250387320282812
0.44890633258474955 0.16872752589656376 -0.08250387320282812
0.4378222256073484 0.1838156202360881 -0.08250387320282812
0.32001806298855845 0.17680237306109595 -0.08191873935032579
0.3990696464616228 0.16545077632255079 -0.08191873935032579
0.5138812673776151 0.04582433970596795 -0.08191873935032579
0.43380987919018954 0.22405611117817678 -0.08191873935032579
0.43704483348902384 0.22675608595472305 -0.08191873935032579
0.4873663448042239 0.20801508456457718 -0.08191873935032579
0.4863966944200773 0.08956727470803467 -0.08191873935032579
0.46941945364247406 0.22378026236199697 -0.0808320621956786
0.4571316427399252 0.039973001180944656 -0.0808320621956786
0.2772949327008528 0.17406896206440653 -0.0808320621956786
0.2822518523370511 0.05572981992332867 -0.08024692834317626
0.39596007798832467 0.04951068297673251 -0.08024692834317626
0.4786227732368321 0.02270319347709024 -0.08024692834317626
0.40666802748911735 0.23194705913192235 -0.08024692834317626
0.5647544763251746 0.13140434516195115 -0.08024692834317626
0.5754457077158956 0.12033695629462143 -0.08024692834317626
0.49564180928961404 0.08713478969263218 -0.08024692834317626
0.5667188542585752 0.17973640137864333 -0.07916025118852908
0.44063086809935953 0.11368314848616634 -0.07916025118852908
0.2759491248400974 0.16872752589656376 -0.07916025118852908
0.2811818932924754 0.06253409072242722 -0.07857511733602676
0.40355845901581927 0.06064494428434828 -0.07857511733602676
0.4774441464767915 0.02118184546058417 -0.07857511733602676
0.40151049053206106 0.23461359768832596 -0.07857511733602676
0.5551248449239934 0.08186858502011127 -0.07857511733602676
0.4773689149814699 0.013433001442446272 -0.07857511733602676
0.5100444611162069 0.15256947251246386 -0.07857511733602676
0.4738664709214916 0.16942968651956658 -0.07748844018137958
0.4748779165808171 0.045941366476468376 -0.07748844018137958
0.2996219687013345 0.12469202396824579 -0.07748844018137958
0.295467518348568 0.16643714481676905 -0.07690330632887726
0.4053807330136122 0.13423806481906955 -0.07690330632887726
0.3998553976349831 0.0805729314895704 -0.07690330632887726
0.4963188927475095 0.1960449177533867 -0.07690330632887726
0.43228017211864767 0.2219245521440612 -0.07690330632887726
0.4098277502926299 0.24074914408456446 -0.07690330632887726
0.4482041719617467 0.22734121980722558 -0.07690330632887726
0.5009999635675282 0.08649114245487963 -0.07690330632887726
0.5777360887956905 0.16872752589656376 -0.07581662917423009
0.44088999880546764 0.15771865041448432 -0.07581662917423009
0.3024974836336316 0.12469202396824579 -0.07581662917423009
0.3097615024596962 0.0600598104318459 -0.07523149532172776
0.4011594102205597 0.17231356050689947 -0.07523149532172776
0.3997132936993753 0.17915962658117673 -0.07523149532172776
0.5054302627364744 0.1816088297066508 -0.07523149532172776
0.49412882032814365 0.1916146185844405 -0.07523149532172776
0.4093847203757353 0.2409581204604582 -0.07523149532172776
0.46155358285383563 0.22235086395088421 -0.07523149532172776
0.5283842278646371 0.08201068895571895 -0.07523149532172776
0.2751633736667372 0.05863877107576892 -0.07414481816708059
0.49271614002710246 0.014594910092415144 -0.07414481816708059
0.4767921401840034 0.15592981263683436 -0.07414481816708059
0.2874511845692861 0.1662866818261256 -0.07355968431457825
0.4050798070323253 0.13889405847398092 -0.07355968431457825
0.400089451175984 0.07848316773063352 -0.07355968431457825
0.5626897897313449 0.13210650578495384 -0.07355968431457825
0.44737662551320784 0.2208880293196283 -0.07355968431457825
0.5540883220995607 0.14913390089277162 -0.07355968431457825
0.522691711385293 0.04187050667405937 -0.07355968431457825
0.524079314521227 0.15716695278212497 -0.07355968431457825
0.2757735846843467 0.16872752589656376 -0.07247300715993106
0.32607837788947536 0.1583873748173441 -0.07247300715993106
0.5667188542585752 0.055988950629436894 -0.07247300715993106
0.4879514786567262 0.16872752589656376 -0.07247300715993106
0.3102881229269483 0.17448691481619388 -0.07188787330742873
0.3953916622458939 0.13821697501608535 -0.07188787330742873
0.5063246816252993 0.037833083091793285 -0.07188787330742873
0.5309170215404686 0.05737655376537096 -0.07188787330742873
0.48453262514710554 0.019576906893720703 -0.07188787330742873
0.4465323609545972 0.01298161247051589 -0.07188787330742873
0.5176929964739161 0.08555492829087595 -0.07188787330742873
0.5294458278541769 0.14991965206613184 -0.07188787330742873
0.39056848749026757 0.11368314848616634 -0.07080119615278156
0.4676389749198599 0.045506695614609446 -0.07080119615278156
0.5639687251518142 0.05863877107576892 -0.07080119615278156
0.4951402659874692 0.17981999192900083 -0.07080119615278156
0.31970877795223573 0.05023792076484257 -0.07021606230027923
0.39963806220405357 0.17950234783764235 -0.07021606230027923
0.4343532177675131 0.0017052472272924416 -0.07021606230027923
0.5219728326522188 0.08432614720062102 -0.07021606230027923
0.5182697712713825 0.056749624637689865 -0.07021606230027923
0.46427863479548925 0.12957371210912236 -0.07021606230027923
0.5220564232025763 0.13905288051966005 -0.07021606230027923
0.541365840335153 0.10815781310753722 -0.07021606230027923
0.5490561709680407 0.05771091596680091 -0.06979810954849185
0.39056848749026757 0.10267427300408691 -0.06912938514563206
0.4566300994377803 0.02560378557449458 -0.06912938514563206
0.5695525739156936 0.06964764655784836 -0.06912938514563206
0.4978151635989084 0.17650980613484482 -0.06912938514563206
0.2956179813392114 0.06728203398273179 -0.06854425129312973
0.3991030826817658 0.18154195726636474 -0.06854425129312973
0.460475264754224 0.01084169438136452 -0.06854425129312973
0.5278408892873135 0.06222480568610451 -0.06854425129312973
0.5110809839406396 0.04461227672578447 -0.06854425129312973
0.46572475131667357 0.1338619073424609 -0.06854425129312973
0.47969273228140763 0.09551892189348694 -0.06854425129312973
0.5431881143329459 0.1550186756379378 -0.06854425129312973
0.5540047315492033 0.05860533485562589 -0.06812629854134235
0.39056848749026757 0.15771865041448432 -0.06745757413848257
0.474317859893422 0.003586034610335588 -0.06745757413848257
0.5418757426923337 0.17974476043367912 -0.06745757413848257
0.28749297984446476 0.06881174105427365 -0.06687244028598023
0.40722808417651235 0.058429794699875186 -0.06687244028598023
0.4351807642160522 0.0468608625304006 -0.06687244028598023
0.5740831817450688 0.10971259734418631 -0.06687244028598023
0.5247313208140154 0.17591631322730664 -0.06687244028598023
0.4632504710260924 0.015472610871168668 -0.06687244028598023
0.47668347246853865 0.14721131823454964 -0.06687244028598023
0.45107132783900805 0.22749168279786902 -0.06687244028598023
0.5562783945189266 0.12263569642945193 -0.06687244028598023
0.5496831000957219 0.17973640137864333 -0.06645448753419285
0.3946644244577838 0.13524115142335916 -0.06578576313133307
0.4786478504019392 0.05863877107576892 -0.06578576313133307
0.5167233460897692 0.15708336223176744 -0.06578576313133307
0.5492066339586841 0.04762989559368936 -0.06578576313133307
0.40736182905708435 0.16894486132749328 -0.06520062927883073
0.3997634480295898 0.1417027009659921 -0.06520062927883073
0.4109645817774915 0.2342708764318601 -0.06520062927883073
0.5373116986428154 0.1602096488151371 -0.06520062927883073
0.46562444265624464 0.1057671233673134 -0.06520062927883073
0.41781064785176875 0.24049001337845624 -0.06520062927883073
0.48213357635184595 0.013190588846409506 -0.06520062927883073
0.5490478119130049 0.07411138194693759 -0.06520062927883073
0.5484961142806455 0.13981355452791316 -0.06520062927883073
0.2584536226502778 0.05863877107576892 -0.06411395212418353
0.3070113733529353 0.04553177277971669 -0.06411395212418353
0.48965672588401876 0.17973640137864333 -0.06411395212418353
0.5667188542585752 0.04762989559368936 -0.06411395212418353
0.40157736297234703 0.17263956365329364 -0.0635288182716812
0.39996406535044776 0.17978655570885782 -0.0635288182716812
0.49346845498031955 0.026941234380214278 -0.0635288182716812
0.5549994590984573 0.1469187513082985 -0.0635288182716812
0.5418757426923337 0.1338619073424609 -0.0635288182716812
0.5790066651611241 0.11017234537115236 -0.0635288182716812
0.5219477554871115 0.08455184168658621 -0.0635288182716812
0.5017522785207454 0.14622494974033148 -0.0635288182716812
0.5544310433560263 0.13896928996930266 -0.0635288182716812
0.2584536226502778 0.06964764655784836 -0.06244214111703403
0.32463226136829104 0.04762989559368936 -0.06244214111703403
0.5044188170771489 0.17595810850248544 -0.06244214111703403
0.5667188542585752 0.04762989559368936 -0.06244214111703403
0.537721292339567 0.1074556524845344 -0.0618570072645317
0.4133469124626795 -0.006946374734706222 -0.0618570072645317
0.5390336639801795 0.16644550387180473 -0.0618570072645317
0.5453865458073476 0.06265111749292765 -0.0618570072645317
0.4684915985335059 0.02075553365376103 -0.0618570072645317
0.5690677487236203 0.10998844616036599 -0.0618570072645317
0.4036086133460337 0.10780673279603581 -0.0618570072645317
0.4115747927951012 0.06270127182314214 -0.0618570072645317
0.3090426237266219 0.1742027069449784 -0.0618570072645317
0.4566300994377803 0.24579801332615608 -0.06077033010988453
0.43579097523366167 0.04105131928055612 -0.06077033010988453
0.39056848749026757 0.09166539752200735 -0.06077033010988453
0.28731743968871404 0.09504245575644932 -0.0601851962573822
0.40009781023101976 0.05446760261293082 -0.0601851962573822
0.40023155511159175 0.04744599638290287 -0.0601851962573822
0.4945634911900025 0.023029196623484405 -0.0601851962573822
0.5128614626632539 0.08591436765741303 -0.0601851962573822
0.5099190752906708 0.07790639293316691 -0.0601851962573822
0.5808372982139527 0.10461357377238033 -0.0601851962573822
0.4112822258688499 0.2285031284571943 -0.0601851962573822
0.5336922278123367 0.2017625113978381 -0.05909851910273503
0.5898985138727031 0.11368314848616634 -0.05909851910273503
0.4421438570608298 0.04762989559368936 -0.05909851910273503
0.39519104492503593 0.09166539752200735 -0.05909851910273503
0.28727564441353537 0.0686111237334157 -0.058513385250232704
0.39830897245336977 0.05429206245718012 -0.058513385250232704
0.400356940937128 0.04739584205268838 -0.058513385250232704
0.5369271821111711 0.05464314276868153 -0.058513385250232704
0.5232266909075808 0.08802084952642149 -0.058513385250232704
0.5299055758811431 0.09007717706521534 -0.058513385250232704
0.5842477926685378 0.11390884297213154 -0.058513385250232704
0.5207942058921783 0.1862146690313477 -0.058513385250232704
0.27537235004263083 0.09166539752200735 -0.05742670809558553
0.43960270432996257 0.042581026352097866 -0.05742670809558553
0.5562783945189266 0.16872752589656376 -0.05742670809558553
0.4676389749198599 0.08254566847800685 -0.05742670809558553
0.31630664255268653 0.17401044867915624 -0.056841574243083205
0.4024216275309576 0.1197267452770118 -0.056841574243083205
0.4094683109260927 0.14526365841122055 -0.056841574243083205
0.4693609402572238 0.00955439990585943 -0.056841574243083205
0.5163137523930176 0.08685058182141683 -0.056841574243083205
0.5101364107216001 0.07709556459469945 -0.056841574243083205
0.5699621676124452 0.09265176601622552 -0.056841574243083205
0.49702941242554816 0.19904581851122014 -0.056841574243083205
0.385486182028533 0.18424193204291126 -0.055754897088436
0.590792932761528 0.11368314848616634 -0.055754897088436
0.2584536226502778 0.04762989559368936 -0.055754897088436
0.5436980166901265 0.10167118639979716 -0.055754897088436
0.45458213095402217 0.10267427300408691 -0.055754897088436
0.31638187404800827 0.05533694433664856 -0.05516976323593367
0.40404328420789254 0.15093945678049303 -0.05516976323593367
0.41721715494423073 0.17108477941664466 -0.05516976323593367
0.519214344490422 0.04838221054690667 -0.05516976323593367
0.48492550073378565 0.14790511980251667 -0.05516976323593367
0.4755048457084981 0.14996144734131064 -0.05516976323593367
0.5731804038012079 0.11284724298259163 -0.05516976323593367
0.5643532416834588 0.15245244574196343 -0.05516976323593367
0.5380723726510684 0.17670206440066696 -0.05516976323593367
0.5777360887956905 0.05863877107576892 -0.0540830860812865
0.5805112950675586 0.13570089945032535 -0.0540830860812865
0.4426036050877959 0.11368314848616634 -0.0540830860812865
0.357541861044029 0.2017625113978381 -0.0540830860812865
0.44162559564861353 0.23734700868501538 -0.0540830860812865
0.3102546867068053 0.1770029903819539 -0.053497952228784174
0.40011452834109124 0.05063079635152268 -0.053497952228784174
0.4127450605001058 0.08047262282914142 -0.053497952228784174
0.4714841402363036 0.014018135294948542 -0.053497952228784174
0.5222486814683984 0.14290640489113968 -0.053497952228784174
0.5204264074706055 0.15217659692578375 -0.053497952228784174
0.5740246683598185 0.1078568871262503 -0.053497952228784174
0.4963857651877956 0.1999903917302596 -0.053497952228784174
0.44162559564861353 0.23734700868501538 -0.05307999947699679
0.5292034152581403 0.15771865041448432 -0.052411275074137
0.2584536226502778 0.04762989559368936 -0.052411275074137
0.5462391694209938 0.12469202396824579 -0.052411275074137
0.2584536226502778 0.09166539752200735 -0.052411275074137
0.31280419849270835 0.053380925458283685 -0.051826141221634675
0.4056649408848276 0.16749874480630894 -0.051826141221634675
0.4010925377802737 0.1800624045250375 -0.051826141221634675
0.4172589502194094 0.0807484716453211 -0.051826141221634675
0.42866906034320473 0.00563400309409377 -0.051826141221634675
0.4809883858119485 0.15047970875352698 -0.051826141221634675
0.4700213056050479 0.13139598610691536 -0.051826141221634675
0.5678807629085442 0.14897507884709235 -0.051826141221634675
0.4771014252203259 0.20333401374455853 -0.051826141221634675
0.2752636823271662 0.1714609368932533 -0.050739464066987504
0.5557099787764956 0.19075363591575856 -0.050739464066987504
0.32427282200175395 0.04636767828329152 -0.050739464066987504
0.5886028603421621 0.12469202396824579 -0.050739464066987504
0.3161311023969358 0.17417762977987117 -0.05015433021448517
0.40453646845500174 0.1227360050898809 -0.05015433021448517
0.41002000855845205 0.08281315823915074 -0.05015433021448517
0.4184542950895213 0.11395899730234603 -0.05015433021448517
0.5352302939389143 0.04732896961240244 -0.05015433021448517
0.5053132359659738 0.07767233939216593 -0.05015433021448517
0.5618371661176986 0.13611049314707702 -0.05015433021448517
0.44612276725784566 0.21977627499987404 -0.05015433021448517
0.2584536226502778 0.05863877107576892 -0.049067653059838005
0.47400021580206375 0.15771865041448432 -0.049067653059838005
0.2988696537481172 0.09033630777132344 -0.049067653059838005
0.5257093302531978 0.07574139767890829 -0.049067653059838005
0.287058308982606 0.16039354802592348 -0.04848251920733567
0.4100785219437023 0.1548514945372229 -0.04848251920733567
0.4035250227956762 0.07253152054518125 -0.04848251920733567
0.4112738668138142 0.058429794699875186 -0.04848251920733567
0.4226588997725023 -0.012388119562977832 -0.04848251920733567
0.4764744960926449 0.14873266625105572 -0.04848251920733567
0.4692689906518306 0.13177214358352402 -0.04848251920733567
0.42295146669875344 0.23312568589196267 -0.04848251920733567
0.4566300994377803 -0.005324718057771179 -0.04806456645554829
0.5078961839720197 0.06828512058702153 -0.04739584205268847
0.29882785847293847 0.14670977493240478 -0.04739584205268847
0.4663934757195335 0.15256947251246386 -0.04739584205268847
0.2881784223573961 0.1624665936747889 -0.046810708200186145
0.40337455980503273 0.14420205842168055 -0.046810708200186145
0.40287301650288787 0.054141599466536655 -0.046810708200186145
0.5137976768272576 0.042363690921168456 -0.046810708200186145
0.46504766785877816 0.10347674228751857 -0.046810708200186145
0.456404404951815 0.11073240205854751 -0.046810708200186145
0.5809125297092745 0.09954798642071726 -0.046810708200186145
0.5309671758706831 0.1665458125322337 -0.046810708200186145
0.39056848749026757 0.12469202396824579 -0.045724031045538974
0.3245152345977906 0.17841567068299521 -0.045724031045538974
0.5667188542585752 0.056515571096689005 -0.045724031045538974
0.2881366270822173 0.1625083889499676 -0.045138897193036646
0.4035083046856048 0.14955185364455897 -0.045138897193036646
0.4314359075600372 0.05417503568667969 -0.045138897193036646
0.4590625844531828 0.011828062875582687 -0.045138897193036646
0.5092921461629897 0.08064816298489212 -0.045138897193036646
0.5110559067755325 0.07432035832283121 -0.045138897193036646
