0.30400763650031165 0.027214217066264618 -0.14747861958096212
0.4390199009731052 0.027453712260455995 -0.14747861958096212
0.6018262129823109 -0.11963415200366766 -0.14747861958096212
0.528490263518889 -0.21777676158122078 -0.14747861958096212
0.541901994393602 0.13607108533132345 -0.14747861958096212
0.8268886704710355 -0.05049567094370379 -0.14747861958096212
0.5741456105378843 -0.19928521158760784 -0.14747861958096212
0.45076777049869987 0.11991146222852082 -0.14747861958096212
0.7691955386913719 0.02582766594199917 -0.14747861958096212
0.5618809355932453 -0.23050782190402183 -0.14684836906993237
0.44984760475259633 -0.03835704610127083 -0.14583996825228476
0.5992673959075301 0.1608651404352341 -0.14583996825228476
0.5916791797547318 -0.23757923263777575 -0.14583996825228476
0.1677726860361202 -0.05247465754833735 -0.1449576175368431
0.4290619428988351 0.019424320749936937 -0.1449576175368431
0.4619736245848088 0.0461217323971572 -0.1449576175368431
0.4192300349267709 -0.12269716948727237 -0.1449576175368431
0.6053178008134158 0.049071304788776554 -0.1449576175368431
0.5093684630142461 -0.2152179445064401 -0.1449576175368431
0.6152631538774653 0.12534422163359707 -0.1449576175368431
0.8280609364215511 -0.05126457656716018 -0.1449576175368431
0.5424944298739699 -0.20272637937783042 -0.1449576175368431
0.5672632749574392 0.12391985547866984 -0.1449576175368431
0.7700652843965933 0.02669741164722026 -0.1449576175368431
0.5814313064453882 0.15216768338302353 -0.14432736702581334
0.4468350073098741 -0.005155449180223453 -0.14331896620816573
0.5749145161613404 0.1608651404352341 -0.14331896620816573
0.7818887839835112 -0.17436510638149155 -0.14331896620816573
0.30400763650031165 -0.09628967307512575 -0.14243661549272407
0.4648853819457662 -0.11828541591006399 -0.14243661549272407
0.4238308636572882 -0.11244929617792856 -0.14243661549272407
0.7653888256047523 -0.12240725425219873 -0.14243661549272407
0.5244692652585191 -0.2177893665914414 -0.14243661549272407
0.518091130086898 0.1403946038369878 -0.14243661549272407
0.5644649626884672 -0.21903726260328038 -0.14243661549272407
0.5946035421259098 0.035974699169578274 -0.14243661549272407
0.5649943731177323 0.1476676947342711 -0.14243661549272407
0.6349899948726965 -0.1397895633463992 -0.14243661549272407
0.5814313064453882 0.1608651404352341 -0.14180636498169433
0.43324680629207274 0.059256153047017264 -0.14079796416404675
0.5826665974470064 -0.005155449180223453 -0.14079796416404675
0.6558764968082225 -0.23757923263777575 -0.14079796416404675
0.3016504995890602 -0.024819265124351765 -0.13991561344860506
0.29542362454008625 -0.09916361540542135 -0.13991561344860506
0.29722614100163136 0.033630167268547506 -0.13991561344860506
0.6219942293352629 0.1233022099778606 -0.13991561344860506
0.5455574473575746 -0.21944062293033936 -0.13991561344860506
0.5882254069542887 0.05546204497061813 -0.13991561344860506
0.6116581209543751 0.13392823359382244 -0.13991561344860506
0.730876307620763 -0.1639029478983975 -0.13991561344860506
0.6875907025232397 0.0966804283919639 -0.13991561344860506
0.6408387196150526 0.10370141908483538 -0.13991561344860506
0.3834444109105016 -0.0735628396473929 -0.1382769621199277
0.6324689928285775 0.1442643419747103 -0.1382769621199277
0.5328515970552147 -0.171176038795681 -0.1382769621199277
0.848291977825606 -0.005155449180223453 -0.1382769621199277
0.8159475215995591 -0.008899137215740148 -0.13739461140448608
0.5717506585959712 0.137520661506692 -0.13739461140448608
0.5053852797845382 -0.21973053816541302 -0.13739461140448608
0.5907211989779667 0.06214270038753352 -0.13739461140448608
0.623456410520852 0.13614671539264703 -0.13739461140448608
0.6395277985521107 -0.13599545527000007 -0.13739461140448608
0.7908761562707954 0.017130208889788612 -0.13739461140448608
0.4647593318435604 -0.11839886100204935 -0.13739461140448608
0.4230745630440525 -0.1100039241951331 -0.13739461140448608
0.45831817162083616 -0.1394870431011049 -0.1357559600758087
0.5690405813985432 0.06126034967209196 -0.1357559600758087
0.5699229321139848 -0.12136103840388919 -0.1357559600758087
0.833506300836848 -0.0343234428306805 -0.13487360936036705
0.5356246993037458 -0.2181675168980593 -0.13487360936036705
0.5341373080977154 0.14128955956265 -0.13487360936036705
0.6067925870092254 -0.21336500800401256 -0.13487360936036705
0.5916161547036289 -0.13605848032110315 -0.13487360936036705
0.5311625256856551 0.12888622950558437 -0.13487360936036705
0.7604728716187205 0.04922256491142352 -0.13487360936036705
0.3019152048036927 0.01343694089515418 -0.13487360936036705
0.29219674192361395 -0.0910964088642405 -0.13487360936036705
0.4187762545588295 0.045214171661274324 -0.13487360936036705
0.3834444109105016 -0.005155449180223453 -0.1332349580316897
0.798489582444035 0.0810502157184261 -0.1332349580316897
0.6324689928285775 -0.23757923263777575 -0.1332349580316897
0.627162283525707 -0.12734841825867194 -0.13235260731624804
0.558994388252729 -0.22041120871732517 -0.13235260731624804
0.5987001704476033 0.13290722776595404 -0.13235260731624804
0.7588468253002635 0.0635544615322401 -0.13235260731624804
0.5822254220892855 -0.22475993724343046 -0.13235260731624804
0.7627921934993099 -0.12544506171536213 -0.13235260731624804
0.8096828315199235 -0.07380233484158409 -0.13235260731624804
0.40508721345926324 0.012302489975300762 -0.13235260731624804
0.4616458943190734 0.046424252642451494 -0.13235260731624804
0.4248770795055976 -0.04135703853377245 -0.13235260731624804
0.48483911312496814 0.05933178310834084 -0.13071395598757068
0.5826665974470064 -0.08815944148284181 -0.13071395598757068
0.848291977825606 -0.005155449180223453 -0.13071395598757068
0.5443095513457357 -0.21810449184695638 -0.12983160527212903
0.6064396467230487 0.13212571713227736 -0.12983160527212903
0.7430275374734167 0.07695358739673268 -0.12983160527212903
0.6459815637850554 -0.209117119559672 -0.12983160527212903
0.6652420194021246 0.11063417470616263 -0.12983160527212903
0.6450487930287314 0.11857533114513763 -0.12983160527212903
0.42741068655993714 0.0304915197236194 -0.12983160527212903
0.42937706815435 0.03451251798398925 -0.12983160527212903
0.43878040577891386 0.028903288435824362 -0.12983160527212903
0.5826665974470064 0.028046147740823923 -0.12819295394345168
0.5826665974470064 -0.05495784456179443 -0.12819295394345168
0.8648927762861298 0.028046147740823923 -0.12819295394345168
0.8017668851013896 -0.0939325361638745 -0.12731060322801002
0.5980068948854707 0.13439461897198454 -0.12731060322801002
0.6593680846393273 0.12337784003918417 -0.12731060322801002
0.8020189853058016 -0.10865518810152942 -0.12731060322801002
0.6096287143088592 -0.04531501174303938 -0.12731060322801002
0.6077253577655495 -0.12196607889447778 -0.12731060322801002
0.29118834110596636 -0.09568463258453716 -0.12731060322801002
0.39496539025212546 0.024541954899498425 -0.12731060322801002
0.4183350792011087 0.03596209415935762 -0.12731060322801002
0.3873771740993272 -0.005155449180223453 -0.12567195189933267
0.798489582444035 0.09446194659313933 -0.12567195189933267
0.6324689928285775 -0.23757923263777575 -0.12567195189933267
0.6058724212631219 0.03651671460906376 -0.12478960118389101
0.5876077614534797 0.13690301600588275 -0.12478960118389101
0.6211749036709243 -0.21253307732945326 -0.12478960118389101
0.5942884168703951 -0.1356173049633822 -0.12478960118389101
0.6274900137914424 0.11687365476535723 -0.12478960118389101
0.6365278061196091 -0.12438624085683211 -0.12478960118389101
0.694926818471626 0.07658804210033547 -0.12478960118389101
0.29118834110596636 -0.0957350526254196 -0.12478960118389101
0.4379736851247959 -0.11684844474491628 -0.12478960118389101
0.433549326537367 -0.10474763493314493 -0.12478960118389101
0.3834444109105016 -0.07155864302231821 -0.12315094985521366
0.6988721866706724 0.12218036406822766 -0.12315094985521366
0.7320737835917196 -0.1845751646601734 -0.12315094985521366
0.675225187496836 0.11291568155609048 -0.12226859913977199
0.5895111179967895 -0.12605010220595053 -0.12226859913977199
0.7587711952389399 -0.14524753277191693 -0.12226859913977199
0.5641372324227317 -0.20694905780172967 -0.12226859913977199
0.6336916788199751 0.032962101726856 -0.12226859913977199
0.6487042459927038 -0.11919297664594687 -0.12226859913977199
0.3948141301294783 0.013373915844051263 -0.12226859913977199
0.4616711043395145 -0.11832323094072578 -0.12226859913977199
0.4671794938059145 -0.1275248884017602 -0.12226859913977199
0.45791481129377715 -0.13985258839750228 -0.12062994781109465
0.5699859571650878 0.06613848862746224 -0.12062994781109465
0.5826665974470064 -0.08815944148284181 -0.12062994781109465
0.8060147735457304 0.04464694620134752 -0.12062994781109465
0.8415230873371463 -0.034487307963548125 -0.119747597095653
0.6262799328102653 -0.20122638316157962 -0.119747597095653
0.5959774882399549 -0.11471819801763576 -0.119747597095653
0.6383051125607131 0.10962577388851505 -0.119747597095653
0.6387084728877721 0.025726825860234465 -0.119747597095653
0.6641327785027122 -0.14217191027809176 -0.119747597095653
0.2995832779128828 -0.1000459661208631 -0.119747597095653
0.29519673435611554 0.022726833427732848 -0.119747597095653
0.2840286953006684 0.02842429804744179 -0.119747597095653
0.41046955282345743 -0.12136103840388919 -0.11810894576697563
0.6234942255515138 0.06859646562047819 -0.11810894576697563
0.5738935103334721 -0.10796191253939678 -0.11810894576697563
0.8157584464462503 0.006504185273826936 -0.11722659505153397
0.8380441045162623 -0.0255125406864844 -0.11722659505153397
0.5845321389596545 -0.12020137746359445 -0.11722659505153397
0.6443681224768192 0.0569746461970896 -0.11722659505153397
0.7202628890150219 0.10302074853292323 -0.11722659505153397
0.6877923826867691 -0.16305841221361772 -0.11722659505153397
0.6370320065284328 0.049373825034070666 -0.11722659505153397
0.2912639711672899 0.019550370852142774 -0.11722659505153397
0.4284695074184671 -0.1098652690827066 -0.11722659505153397
0.46125513900223486 -0.12352910016183168 -0.11722659505153397
0.5879480967294358 -0.06120992963120969 -0.11659634454050423
0.44611652172730026 -0.005155449180223453 -0.11558794372285662
0.5885657422302448 -8.823507154417469E-4 -0.11558794372285662
0.8648927762861298 -0.12136103840388919 -0.11558794372285662
0.6039312496891504 -0.04981500039179181 -0.11470559300741497
0.5901161584873781 -0.12627699238992127 -0.11470559300741497
0.5778514835427391 -0.22613388335747542 -0.11470559300741497
0.5951203475449544 -0.022260448049570933 -0.11470559300741497
0.6871999472064012 0.12074339290308013 -0.11470559300741497
0.6826621435269872 -0.07478552563879054 -0.11470559300741497
0.67848988514397 -0.1435584614023572 -0.11470559300741497
0.6855486908675033 -0.15065508215655224 -0.11470559300741497
0.30400763650031165 0.02464279498126331 -0.11470559300741497
0.4326795808321459 -0.1155753387126362 -0.11470559300741497
0.46697781364238494 -0.1277013585448485 -0.11470559300741497
0.5826665974470064 -0.07155864302231821 -0.11407534249638521
0.3873771740993272 -0.007147040795077488 -0.1130669416787376
0.48522986844180666 -0.12136103840388919 -0.1130669416787376
0.8814935747466536 -0.03835704610127083 -0.1130669416787376
0.2928143874244232 0.016499958378758894 -0.11218459096329597
0.46410387131208936 -0.11902911151307925 -0.11218459096329597
0.43385184678266114 -0.10803754260072036 -0.11218459096329597
0.6047631803637096 0.04376459548590596 -0.11218459096329597
0.6440403922110838 -0.13856687735500156 -0.11218459096329597
0.7915568268227076 0.03694528495656407 -0.11218459096329597
0.667221006006758 0.10057537655012792 -0.11218459096329597
0.6447462727834371 -0.19128103009753009 -0.11218459096329597
0.7113637517992819 -0.1390836827740459 -0.11218459096329597
0.7486745820522434 0.11425181263947348 -0.1105459396346186
0.873035612888634 -0.005155449180223453 -0.1105459396346186
0.43324680629207274 0.058235147219149026 -0.1105459396346186
0.29785639151266124 0.01614701809258216 -0.10966358891917694
0.4157258420854456 -0.10143251724512854 -0.10966358891917694
0.4341795770483967 0.03928981685759466 -0.10966358891917694
0.4196712102844917 -0.12535682664381792 -0.10966358891917694
0.6080656930415055 -0.12684421784984806 -0.10966358891917694
0.6486916409824833 0.05702506623797186 -0.10966358891917694
0.7882921291755737 0.041445273605316496 -0.10966358891917694
0.6755655227727919 0.09804176949578823 -0.10966358891917694
0.6713428443488927 -0.1712768788774457 -0.10966358891917694
0.8435777040031035 -0.038735196407888695 -0.10966358891917694
0.5826665974470064 0.011445349280300146 -0.1090333384081472
0.3873771740993272 -0.03835704610127083 -0.1080249375904996
0.8462877812005315 0.011445349280300146 -0.1080249375904996
0.5826665974470064 -0.08815944148284181 -0.1080249375904996
0.46677613347885555 0.051163736485395295 -0.10714258687505794
0.6022547833298111 -0.11377282225109109 -0.10714258687505794
0.5959900932501753 0.13873074248786918 -0.10714258687505794
0.6778218196022785 0.11509634832425344 -0.10714258687505794
0.7653258005536494 0.06913848105996387 -0.10714258687505794
0.7682501629248275 0.07305863923856884 -0.10714258687505794
0.7083511543565596 0.03710915008943169 -0.10714258687505794
0.4851542383804831 0.042655354586493666 -0.10550393554638057
0.8814935747466536 0.011445349280300146 -0.10550393554638057
0.4575240559769386 -0.14023073870411998 -0.10550393554638057
0.42166280189934574 -0.12654169760455378 -0.10462158483093892
0.6442042573439515 0.057176326360619006 -0.10462158483093892
0.5902926286304664 0.14433997203603388 -0.10462158483093892
0.8144475253833082 0.015529372591773099 -0.10462158483093892
0.7900820406268981 -0.12481481120433224 -0.10462158483093892
0.7625526983051185 -0.15456263532493655 -0.10462158483093892
0.7069141831914117 -0.16213824646751418 -0.10462158483093892
0.7320737835917196 0.10977703401116219 -0.10298293350226156
0.662242026969623 0.09446194659313933 -0.10298293350226156
0.3834444109105016 -0.05495784456179443 -0.10298293350226156
0.42853253246957007 0.04057552790009541 -0.10210058278681991
0.462742530208265 0.05596624537944201 -0.10210058278681991
0.5959396732092931 8.697457052209126E-4 -0.10210058278681991
0.6032631841474588 0.13847864228345713 -0.10210058278681991
0.6988469766502311 0.10148293728601063 -0.10210058278681991
0.6752125824866154 0.1234282600800668 -0.10210058278681991
0.6570109477280761 0.13494923942169051 -0.10210058278681991
0.8451029102397957 -0.03402092258538621 -0.10210058278681991
0.7486745820522434 -0.19096590484201514 -0.10046193145814257
0.6621663969082994 0.07985273974746959 -0.10046193145814257
0.3989359684716129 -0.1165081094689602 -0.10046193145814257
0.4227720427987582 -0.12185263380249241 -0.09957958074270092
0.5903430486713488 0.05822254220892855 -0.09957958074270092
0.608922833736506 -0.1232896049676403 -0.09957958074270092
0.790397165882413 -0.12013835241249153 -0.09957958074270092
0.7390695642641499 -0.16774747601567908 -0.09957958074270092
0.7417418264309159 -0.17181889431693118 -0.09957958074270092
0.7194309583404629 -0.16951217744656238 -0.09957958074270092
0.8648927762861298 0.04464694620134752 -0.09794092941402356
0.6705739387254362 -0.1545752403351572 -0.09794092941402356
0.44984760475259633 -0.07155864302231821 -0.09794092941402356
0.42956614330765897 -0.11751651028660778 -0.09705857869858191
0.6014732726961342 -0.0173318890533182 -0.09705857869858191
0.5954354728004692 0.03971838720509497 -0.09705857869858191
0.7020612542564828 0.10609637102674842 -0.09705857869858191
0.7227208660080382 0.08157962614769111 -0.09705857869858191
0.6765487135699984 0.12394506549911115 -0.09705857869858191
0.6783008099906612 0.12850807919896648 -0.09705857869858191
0.8469306367217817 -0.03243269129759117 -0.09705857869858191
0.6324689928285775 -0.22837757517674132 -0.09541992736990453
0.6922419512946393 0.059356993128781975 -0.09541992736990453
0.4572593507623061 0.0637561416957697 -0.09541992736990453
0.4664484032131201 0.05147886174091006 -0.09453757665446286
0.6032505791372381 0.010260478319564285 -0.09453757665446286
0.5804355106379611 0.06269732083723967 -0.09453757665446286
0.7160780256217844 0.09796613943446465 -0.09453757665446286
0.5924732953986294 -0.2128229925645269 -0.09453757665446286
0.6096035042884181 -0.22686497395026983 -0.09453757665446286
0.7580527096563661 -0.13807528195639832 -0.09453757665446286
0.8578843906034788 -0.07155864302231821 -0.09289892532578552
0.6873890223597103 -0.07155864302231821 -0.09289892532578552
0.4803517294864364 -0.14183157500213567 -0.09289892532578552
0.460876988695617 -0.11907953155396152 -0.09201657461034386
0.6052925907929746 -0.061235139651650825 -0.09201657461034386
0.5981707600183382 0.010815098769270429 -0.09201657461034386
0.7312796679478223 -0.16314664728516193 -0.09201657461034386
0.7073301485286916 0.10491150006601255 -0.09201657461034386
0.6943595930116994 0.11731483012307801 -0.09201657461034386
0.679586521033162 0.12873496938293721 -0.09201657461034386
0.6617504315710199 -0.22097843417725196 -0.09037792328166652
0.5871917961162001 -0.040399057757007306 -0.09037792328166652
0.44544845618560863 0.011445349280300146 -0.09037792328166652
0.4391837661059729 0.041218383421345775 -0.08949557256622485
0.4374946947364131 -0.10561738063836602 -0.08949557256622485
0.6015993227983402 -0.0855880193978405 -0.08949557256622485
0.6097169493804034 -0.12360473022315525 -0.08949557256622485
0.6059228413040043 0.13900805271272215 -0.08949557256622485
0.8258172446022851 -0.09347875579593307 -0.08949557256622485
0.839355025579204 -0.08416365324291326 -0.08949557256622485
0.7573594340942332 -0.0859913797248995 -0.08949557256622485
0.7111116515948699 0.12456271099992039 -0.08785692123754751
0.6988721866706724 -0.08815944148284181 -0.08785692123754751
0.4096250171386775 0.028046147740823923 -0.08785692123754751
0.4653517673239283 0.0500292855655417 -0.08697457052210586
0.6067547719785636 0.04453350110936216 -0.08697457052210586
0.581027946118329 -0.1396509082339727 -0.08697457052210586
0.811901313318748 0.026823461749426278 -0.08697457052210586
0.7206284343114194 0.09274766520313828 -0.08697457052210586
0.7465821503556246 0.06050404905885622 -0.08697457052210586
0.7904349809130746 0.03334025203347387 -0.08697457052210586
0.41005358748617776 0.049525085156717816 -0.0853359191934285
0.6988721866706724 -0.05495784456179443 -0.0853359191934285
0.7652879855229875 -0.1699029327634009 -0.0853359191934285
0.43397789688486715 -0.11594088400903341 -0.08445356847798685
0.6058850262733426 -0.005987379854782759 -0.08445356847798685
0.59883882556003 0.01566802770419959 -0.08445356847798685
0.7478300463674634 0.08198298647475012 -0.08445356847798685
0.6411790548910087 -0.20883980933481902 -0.08445356847798685
0.7448300539349618 0.07692837737629155 -0.08445356847798685
0.7554308675304824 0.053420033314881835 -0.08445356847798685
0.848291977825606 0.06126034967209196 -0.08281491714930947
0.6822713882101487 -0.22416750176306252 -0.08281491714930947
0.44984760475259633 -0.021756247640747232 -0.08281491714930947
0.6546286007963835 -0.1450332475981667 -0.08281491714930947
0.46183496947238234 -0.13024757060940886 -0.08193256643386782
0.5975657195277497 -0.08771826612512103 -0.08193256643386782
0.613095092119523 -0.11475601304829754 -0.08193256643386782
0.8560944791521543 -0.031424290479943585 -0.08193256643386782
0.7678341975875477 -0.12775177858573095 -0.08193256643386782
0.7125360177497971 -0.1693357073034741 -0.08193256643386782
0.7897669153713831 -0.11541147357976839 -0.08193256643386782
0.8225903619858128 0.06126034967209196 -0.08029391510519046
0.8316911793650822 -0.14197023011456217 -0.08029391510519046
0.6590907744144742 -0.05495784456179443 -0.08029391510519046
0.40951157204669214 0.04807550898134945 -0.08029391510519046
0.4272972414679518 -0.06606285856613868 -0.0794115643897488
0.5991791608359859 0.050306595790394856 -0.0794115643897488
0.5991539508155447 -0.11595348901925406 -0.0794115643897488
0.7232502764373032 -0.175751657505757 -0.0794115643897488
0.7571577539307038 0.07738215774423299 -0.0794115643897488
0.7854307918554985 0.06197883525466572 -0.0794115643897488
0.7630947137446041 0.08580230457159038 -0.0794115643897488
0.848291977825606 -0.09079388861894622 -0.07878131387871905
0.483351721918938 0.06240740560216603 -0.07777291306107147
0.6988721866706724 0.011445349280300146 -0.07777291306107147
0.8522877660655347 -0.10875602818329413 -0.07777291306107147
0.7222796906503174 0.12766354351418654 -0.07777291306107147
0.43782242500214874 -0.10757115722255826 -0.0768905623456298
0.5869649059322293 -0.13536520475897035 -0.0768905623456298
0.6146833234073178 -0.22022213356401624 -0.0768905623456298
0.7896030502385153 -0.11594088400903341 -0.0768905623456298
0.6050152805681215 -0.22555405288732797 -0.0768905623456298
0.6000615115514276 -0.20870115422239235 -0.0768905623456298
0.7994097481901385 -0.10725603196704332 -0.0768905623456298
0.4146418112064744 0.05658389088025107 -0.07626031183460004
0.6988721866706724 -0.03835704610127083 -0.07626031183460004
0.8225903619858128 -0.13796183686441296 -0.07626031183460004
0.7149309696917101 0.12446187091815551 -0.07626031183460004
0.41862499443618234 0.049638530248703176 -0.0743695603015108
0.6016749528596638 -0.07806282829614532 -0.0743695603015108
0.637712677080345 -0.10565519566902781 -0.0743695603015108
0.8563465793565663 -0.027415897229794386 -0.0743695603015108
0.7011662985308206 0.10570561570991006 -0.0743695603015108
0.7196578485244333 0.10803754260072018 -0.0743695603015108
0.846111311057443 0.005268894272208634 -0.0743695603015108
0.7486745820522434 0.11425181263947348 -0.07373930979048104
0.8522877660655347 -0.10476023994336559 -0.07373930979048104
0.6988721866706724 -0.021756247640747232 -0.07373930979048104
0.3834444109105016 0.06126034967209196 -0.07373930979048104
0.460347578266352 -0.11957112695256474 -0.0718485582573918
0.6079270379290789 -0.12172658370028658 -0.0718485582573918
0.5969102589962788 -0.0796762696043815 -0.0718485582573918
0.7990820179244029 -0.11929381672771175 -0.0718485582573918
0.7995357982923443 -0.11878961631888788 -0.0718485582573918
0.6209480134869536 -0.22469691219232754 -0.0718485582573918
0.7902206957393246 -0.11188207071800176 -0.0718485582573918
0.8404894764990577 -0.06756285478238948 -0.0718485582573918
0.898094373207177 -0.021756247640747232 -0.07121830774636204
0.6596832098948423 0.0592813630674584 -0.07121830774636204
0.6036665444745178 0.0686973057022429 -0.07121830774636204
0.43652410894942734 -0.11822239085896108 -0.06932755621327276
0.607082502244299 0.003428562780001746 -0.06932755621327276
0.646989964602703 0.05826035723959034 -0.06932755621327276
0.6272505185972511 -0.21378097334129223 -0.06932755621327276
0.8287920270143455 0.01532769242824351 -0.06932755621327276
0.8000021836705065 0.03453772800443038 -0.06932755621327276
0.6056455310791512 0.13157109668257103 -0.06932755621327276
0.8143971053424259 0.0488948346456881 -0.06932755621327276
0.8341365513478779 -0.052096507241719485 -0.06932755621327276
0.5826665974470064 0.03184025581722306 -0.0681931052934192
0.5891707827208335 -0.05568893515458903 -0.0681931052934192
0.7177040719402414 0.12446187091815551 -0.0681931052934192
0.45965430270421936 0.05292843791627861 -0.06680655416915375
0.6054312459054011 0.03828141603994708 -0.06680655416915375
0.5838892834384042 -0.11659634454050426 -0.06680655416915375
0.7813845835746875 -0.13817612203816304 -0.06680655416915375
0.8118634982880865 0.03920158178605061 -0.06680655416915375
0.6245278363896026 -0.22455825707990104 -0.06680655416915375
0.7410359458585628 0.07876870886849843 -0.06680655416915375
0.8201954100438998 0.03337806706413565 -0.06680655416915375
0.40901997664808887 -0.10476023994336559 -0.06516790284047641
0.5826665974470064 -0.10476023994336559 -0.06516790284047641
0.7965232008496221 -0.08653339516438516 -0.06516790284047641
0.7554938925815853 0.11106274505366294 -0.06516790284047641
0.6290656400690169 0.1524449936078765 -0.06428555212503476
0.8687625144238523 -0.03568478393450464 -0.06428555212503476
0.6737504013010264 -0.20011714226216715 -0.06428555212503476
0.6249942217677645 -0.22942379102505067 -0.06428555212503476
0.5961413533728225 0.016348698256111748 -0.06428555212503476
0.6522462538646912 -0.1358189851269118 -0.06428555212503476
0.4653139522932665 -0.12780219862661338 -0.06428555212503476
0.3834444109105016 0.028046147740823923 -0.0626469007963574
0.6988721866706724 -0.08815944148284181 -0.0626469007963574
0.8311995839664792 -0.11411315752704718 -0.0626469007963574
0.7448048439145205 0.11024341938932428 -0.0626469007963574
0.731002357722969 0.10347452890086466 -0.06176455008091575
0.8397205708756013 -0.0926342201111531 -0.06176455008091575
0.6741033415872031 -0.20021798234393184 -0.06176455008091575
0.7166452510817114 -0.19293228643642804 -0.06176455008091575
0.6026707486670907 -0.025172205410528323 -0.06176455008091575
0.5983850451920886 0.06115950959032707 -0.06176455008091575
0.43388966181332295 -0.11130224024785448 -0.06176455008091575
0.41417542582831235 0.05702506623797186 -0.0601258987522384
0.6988721866706724 -0.03835704610127083 -0.0601258987522384
0.8125441688399982 -0.0016512563388979549 -0.0601258987522384
0.8316911793650822 0.06444941725790251 -0.0601258987522384
0.7735190571970363 0.07590737154842331 -0.059243548036796746
0.8405020815092783 -0.07554182625202628 -0.059243548036796746
0.8452541703624428 -0.09167623933438795 -0.059243548036796746
0.8082584653649962 -0.1320374820607333 -0.059243548036796746
0.6406370394515231 -0.12991984034367327 -0.059243548036796746
0.5955615229026752 -0.02621842125883787 -0.059243548036796746
0.6187547417085701 0.0431847650157585 -0.059243548036796746
0.4651879021910605 0.05121415652627756 -0.059243548036796746
0.482822311489673 0.06289900100076926 -0.05760489670811936
0.6988721866706724 0.011445349280300146 -0.05760489670811936
0.8225903619858128 0.022008347845158902 -0.05760489670811936
0.8225903619858128 -0.11973499208543253 -0.05760489670811936
0.6400950240120376 0.1608651404352341 -0.05760489670811936
0.7124729926986942 0.11373500722042913 -0.056722545992677696
0.8608339629950982 -0.027138587004941227 -0.056722545992677696
0.8466029064560464 -0.03404613260582734 -0.056722545992677696
0.6985696664253781 -0.18021383112384765 -0.056722545992677696
0.5937085864002476 0.05953346327187043 -0.056722545992677696
0.6009438622668691 -0.11664676458138669 -0.056722545992677696
0.6121749263734194 -0.11742827521506356 -0.056722545992677696
0.4611795089409113 -0.13086521611021792 -0.056722545992677696
0.3834444109105016 -0.07155864302231821 -0.055083894664000356
0.5764145123775912 -0.12136103840388919 -0.055083894664000356
0.6822713882101487 -0.23757923263777575 -0.055083894664000356
0.898094373207177 -0.05495784456179443 -0.055083894664000356
0.798489582444035 0.09446194659313933 -0.055083894664000356
0.635128649985123 0.14655845383485847 -0.054201543948558695
0.8415987173984699 0.0018151214717655774 -0.054201543948558695
0.8451029102397957 -0.08253760692445644 -0.054201543948558695
0.7996870584149915 -0.13213832214249802 -0.054201543948558695
0.643158041495642 -0.13018454555830575 -0.054201543948558695
0.606427041712828 -0.10078966172387817 -0.054201543948558695
0.6152883638979064 -0.10084008176476043 -0.054201543948558695
0.6226748998871751 -0.02331926890810096 -0.054201543948558695
0.43367537663957284 0.03475201317818045 -0.054201543948558695
0.6447966928243194 0.1576004427880998 -0.052562892619881355
0.8814935747466536 -0.08815944148284181 -0.052562892619881355
0.6333639485542397 -0.2363943616770397 -0.052562892619881355
0.4444652653884023 -0.03835704610127083 -0.052562892619881355
0.5753430865088407 -0.14494501252662265 -0.052562892619881355
0.7305233673345866 0.10489889505579189 -0.05168054190443969
0.8580608607465672 -0.042806614709140815 -0.05168054190443969
0.7882291041244708 -0.12882320445448162 -0.05168054190443969
0.6116329109339338 0.03874780141810917 -0.05168054190443969
0.5941119467273068 -0.13642402561750036 -0.05168054190443969
0.6123261864960666 -0.02325624385699804 -0.05168054190443969
0.6252463219721766 -0.10068882164211329 -0.05168054190443969
0.4704189814326075 0.052827597834513726 -0.05168054190443969
0.6616748015096963 0.1608651404352341 -0.05004189057576235
0.8026996558577137 -0.10009638616174536 -0.05004189057576235
0.5328515970552147 0.09446194659313933 -0.05004189057576235
0.6583092637807973 0.06830655038540456 -0.05004189057576235
0.6570361577485172 0.13026017561962933 -0.04915953986032069
0.808195440313893 0.0605166540690767 -0.04915953986032069
0.8735902333383403 -0.050735166137895166 -0.04915953986032069
0.8055988082084505 -0.13579377510647064 -0.04915953986032069
0.5952716076676016 -0.12828118901499594 -0.04915953986032069
0.5979060548037057 -0.04947466511583573 -0.04915953986032069
0.6138513927327586 -0.03598730417979893 -0.04915953986032069
0.4321627754131014 -0.1187139862575643 -0.04915953986032069
0.6822713882101487 -0.22469691219232754 -0.04852928934929093
0.6584983389341063 0.06838218044672813 -0.04752088853164335
0.6822713882101487 0.09446194659313933 -0.04752088853164335
0.8155063462418383 -0.08021828504386698 -0.04752088853164335
0.6822713882101487 0.14103745935823797 -0.04752088853164335
0.7760652692615965 0.07574350641555569 -0.04663853781620169
0.8373634339643502 -0.07745778780555673 -0.04663853781620169
0.7942795090303563 -0.12409632562175847 -0.04663853781620169
0.6130572770888612 0.05207129722127817 -0.04663853781620169
0.6057715811813572 -0.11969717705477076 -0.04663853781620169
0.6401580490631404 0.012806690384124464 -0.04663853781620169
0.4261123705072159 0.039781412256197884 -0.04663853781620169
0.6791957657163235 -0.22097843417725196 -0.04600828730517193
0.6988721866706724 0.06126034967209196 -0.0449998864875243
0.5328515970552147 0.09446194659313933 -0.0449998864875243
0.898094373207177 -0.05495784456179443 -0.0449998864875243
0.633263108472475 0.13648705066860328 -0.04411753577208265
0.6936411074291252 0.1061341860574102 -0.04411753577208265
0.8429474534920736 -0.013815091201772225 -0.04411753577208265
0.6987209265480253 -0.1975583251873863 -0.04411753577208265
0.6307925264692383 0.05305448801848445 -0.04411753577208265
0.597464879445985 -0.08808381142151823 -0.04411753577208265
0.4260493454561128 0.039844437307300806 -0.04411753577208265
0.6987587415786869 -0.22097843417725196 -0.04348728526105293
0.5761372021527382 0.06852083555915463 -0.0424788844434053
0.6822713882101487 0.04464694620134752 -0.0424788844434053
0.8223508667916215 -0.07237796868665686 -0.0424788844434053
0.6369311664466681 0.13568033001448493 -0.041596533727963646
0.7765064446193173 0.056495655808707024 -0.041596533727963646
0.8503213844711218 -0.08754179598203274 -0.041596533727963646
0.7339141150839263 -0.16304580720339706 -0.041596533727963646
0.5953724477493663 -0.1356046999531617 -0.041596533727963646
0.6000236965207658 -0.0806090403607055 -0.041596533727963646
0.45926354738738084 0.048680549471938034 -0.041596533727963646
0.6030110839430468 -0.150037436655743 -0.0399578823992863
0.5826665974470064 0.028046147740823923 -0.0399578823992863
0.591364054499217 -0.059596488322973526 -0.0399578823992863
0.8534726370262705 0.02650833649391133 -0.0399578823992863
0.771565280612844 0.07346199956562784 -0.039075531683844644
0.6803428216463974 0.138856792590075 -0.039075531683844644
0.6375866269781392 -0.21695743591688213 -0.039075531683844644
0.8018551201729338 -0.13893242265139877 -0.039075531683844644
0.6010320973384135 -0.13822654207904547 -0.039075531683844644
0.4298182435120708 0.038407466142153096 -0.039075531683844644
0.4604232083276756 0.05441582912230876 -0.039075531683844644
0.8099475367345558 0.04464694620134752 -0.0374368803551673
0.7132797133528122 -0.20590284195342032 -0.0374368803551673
0.577826273522298 -0.12136103840388919 -0.0374368803551673
0.4083014910655151 -0.08815944148284181 -0.0374368803551673
0.6443807274870399 0.12910051467933442 -0.03655452963972564
0.8465903014458258 -0.086256084939532 -0.03655452963972564
0.7193805382995803 -0.17701215852781643 -0.03655452963972564
0.5962674034750285 -0.1286719443318345 -0.03655452963972564
0.598057314926353 -0.08526028913210508 -0.03655452963972564
0.4377972149817074 0.042529304484287656 -0.03655452963972564
0.6988721866706724 -0.21720953612129396 -0.03592427912869588
0.887506164621877 -0.048214164093776116 -0.034915878311048296
0.5882128019440683 -0.046499882703775246 -0.034915878311048296
0.44399888001024024 -0.005155449180223453 -0.034915878311048296
0.40823846601441205 -0.10476023994336559 -0.034915878311048296
0.646246268999688 0.12872236437271656 -0.034033527595606634
0.8625734544055403 -0.04430661092539162 -0.034033527595606634
0.7952374898071214 -0.12510472643940607 -0.034033527595606634
0.6019648680947374 -0.1284324491376431 -0.034033527595606634
0.5982589950898826 -0.08416365324291326 -0.034033527595606634
0.4260871604867746 -0.02776883751597094 -0.034033527595606634
0.4161292024125046 0.04764693863384914 -0.034033527595606634
0.7961954705838865 -0.1545752403351572 -0.032394876266929246
0.7818887839835112 0.09765101417894989 -0.032394876266929246
0.6628596724704322 -0.12136103840388919 -0.032394876266929246
0.4081754409633091 -0.0021428517375011807 -0.032394876266929246
0.6730949407695553 0.13027278062984962 -0.03151252555148759
0.7847627263138071 0.0763485469061441 -0.03151252555148759
0.8321449597330236 0.003264697647134123 -0.03151252555148759
0.7092461100822218 -0.2043020056554048 -0.03151252555148759
0.6341076441572547 0.04283182472958195 -0.03151252555148759
0.4619862295950293 0.04429400591517097 -0.03151252555148759
0.4190031447428002 -0.02173103762030592 -0.03151252555148759
0.798489582444035 0.028046147740823923 -0.030882275040457874
0.798489582444035 -0.171176038795681 -0.030882275040457874
0.6988721866706724 -0.03835704610127083 -0.030882275040457874
0.3834444109105016 0.028046147740823923 -0.030882275040457874
0.7167965112043585 0.10914678350013247 -0.02899152350736859
0.7969643762073428 0.04072678802274255 -0.02899152350736859
0.8566490996018606 0.005117634149561488 -0.02899152350736859
0.6517546584660879 -0.2217977598415906 -0.02899152350736859
0.5992547908973095 0.0654578180755501 -0.02899152350736859
0.43760813982839847 0.04271837963759659 -0.02899152350736859
0.42088129126566887 0.04687803301039293 -0.02899152350736859
0.7378594832829728 -0.20437763571672837 -0.028361272996338827
0.40425528278470396 -0.06729814956775716 -0.027352872178691246
0.4437971998467107 -0.06044102400775331 -0.027352872178691246
0.7758005640469637 -0.17002898286560675 -0.027352872178691246
0.8602541325249509 -0.09630227808534622 -0.027352872178691246
0.7692837737629161 0.0982812646899796 -0.027352872178691246
0.7184603725534768 0.10094092184652514 -0.02647052146324959
0.8710944413146624 -0.05325616818201421 -0.02647052146324959
0.6955696739928765 -0.1881423825526018 -0.02647052146324959
0.6452378681820403 0.04126880346222804 -0.02647052146324959
0.6003766368069425 0.0016890713695597416 -0.02647052146324959
0.46455765168003077 -0.12160053359808055 -0.02647052146324959
0.7378594832829728 -0.19912134645474022 -0.025840270952219826
0.7486871870624641 0.1111383751149865 -0.025840270952219826
0.3957721109062435 -0.07155864302231821 -0.02483187013457224
0.4437341747956077 -0.07155864302231821 -0.02483187013457224
0.7320737835917196 -0.20437763571672837 -0.02483187013457224
0.8522877660655347 -0.12136103840388919 -0.02483187013457224
0.7639266444191631 0.10152075231667242 -0.02483187013457224
0.7230612012839941 0.11014257930755958 -0.023949519419130587
0.7354645313410597 0.11432744270079706 -0.023949519419130587
0.7113511467890613 -0.18665499134657165 -0.023949519419130587
0.8132626544225724 -0.13541562479985278 -0.023949519419130587
0.655422716440281 -0.13704167111830942 -0.023949519419130587
0.42168801191978705 -0.00810502157184263 -0.023949519419130587
0.43578041334641227 0.030516729744060528 -0.023949519419130587
0.8421407328379557 -0.13796183686441296 -0.023319268908100824
0.40439393789713063 0.007020990692871294 -0.023319268908100824
0.5805867707606083 -0.14905424585853655 -0.02231086809045324
0.6636537881143297 0.028046147740823923 -0.02231086809045324
0.797178661381093 0.07786114813261556 -0.02231086809045324
0.8543928027723741 0.028046147740823923 -0.02231086809045324
0.8272037957265505 -0.10352494894174728 -0.02231086809045324
0.6818806328933101 0.11762995537859297 -0.021428517375011582
0.8655482368176006 -0.04268056460693498 -0.021428517375011582
0.7808677781556431 -0.13783578676220695 -0.021428517375011582
0.6325950429307835 -0.13044925077293826 -0.021428517375011582
0.5992547908973095 -0.08425188831445748 -0.021428517375011582
0.4257594302210392 -0.10731905701814642 -0.021428517375011582
0.4210955764394189 0.05197045713951329 -0.021428517375011582
0.8117752632165423 0.028046147740823923 -0.020798266863981823
0.40004520937102533 0.011445349280300146 -0.020798266863981823
0.798489582444035 -0.1545752403351572 -0.019789866046334193
0.5328515970552147 -0.15776430792096777 -0.019789866046334193
0.6595571597926363 -0.14698702418235896 -0.019789866046334193
0.6981789111085396 0.12041566263734452 -0.018907515330892535
0.8611238782301718 -0.060100688731797226 -0.018907515330892535
0.8395567057427334 0.03288647166553243 -0.018907515330892535
0.824884473845961 -0.12481481120433224 -0.018907515330892535
0.6558386817775607 0.05997463862959121 -0.018907515330892535
0.4352005828762648 -0.11947028687080004 -0.018907515330892535
0.41575105210588675 -0.12426019075462609 -0.018907515330892535
0.7704434347032111 0.11106274505366294 -0.01827726481986282
0.3834444109105016 -0.005155449180223453 -0.01726886400221519
0.664044543431168 -0.08815944148284181 -0.01726886400221519
0.798489582444035 -0.08815944148284181 -0.01726886400221519
0.8017920951218309 0.026773041708543836 -0.01726886400221519
0.469498815686504 -0.13042404075249714 -0.016386513286773534
0.6087085485627557 -0.07787375314283639 -0.016386513286773534
0.5878598616578915 0.041407458574654714 -0.016386513286773534
0.8243424584064754 -0.11862575118602008 -0.016386513286773534
0.8394180506303069 0.022726833427732848 -0.016386513286773534
0.8187458338685313 0.05410070386679382 -0.016386513286773534
0.8806616440720942 -0.04919735489098257 -0.016386513286773534
0.8224391018631657 0.06292421102121039 -0.01474786195809619
0.5826665974470064 -0.022499943243762307 -0.01474786195809619
0.5082466171046132 0.04464694620134752 -0.01474786195809619
0.42142330670515454 0.005155449180223274 -0.013865511242654532
0.4258980853334656 -0.07997878984967578 -0.013865511242654532
0.6043093999957682 -0.07777291306107151 -0.013865511242654532
0.6462210589792468 -0.11838625599182888 -0.013865511242654532
0.7587711952389399 -0.16027270495486615 -0.013865511242654532
0.8100231667958794 0.04353770530193524 -0.013865511242654532
0.7867417129184402 0.05681078106422179 -0.013865511242654532
0.8194012944000021 0.020104991301849097 -0.013865511242654532
0.798489582444035 0.07786114813261556 -0.013235260731624772
0.8150903809045588 -0.14314249606507753 -0.012226859913977189
0.5328515970552147 -0.171176038795681 -0.012226859913977189
0.40385192245764495 -0.07155864302231821 -0.012226859913977189
0.46148202918620557 0.050268780759733074 -0.011344509198535531
0.4361837736734713 -0.11462996294609153 -0.011344509198535531
0.6023934384422377 -0.032079751011414435 -0.011344509198535531
0.6559395218593254 -0.13972653829529627 -0.011344509198535531
0.7258973285836279 0.10741989709991094 -0.011344509198535531
0.8791994628865051 -0.039390656939359545 -0.011344509198535531
0.8400609061515575 0.030869670030237262 -0.011344509198535531
0.8030399911336698 0.0736006546780545 -0.01071425868750577
0.8814935747466536 -0.07439477032195202 -0.009705857869858187
0.44984760475259633 -0.03835704610127083 -0.009705857869858187
0.579162404605681 0.06126034967209196 -0.009705857869858187
0.7836408804041741 -0.14324333614684226 -0.00882350715441653
0.811409717920145 0.0353318436483279 -0.00882350715441653
0.8494264287454596 -0.061121694559665464 -0.00882350715441653
0.6093135890533443 6.806705519119796E-4 -0.00882350715441653
0.6036917544949589 0.05755447666723687 -0.00882350715441653
0.46386437611789794 -0.12917614474065817 -0.00882350715441653
0.4692971355229746 0.05388641869304375 -0.00882350715441653
0.8204853252789734 0.05851245744400219 -0.00718485582573914
0.4830492016736437 -0.12136103840388919 -0.00718485582573914
0.4315199198918512 -0.052991462967381706 -0.00718485582573914
0.40372587235543894 0.011445349280300146 -0.00718485582573914
0.8615272385572309 -0.015504162571331966 -0.006302505110297482
0.83079622363942 -0.1073568720488082 -0.006302505110297482
0.8632289149370111 -3.6554529639738986E-4 -0.006302505110297482
0.6366664612320356 0.05428977902010275 -0.006302505110297482
0.42535606989398017 -0.10769720732476429 -0.006302505110297482
0.4289611028170704 0.039226791806491745 -0.006302505110297482
0.8316911793650822 0.062230935459077756 -0.0056722545992677655
0.4380367101758988 -0.029180598660677702 -0.0046638537816201375
0.4830492016736437 -0.12136103840388919 -0.0046638537816201375
0.3834444109105016 -0.10476023994336559 -0.0046638537816201375
0.8643129458159825 0.011445349280300146 -0.0046638537816201375
0.7453090443233445 0.09235690988629994 -0.0037815030661784805
0.8749389694319439 -0.05152928178179268 -0.0037815030661784805
0.8070609893940397 0.06131076971297422 -0.0037815030661784805
0.6414437601056412 0.044520896099141685 -0.0037815030661784805
0.436940074286707 -0.12006272235116797 -0.0037815030661784805
0.42175103697088995 0.014067191406184076 -0.0037815030661784805
0.8316911793650822 0.065520843126653 -0.002142851737501136
0.8316911793650822 -0.14223493532919468 -0.002142851737501136
0.4315199198918512 -0.01899575040243681 -0.002142851737501136
0.6690361274785237 -0.08815944148284181 -0.002142851737501136
0.8033551163891847 -0.13318453799080737 -0.0012605010220594786
0.8171954176113981 0.030025134345457304 -0.0012605010220594786
0.7710988952346819 -0.16859201170045884 -0.0012605010220594786
0.6496244117388074 -0.1168106297142545 -0.0012605010220594786
0.6572252329018261 0.060491444048635566 -0.0012605010220594786
0.41430147593051836 -0.09853336489439163 -0.0012605010220594786
0.826472705133756 0.05901665785282589 -6.302505110297169E-4
0.840199561263984 -0.11710054494932813 3.78150306617866E-4
0.48147357539606933 0.06126034967209196 3.78150306617866E-4
0.4445787104803877 -0.061272954682312614 3.78150306617866E-4
0.830203788159052 0.02439069477685128 0.0012605010220595233
0.8384222548228802 0.023054563693468273 0.0012605010220595233
0.5964312686078963 -0.013084000608977804 0.0012605010220595233
0.6044732651286359 -0.13459629913551413 0.0012605010220595233
0.4251669947406712 -0.10788628247807322 0.0012605010220595233
0.4370913344093541 0.03839486113193244 0.0012605010220595233
0.861703708700319 0.04464694620134752 0.002899152350736868
0.6988721866706724 -0.07155864302231821 0.002899152350736868
0.4034611671408066 0.011445349280300146 0.002899152350736868
0.8164643270186034 -0.11417618257815008 0.003781503066178525
0.8164265119879418 0.05179398699642501 0.003781503066178525
0.8181407933779427 -0.13331058809301338 0.003781503066178525
0.645212658161599 0.055247759796868065 0.003781503066178525
0.5893598578741424 0.04367636041436173 0.003781503066178525
0.4269443011817752 0.03641587452729906 0.003781503066178525
0.8629642097223784 -0.09068044352696085 0.004411753577208287
0.4429400591517102 0.0053571293437528625 0.005420154394855914
0.6066413268865783 -0.15137356773912602 0.005420154394855914
0.8648927762861298 -0.12136103840388919 0.005420154394855914
0.8253256492036818 0.029054548558471508 0.006302505110297572
0.8180525583063984 -0.10622242112895461 0.006302505110297572
0.6347631046887258 -0.13129378645771822 0.006302505110297572
0.6048892304659155 0.05802086204539896 0.006302505110297572
0.4357173882953093 -0.11505853329359166 0.006302505110297572
0.4748307350098157 0.03572259896516625 0.006302505110297572
0.8682204989843666 0.00810502157184263 0.007941156438974917
0.6698176381122007 -0.12559632183800928 0.007941156438974917
0.3834444109105016 -0.07155864302231821 0.007941156438974917
0.6618008516119022 0.03505453342347474 0.008823507154416575
0.7964601757985192 0.060491444048635566 0.008823507154416575
0.8432499737373679 0.0020672216761774284 0.008823507154416575
0.6476706351546151 -0.12317615987565494 0.008823507154416575
0.46339799073973603 -0.1296047150881585 0.008823507154416575
0.4371669644706777 0.03370579732987108 0.008823507154416575
0.40216285108808525 -0.0784031635721014 0.010462158483093918
0.6988721866706724 -0.10476023994336559 0.010462158483093918
0.8895607812878342 -0.021756247640747232 0.010462158483093918
0.6582210287092533 0.06085698934503278 0.011344509198535576
0.863039839783702 -0.06167631500937161 0.011344509198535576
0.8858296982625382 -0.042188969208331754 0.011344509198535576
0.6620025317754318 -0.1063232612107193 0.011344509198535576
0.41862499443618234 -0.12941563993484956 0.011344509198535576
0.8747372892684145 0.011445349280300146 0.011974759709565337
0.6104228299527568 0.07130654281790617 0.01298316052721292
0.6707882238991865 0.008735272082872345 0.01298316052721292
0.40574267399073427 -0.07476031561834941 0.01298316052721292
0.8117752632165423 0.04559232196789219 0.013865511242654577
0.8187080188378693 0.02904194354825085 0.013865511242654577
0.5997463862959127 0.0605796791201798 0.013865511242654577
0.6574521230857968 -0.14107527438889994 0.013865511242654577
0.411074593314046 -0.10590729587343965 0.013865511242654577
0.8962792517354112 -0.005155449180223453 0.01449576175368434
0.3834444109105016 -0.13796183686441296 0.015504162571331923
0.6704226786027891 0.04464694620134752 0.015504162571331923
0.3834444109105016 0.06325194128694599 0.015504162571331923
0.8280987514522127 0.028941103466486148 0.01638651328677358
0.8540776775168591 -0.020231041404055114 0.01638651328677358
0.6035278893620913 0.06395782185929928 0.01638651328677358
0.4265787558853778 -0.11302912664807602 0.01638651328677358
0.43642326886766264 0.04384022554722953 0.01638651328677358
0.898094373207177 -0.05495784456179443 0.018025164615450968
0.6822713882101487 0.028046147740823923 0.018025164615450968
0.6988721866706724 0.07786114813261556 0.018025164615450968
0.8343760465420692 0.019373900709054495 0.018907515330892626
0.8865355788348913 -0.03279823659398838 0.018907515330892626
0.6466874443574087 -0.12568455690955332 0.018907515330892626
0.46070051855252875 -0.1277391735755103 0.018907515330892626
0.4140241657056652 0.03199151593987021 0.018907515330892626
0.40189814587345274 0.011445349280300146 0.02054616665956997
0.3834444109105016 -0.1545752403351572 0.02054616665956997
0.8411071219998669 -0.0913989291095348 0.021428517375011627
0.6492210514117484 0.04336123515884696 0.021428517375011627
0.5947043822076747 -0.1383778022016926 0.021428517375011627
0.4352383979069266 -0.1100039241951331 0.021428517375011627
0.6672336110169785 0.06126034967209196 0.023067168703688974
0.6822713882101487 0.028046147740823923 0.023067168703688974
0.8716112467337067 -0.049966260514438955 0.02394951941913063
0.8399600660697927 -0.08287794220041252 0.02394951941913063
0.5910363242334816 0.042642749576273016 0.02394951941913063
0.4245115342092002 -0.11595348901925406 0.02394951941913063
0.4247132143727298 0.03442428291244502 0.02394951941913063
0.8748885493910618 -0.05278978280385212 0.026470521463249633
0.8367583934737616 0.03313857186994428 0.026470521463249633
0.6493597065241749 -0.12668035271698044 0.026470521463249633
0.4691584804105479 -0.11755432531726957 0.026470521463249633
0.4743013245805507 0.03622679937399013 0.026470521463249633
0.41091072818117824 0.00945375766544629 0.026848671769867497
0.86955663006775 -0.020697426782217206 0.028991523507368635
0.8500440742462688 -0.003642847953751989 0.028991523507368635
0.6388723380206397 0.04468476123200931 0.028991523507368635
0.42433506406611193 -0.11786945057278451 0.028991523507368635
0.42459976928074444 0.034878063280386465 0.028991523507368635
0.3834444109105016 -0.08815944148284181 0.030630174836046024
