0.43358724878537935 0.31386816253363914 -0.19734465728050207
0.566799901197365 0.38285865261946744 -0.19734465728050207
0.617839039717373 0.418901600685216 -0.19684378251583076
0.5618813110082927 0.2869611701754956 -0.19684378251583076
0.11329787176865377 0.5244559485920511 -0.19684378251583076
0.5950091679436541 0.4063596965778461 -0.1953411582218168
0.15226592846008288 0.4799782694892375 -0.1953411582218168
0.5324499098362055 0.3452129053067707 -0.1953411582218168
0.26051498260084965 0.48694042871816884 -0.1953411582218168
0.6542426176136851 0.3661294354794453 -0.19484028345714544
0.12649091307009655 0.379322476780888 -0.19484028345714544
0.5777590410483735 0.4302414053573749 -0.19333765916313148
0.4020922435828465 0.5120242369329089 -0.19333765916313148
0.3197784847567608 0.5089588833731203 -0.19333765916313148
0.5411951832273669 0.3562722201107136 -0.19333765916313148
0.5742929876768479 0.4303215453197222 -0.19333765916313148
0.5976337517105318 0.3814461857830944 -0.1928367843984602
0.11329787176865377 0.33974335287655993 -0.1928367843984602
0.5347940037348674 0.3387115508613369 -0.19133416010444618
0.5872155566053683 0.3855333238628124 -0.19133416010444618
0.5691439950960269 0.35658276246480985 -0.19133416010444618
0.5510423811008051 0.45524507360976735 -0.19133416010444618
0.15997939983602125 0.3270912563209622 -0.19133416010444618
0.6278565350107995 0.39251551808233076 -0.19016211315511528
0.40355479789568677 0.26311953137714056 -0.19016211315511528
0.1415872784772902 0.40402562017447763 -0.18933066104576088
0.14573452152876878 0.3282232332891194 -0.18933066104576088
0.1728819337739547 0.39845589279133253 -0.18933066104576088
0.13742000043522482 0.3293852627431568 -0.18933066104576088
0.15057297175549383 0.32792270843031657 -0.18933066104576088
0.571007249220604 0.37654763058460883 -0.18933066104576088
0.6278565350107995 0.2869611701754956 -0.18732716198707555
0.2980104674841451 0.5401834162027308 -0.18732716198707555
0.46241760023986084 0.30358019486729027 -0.18732716198707555
0.35338718146620673 0.30011414149576465 -0.18732716198707555
0.476161603782442 0.29872170964997824 -0.18732716198707555
0.41413327292554514 0.3019573606297551 -0.18732716198707555
0.41660759426302146 0.5089488658778268 -0.18732716198707555
0.15246627836595136 0.3904719490424717 -0.1853236629283903
0.55406766467942 0.46456134423265405 -0.1853236629283903
0.5704061995029986 0.3561019226907253 -0.1853236629283903
0.6057078529170337 0.3945590871221897 -0.1853236629283903
0.5190364836383075 0.4839952851019015 -0.1853236629283903
0.2138735245146559 0.3189470326474064 -0.1853236629283903
0.4941930953106097 0.4831538154972536 -0.1853236629283903
0.6278565350107995 0.5244559485920511 -0.18482278816371894
0.11329787176865377 0.2869611701754956 -0.18482278816371894
0.17257139141985842 0.40277343326279935 -0.18332016386970498
0.5925849340826449 0.4259839698576686 -0.18332016386970498
0.5656679242292078 0.34944028832059665 -0.18332016386970498
0.6075510720510241 0.3942485447680934 -0.18332016386970498
0.49220963124251127 0.3131769553583928 -0.18332016386970498
0.27271629186824314 0.49876107316441215 -0.18332016386970498
0.2384564579647245 0.424631607993056 -0.18332016386970498
0.5415858655438105 0.45553558097327684 -0.18332016386970498
0.6146634937093567 0.31334725277838105 -0.1821481169203741
0.40355479789568677 0.5376489898934937 -0.1821481169203741
0.1411164561984992 0.3813460108301601 -0.18131666481101968
0.1372697380058234 0.41824044599585 -0.18131666481101968
0.14819882537095166 0.49537515975523394 -0.18131666481101968
0.558134767768551 0.4754503616166087 -0.18131666481101968
0.4705317714275363 0.3094804995951184 -0.18131666481101968
0.3281230583361852 0.44360474407880585 -0.18131666481101968
0.4865797988876056 0.3097109019868672 -0.18131666481101968
0.6146634937093567 0.4980698659891657 -0.17948346317232264
0.5223021871039646 0.27376812887405283 -0.17948346317232264
0.1498517120943671 0.4205745223992182 -0.17931316575233439
0.16711185648494095 0.317384303381632 -0.17931316575233439
0.1356669387588752 0.3930464453328823 -0.17931316575233439
0.13673881075527183 0.47551046658836926 -0.17931316575233439
0.5320692450150554 0.3163224488805287 -0.17931316575233439
0.1437811099465507 0.4255432000647579 -0.17931316575233439
0.3283234082420537 0.3851726940322491 -0.17931316575233439
0.393978072395171 0.29819078239942665 -0.17931316575233439
0.14830901781917943 0.42030405002629573 -0.17730966669364906
0.2261850262302771 0.31031195170447284 -0.17730966669364906
0.13489559162128137 0.39783480808314015 -0.17730966669364906
0.13889257224335855 0.4929609433895181 -0.17730966669364906
0.5047114653687076 0.30138636339802977 -0.17730966669364906
0.23471993222027637 0.44869363168786647 -0.17730966669364906
0.3285237581479222 0.4142334478784793 -0.17730966669364906
0.34231784916697044 0.3020675530779827 -0.17730966669364906
0.588267393611178 0.5244559485920511 -0.17680879192897778
0.6806287002165703 0.32655031157511716 -0.17680879192897778
0.3092701321939565 0.5244559485920511 -0.17680879192897778
0.32053981439906126 0.44596887296805454 -0.1753061676349638
0.1495712222261511 0.38650502090627475 -0.1753061676349638
0.1381011901151778 0.44646974773272585 -0.1753061676349638
0.42067469735215257 0.5241954937144221 -0.1753061676349638
0.3588166639152439 0.28842372448833586 -0.1753061676349638
0.13133938079211493 0.40320418556041676 -0.1753061676349638
0.14343049761128066 0.48839296553571576 -0.1753061676349638
0.16812362350957702 0.5112629072906085 -0.17480529287029242
0.6410495763122422 0.3108128264691441 -0.17480529287029242
0.6806287002165703 0.4848768246877231 -0.17480529287029242
0.258481431056284 0.4061092591955105 -0.17330266857627846
0.13860206487984908 0.3241661476952816 -0.17330266857627846
0.17303219620335608 0.4000386570476939 -0.17330266857627846
0.1404352665185462 0.49720836139393104 -0.17330266857627846
0.5357456657877429 0.31358767266542326 -0.17330266857627846
0.1305880686451079 0.3796730891161578 -0.17330266857627846
0.5766971865472704 0.45143842539826534 -0.17330266857627846
0.6114378602248733 0.4084032656177052 -0.17330266857627846
0.6542426176136851 0.4452876832881014 -0.17200039418813304
0.25617740713879605 0.4416413150012943 -0.17200039418813304
0.3186565252838971 0.35569120538369486 -0.1712991695175932
0.24678099655356195 0.36419605888781387 -0.1712991695175932
0.5030886311311724 0.30508281916130414 -0.1712991695175932
0.13288207506730257 0.38491223915462003 -0.1712991695175932
0.1326516726755538 0.47322647766146797 -0.1712991695175932
0.620704043371293 0.4170884340371058 -0.1712991695175932
0.1297866690216338 0.3625632071549854 -0.1712991695175932
0.3991971874430462 0.5182551190054201 -0.1712991695175932
0.24009932719284646 0.35541071551547887 -0.1712991695175932
0.6806287002165703 0.32655031157511716 -0.17079829475292185
0.12181274276806639 0.4584807245895442 -0.17079829475292185
0.24230317615740027 0.43866611889914664 -0.1692956704589079
0.16437708026983555 0.4091645952600055 -0.1692956704589079
0.13669874077409808 0.4527607347769977 -0.1692956704589079
0.5846811302961312 0.45906173931656286 -0.1692956704589079
0.12806365983116447 0.33754952140729944 -0.1692956704589079
0.12901532188403997 0.4398081133625972 -0.1692956704589079
0.2490750029757566 0.4168279791594768 -0.1692956704589079
0.4534319069616573 0.29375303198443875 -0.1692956704589079
0.6278565350107995 0.5244559485920511 -0.16879479569423655
0.48272306319963637 0.2605750875726102 -0.16879479569423655
0.248073253446414 0.35569120538369486 -0.16729217140022257
0.16703171652259358 0.4001288145053348 -0.16729217140022257
0.1351860989847907 0.3389920407295529 -0.16729217140022257
0.13236116531204448 0.41262063113623765 -0.16729217140022257
0.13226099035911015 0.4550146712180186 -0.16729217140022257
0.35441898348142975 0.5264995176319102 -0.16729217140022257
0.17456487298325027 0.4031140281027759 -0.16729217140022257
0.6177388647644388 0.40366499034391445 -0.16729217140022257
0.23654311636368 0.4514584603888521 -0.16729217140022257
0.328613915605563 0.35752440702239185 -0.16729217140022257
0.5618813110082927 0.2869611701754956 -0.16679129663555126
0.12149218291867663 0.4848768246877231 -0.16679129663555126
0.24881454809812756 0.45125811048298364 -0.1652886723415373
0.14318006022894508 0.3966327086479289 -0.1652886723415373
0.5688034002560501 0.47194423826390935 -0.1652886723415373
0.6018410997337708 0.3664099253476612 -0.1652886723415373
0.1557019293457282 0.30427140204253655 -0.1652886723415373
0.1276829950100143 0.42253795147672996 -0.1652886723415373
0.23501043958378584 0.4398481833437709 -0.1652886723415373
0.32806295336442465 0.5140577884774744 -0.1652886723415373
0.5138073510951389 0.46107525587054166 -0.1652886723415373
0.485768381768838 0.5125852166693406 -0.1652886723415373
0.1411164561984992 0.36950533139332997 -0.1652886723415373
0.6938217415180131 0.4716737658909868 -0.16478779757686593
0.11971908625174021 0.4452876832881014 -0.16478779757686593
0.32439655008703056 0.36486723107247354 -0.16328517328285197
0.16099116686065731 0.3988766275936565 -0.16328517328285197
0.5209398077440585 0.504040293184048 -0.16328517328285197
0.5868849792606851 0.4631989648727481 -0.16328517328285197
0.6308317311129472 0.3974641607572834 -0.16328517328285197
0.1368990906799667 0.3485086612583081 -0.16328517328285197
0.28231305235934573 0.5107119450494699 -0.16328517328285197
0.4555556159638636 0.5208195978005373 -0.16328517328285197
0.1889900662057844 0.47444861208726596 -0.16328517328285197
0.13527625644243155 0.3398234928389073 -0.16328517328285197
0.3470561244407613 0.36006885082692225 -0.16328517328285197
0.4751298017672191 0.2948749914573026 -0.16328517328285197
0.6674356589151276 0.31334725277838105 -0.1621131263335211
0.1297866690216338 0.5112629072906085 -0.1621131263335211
0.3249274773375821 0.35798521180588955 -0.16128167422416667
0.1662403343944128 0.4058588218131748 -0.16128167422416667
0.6135515517317865 0.4287588160539478 -0.16128167422416667
0.5964917572470811 0.3558615028036831 -0.16128167422416667
0.6306313812070788 0.41741901138178894 -0.16128167422416667
0.23758493587419635 0.3045719269013394 -0.16128167422416667
0.13793089269518957 0.4257936374470935 -0.16128167422416667
0.2352608769661214 0.37439386909652206 -0.16128167422416667
0.4598330864541568 0.2904572760329015 -0.16128167422416667
0.47840552272816955 0.33938272304599654 -0.16128167422416667
0.48390512764426064 0.4728658478309046 -0.16128167422416667
0.6278565350107995 0.2869611701754956 -0.15944847258546962
0.32439655008703056 0.5351646510607241 -0.15944847258546962
0.25719919165872546 0.44370491903174014 -0.15927817516548137
0.1643370102886618 0.399427589834795 -0.15927817516548137
0.13351317727078846 0.49114777674140797 -0.15927817516548137
0.13011724636631689 0.4954953696987551 -0.15927817516548137
0.13657853083057694 0.37905200440796544 -0.15927817516548137
0.17453482049736999 0.31013163678919115 -0.15927817516548137
0.13623793599060052 0.4231590361849224 -0.15927817516548137
0.28130128533470966 0.5125251116975802 -0.15927817516548137
0.3484886262677213 0.42782718899165906 -0.15927817516548137
0.3068659333235342 0.2962073183313283 -0.15927817516548137
0.4877718808275234 0.40172159625698967 -0.15927817516548137
0.24648047169475915 0.35989855340693405 -0.15727467610679607
0.1442218797394614 0.41674783919712943 -0.15727467610679607
0.13779064776108166 0.5007144847466303 -0.15727467610679607
0.44925461142429846 0.2753108231492406 -0.15727467610679607
0.2034052419330252 0.49237992866249947 -0.15727467610679607
0.5813252693728334 0.457629237489603 -0.15727467610679607
0.4835745502995777 0.34464190807504536 -0.15727467610679607
0.23555138432963088 0.39426857975868035 -0.15727467610679607
0.3482281713900921 0.37316171717543073 -0.15727467610679607
0.17178000929167778 0.40717111369661363 -0.15727467610679607
0.13595744612238453 0.36300397694789616 -0.15727467610679607
0.4804991792444957 0.4911277417508212 -0.15727467610679607
0.2980104674841451 0.2605750875726102 -0.15677380134212476
0.11819642696713938 0.418901600685216 -0.15677380134212476
0.3141286174112683 0.5351045460889635 -0.15677380134212476
0.14998193953318167 0.42402054078015705 -0.15527117704811078
0.40730134113542826 0.2985413947346967 -0.15527117704811078
0.23871691284235355 0.36543822830419886 -0.15527117704811078
0.35636237756835437 0.457068257753171 -0.15527117704811078
0.4804991792444957 0.4705818589040034 -0.15527117704811078
0.6328252126763392 0.4078823558624469 -0.15527117704811078
0.35131355994046753 0.46363973466565883 -0.15527117704811078
0.1274525926182654 0.5032489110558672 -0.15527117704811078
0.1828693765815009 0.5010851320724871 -0.15527117704811078
0.4015312638464145 0.5258583979331308 -0.15527117704811078
0.4866198688687792 0.34746684174779174 -0.15527117704811078
0.6142026889258592 0.42933983078096644 -0.15527117704811078
0.13511597651773666 0.344281278244482 -0.15527117704811078
0.5750743523097352 0.5508420311949366 -0.15477030228343944
0.11632315534726864 0.4980698659891657 -0.15477030228343944
0.19245611957731001 0.2869611701754956 -0.15477030228343944
0.6938217415180131 0.39251551808233076 -0.15477030228343944
0.376998417872813 0.3388417783001515 -0.15326767798942548
0.4656833037055179 0.479968251993944 -0.15326767798942548
0.14366090000302956 0.3213612490131222 -0.15326767798942548
0.16259396610760565 0.41687806663594384 -0.15326767798942548
0.46009354133178587 0.5247765084414407 -0.15326767798942548
0.3778799574586346 0.28256348974168133 -0.15326767798942548
0.35291635918741576 0.34467196056092564 -0.15326767798942548
0.5938771909754968 0.34499252041031525 -0.15326767798942548
0.535865875731264 0.5121143943905497 -0.15326767798942548
0.20958603652906926 0.4874513209781336 -0.15326767798942548
0.5385205119840221 0.31369786511365094 -0.15326767798942548
0.3374994339308323 0.4782051728223009 -0.15276680322475417
0.20437693897648754 0.3287842130255512 -0.15276680322475417
0.28725167753900493 0.3376296613696468 -0.15276680322475417
0.2406402719386915 0.5376489898934937 -0.15196540360128002
0.11511103841676394 0.4984004433338488 -0.15196540360128002
0.3183359654345075 0.3125458531549069 -0.15196540360128002
0.45819021722603487 0.4564672080355654 -0.15196540360128002
0.2980104674841451 0.2605750875726102 -0.15196540360128002
0.2459395269489141 0.3600287808457485 -0.15126417893074018
0.1859347301412894 0.5018564792100809 -0.15126417893074018
0.3412059071894002 0.456196735662643 -0.15126417893074018
0.47345688005321684 0.48610897660881447 -0.15126417893074018
0.13090862849449753 0.42164639439561485 -0.15126417893074018
0.21835134491081745 0.49067695446261694 -0.15126417893074018
0.5932360712767176 0.46298859747158616 -0.15126417893074018
0.4677168552500834 0.28471725122976804 -0.15126417893074018
0.15277682072004764 0.30144646836979033 -0.15126417893074018
0.30530320405775957 0.28185224757584804 -0.15126417893074018
0.22925037979006557 0.48070954664565757 -0.15126417893074018
0.5163818473855494 0.3060745511953534 -0.15126417893074018
0.5252172782343516 0.30596435874712574 -0.15126417893074018
0.21991407417659206 0.5309573030374848 -0.15076330416606884
0.27689358740560205 0.5376489898934937 -0.14996190454259473
0.45819021722603487 0.5109623824318057 -0.14996190454259473
0.4530111721593334 0.2998035991416684 -0.14996190454259473
0.20437693897648754 0.38818796011557044 -0.14996190454259473
0.3011860134921613 0.27376812887405283 -0.14996190454259473
0.4485934567349323 0.5258483804378373 -0.14926067987205488
0.47921693984693714 0.3447320655326862 -0.14926067987205488
0.47494948685193744 0.3251478622340374 -0.14926067987205488
0.13966391938095238 0.3219723162260213 -0.14926067987205488
0.2088046718961821 0.5022571790218181 -0.14926067987205488
0.2285391376242323 0.516772529701993 -0.14926067987205488
0.13042778872041316 0.31031195170447284 -0.14926067987205488
0.34633486477963454 0.5259986428672387 -0.14926067987205488
0.4885231929745304 0.5241654412285418 -0.14926067987205488
0.35755445950827214 0.46700561308425015 -0.14926067987205488
0.31041212665740714 0.28044979823476834 -0.14926067987205488
0.2554461299823758 0.28576908823557784 -0.14926067987205488
0.32810302334559827 0.43789477176155267 -0.14926067987205488
0.20170226773314268 0.5028181587582499 -0.14926067987205488
0.4847766497347888 0.335495934872147 -0.14926067987205488
0.4842156699983569 0.47558058905542316 -0.14926067987205488
0.6278565350107995 0.4980698659891657 -0.14795840548390943
0.45819021722603487 0.30071519121337026 -0.14795840548390943
0.18396128356848435 0.36776228721227383 -0.14795840548390943
0.6938217415180131 0.35293639417800254 -0.14795840548390943
0.3768481554434116 0.3386915158707501 -0.14725718081336958
0.35615201016719245 0.35413849361321376 -0.14725718081336958
0.14827896533329915 0.49685774905866115 -0.14725718081336958
0.16442716774630264 0.4147643751290309 -0.14725718081336958
0.16152209411120902 0.4019119286675647 -0.14725718081336958
0.4822822934067256 0.3418770793740597 -0.14725718081336958
0.2594230756138662 0.5213004375746219 -0.14725718081336958
0.12663115800420446 0.394849594485699 -0.14725718081336958
0.34799776899834334 0.4667752106925014 -0.14725718081336958
0.26700631955099013 0.5281123343741517 -0.14725718081336958
0.1991377889380255 0.4858284867405986 -0.14725718081336958
0.24678099655356195 0.46802739760417966 -0.14725718081336958
0.33017664487133763 0.4508273581853664 -0.14725718081336958
0.19521093078300236 0.48479668472537557 -0.14725718081336958
0.5179045066701502 0.5114532397011835 -0.14725718081336958
0.2950452888772908 0.5376489898934937 -0.14675630604869824
0.6410495763122422 0.5006042922984026 -0.14595490642522413
0.42994088049857204 0.5006042922984026 -0.14595490642522413
0.2087044969432478 0.39251551808233076 -0.14595490642522413
0.37678805047165104 0.338641428394283 -0.14525368175468428
0.38776722531324653 0.35054221280287357 -0.14525368175468428
0.1593683326231223 0.39800510550312834 -0.14525368175468428
0.20447711392942183 0.4879121257616313 -0.14525368175468428
0.256107284671742 0.4907370594343775 -0.14525368175468428
0.42324919364256325 0.2756614354845105 -0.14525368175468428
0.4405894779954844 0.2795582411536534 -0.14525368175468428
0.18104619243809728 0.5129558639951975 -0.14525368175468428
0.12769301250530762 0.5085682010566767 -0.14525368175468428
0.12957630162047185 0.5144685057845049 -0.14525368175468428
0.2543041355189253 0.45344192445695064 -0.14525368175468428
0.2506778022227048 0.42916953336097824 -0.14525368175468428
0.2737280588928792 0.5219014872922274 -0.14525368175468428
0.48573832928295774 0.33533565494745216 -0.14525368175468428
0.48429580996070426 0.47639200617419075 -0.14525368175468428
0.6542426176136851 0.3661294354794453 -0.14395140736653883
0.48272306319963637 0.5508420311949366 -0.14395140736653883
0.3112035087855878 0.31334725277838105 -0.14395140736653883
0.47303614525089294 0.3332319809358326 -0.14325018269599896
0.2487744781169538 0.30772743791876866 -0.14325018269599896
0.3348948851545414 0.35060231777463413 -0.14325018269599896
0.15704427371504737 0.4065800814743015 -0.14325018269599896
0.22475252440331708 0.394919716952753 -0.14325018269599896
0.4743985246107989 0.5294346437528841 -0.14325018269599896
0.32905468539847377 0.4555455984685702 -0.14325018269599896
0.22129648852708497 0.4768027234812212 -0.14325018269599896
0.4124603512115429 0.534954283659562 -0.14325018269599896
0.31075272149738353 0.5299255010222621 -0.14325018269599896
0.310973106393839 0.5338423416819917 -0.14325018269599896
0.25436424049068584 0.47984804205042286 -0.14325018269599896
0.26731686190508624 0.5016961992853861 -0.14325018269599896
0.19016211315511536 0.4822822934067256 -0.14325018269599896
0.3174844783345661 0.3667304851970508 -0.14325018269599896
0.26478243559584935 0.3489293960606319 -0.14325018269599896
0.54690515554462 0.3115140511396839 -0.14325018269599896
0.33758959138847316 0.5508420311949366 -0.14274930793132765
0.7070147828194558 0.40570855938377337 -0.14194790830785353
0.458100059768394 0.48987555483914286 -0.14194790830785353
0.3112035087855878 0.31334725277838105 -0.14194790830785353
0.4839351801301409 0.33023674984309803 -0.14124668363731366
0.33190967155710044 0.35291635918741576 -0.14124668363731366
0.37549579357879914 0.3345643078098583 -0.14124668363731366
0.13595744612238453 0.31273618556548194 -0.14124668363731366
0.14968141467437887 0.4164172618524463 -0.14124668363731366
0.6182597745196969 0.44638960777037845 -0.14124668363731366
0.28073028810298434 0.34530306276441153 -0.14124668363731366
0.1449231044100012 0.5060738447286136 -0.14124668363731366
0.25076795968034565 0.29344248963034264 -0.14124668363731366
0.34786754155952876 0.3524655718992115 -0.14124668363731366
0.6213151105841921 0.4489440690702022 -0.14124668363731366
0.5929455639132083 0.482622888246702 -0.14124668363731366
0.2720651546741705 0.5085181135802096 -0.14124668363731366
0.49224970122368505 0.33111828942891963 -0.14124668363731366
0.4929809783801051 0.4811402989432749 -0.14124668363731366
0.6938217415180131 0.33974335287655993 -0.1399444092491682
0.32439655008703056 0.5462640358458407 -0.1399444092491682
0.39155383853416176 0.32655031157511716 -0.1399444092491682
0.48597874917 0.3274619036468189 -0.1392431845786284
0.33313180598289843 0.353837968754411 -0.1392431845786284
0.34304912632339063 0.3370085766614544 -0.1392431845786284
0.18520345298486918 0.4944034627117716 -0.1392431845786284
0.24632019177006426 0.48842301802159604 -0.1392431845786284
0.6461284464260096 0.4022324885169544 -0.1392431845786284
0.12637070312657542 0.4934618181541896 -0.1392431845786284
0.13362336971901612 0.3038406497449193 -0.1392431845786284
0.33201986400532807 0.5284028417376613 -0.1392431845786284
0.25365299832485244 0.2908780108352254 -0.1392431845786284
0.47385757986495386 0.4739477373225947 -0.1392431845786284
0.12225351256097712 0.41445383277493475 -0.1392431845786284
0.13145959073563604 0.29636759825602305 -0.1392431845786284
0.23758493587419635 0.29731926030889866 -0.1392431845786284
0.26368051111357244 0.5155103252950213 -0.1392431845786284
0.49372227303181865 0.28843374198362937 -0.1392431845786284
0.3442311907680149 0.2605750875726102 -0.13874230981395705
0.6674356589151276 0.48741125099696 -0.13794091019048293
0.3933770226775654 0.4700910016346256 -0.13794091019048293
0.33758959138847316 0.2630994963865536 -0.13794091019048293
0.35932755617520873 0.5274111097036119 -0.13723968551994306
0.4817814186420543 0.4821620834632045 -0.13723968551994306
0.24617994683595634 0.47920692235164364 -0.13723968551994306
0.1313493982874084 0.40182177120992385 -0.13723968551994306
0.5076666264802683 0.2869711876707891 -0.13723968551994306
0.12595998581954482 0.31457940469947254 -0.13723968551994306
0.37870139207269554 0.34242804161519824 -0.13723968551994306
0.347897594045409 0.454694111368629 -0.13723968551994306
0.12691164787242035 0.5001935749913722 -0.13723968551994306
0.3572338996588825 0.4673061379430529 -0.13723968551994306
0.349610585740585 0.5404538885756532 -0.13723968551994306
0.32354506298708924 0.48637944898173696 -0.13723968551994306
0.5231236217180254 0.29611716087368745 -0.13723968551994306
0.52217195966515 0.5111326798517939 -0.13723968551994306
0.6278565350107995 0.32655031157511716 -0.13593741113179764
0.41481446260549815 0.55371705234415 -0.13593741113179764
0.4695300218981937 0.3777296950292331 -0.13593741113179764
0.33123849937244076 0.46002341886473186 -0.13523618646125776
0.4887936653474528 0.512424936744646 -0.13523618646125776
0.47529008169191383 0.3454132552126392 -0.13523618646125776
0.15390879768820484 0.4051776321332218 -0.13523618646125776
0.2317547536134222 0.30382061475433236 -0.13523618646125776
0.4765623035941791 0.33748941643553887 -0.13523618646125776
0.304091087127255 0.5276815820765345 -0.13523618646125776
0.30367035232493106 0.28356523927102406 -0.13523618646125776
0.19172484242088994 0.3556411179072277 -0.13523618646125776
0.19337772914430523 0.5143482958409837 -0.13523618646125776
0.36482716109129976 0.27278641433529704 -0.13523618646125776
0.3513335949310543 0.26798803408974575 -0.13523618646125776
0.210116963779621 0.34919986843355444 -0.13523618646125776
0.6453470817931223 0.40863366800945394 -0.13523618646125776
0.5935666486214006 0.34517283532559695 -0.13523618646125776
0.48272306319963637 0.5640350724963793 -0.1339339120731123
0.4695300218981937 0.40570855938377337 -0.1339339120731123
0.5091091458025218 0.2605750875726102 -0.1339339120731123
0.3557913803366292 0.4504366758689227 -0.13323268740257246
0.15382865772585746 0.40895422785884356 -0.13323268740257246
0.12974659904046004 0.42293865128846697 -0.13323268740257246
0.49224970122368505 0.4783554352517023 -0.13323268740257246
0.34768722664424706 0.3537978987732372 -0.13323268740257246
0.40442631998621476 0.2727763968400037 -0.13323268740257246
0.36703101005585376 0.5370579576711816 -0.13323268740257246
0.4374840544545222 0.5340727440737405 -0.13323268740257246
0.3827384426759465 0.47589113140951944 -0.13323268740257246
0.2848574961638761 0.2811710578958951 -0.13323268740257246
0.22722684574079344 0.4799381995080637 -0.13323268740257246
0.3801639463855358 0.26658558474866606 -0.13323268740257246
0.31881680520859196 0.353627601353249 -0.13323268740257246
0.6266143655944146 0.43887648630030857 -0.13323268740257246
0.3856735687969204 0.5640350724963793 -0.13273181263790115
0.6278565350107995 0.4848768246877231 -0.13193041301442704
0.393226760248164 0.4700910016346256 -0.13193041301442704
0.4513081979594509 0.25754980399399535 -0.13193041301442704
0.15287699567298196 0.41017636228464155 -0.13122918834388717
0.48807240568632615 0.5323998223597383 -0.13122918834388717
0.4849870171359507 0.2790974363701558 -0.13122918834388717
0.38992098680133325 0.5378192873134819 -0.13122918834388717
0.6349889916597191 0.4424126621388881 -0.13122918834388717
0.23495033461202527 0.312405608220799 -0.13122918834388717
0.3506924752322751 0.46424078438326444 -0.13122918834388717
0.3108929664314916 0.49618657687400153 -0.13122918834388717
0.535515263395994 0.286640610326106 -0.13122918834388717
0.4864595889440845 0.29174953292575345 -0.13122918834388717
0.17044768241765196 0.4269957368823047 -0.13122918834388717
0.5039100657452333 0.28609966558026095 -0.13122918834388717
0.49899147555616097 0.4734769150438037 -0.13122918834388717
0.2924307226057066 0.5060037222615595 -0.13072831357921583
0.6278565350107995 0.5137973335998454 -0.1299269139557417
0.30279883023440296 0.5129157940140238 -0.1299269139557417
0.4063897490637263 0.2557767073270589 -0.1299269139557417
0.7001728335340454 0.43209464198665876 -0.1299269139557417
0.6382046076489093 0.4329661640771869 -0.12922568928520187
0.341486397057616 0.5337822367102312 -0.12922568928520187
0.4876316358934153 0.3326008787323467 -0.12922568928520187
0.285488598367362 0.5289938739599733 -0.12922568928520187
0.5601783368084101 0.2981507124182531 -0.12922568928520187
0.4998429626561023 0.48359458529016447 -0.12922568928520187
0.5503812264114388 0.5061740196815477 -0.12922568928520187
0.33796023871433 0.45349201193341776 -0.12922568928520187
0.3480077864936368 0.35007139052408254 -0.12922568928520187
0.23339762284154417 0.31920748752503547 -0.12922568928520187
0.14398145985241917 0.3906121939765796 -0.12922568928520187
0.18880975129050273 0.477784438019977 -0.12922568928520187
0.41674783919712943 0.5640350724963793 -0.12872481452053053
0.41156879413042796 0.5640350724963793 -0.12792341489705641
0.4695300218981937 0.3661294354794453 -0.12792341489705641
0.6542426176136851 0.3661294354794453 -0.12792341489705641
0.49143828410491747 0.27892713895016746 -0.12722219022651657
0.477193405797665 0.3372489965484966 -0.12722219022651657
0.472214710636832 0.4801084969280521 -0.12722219022651657
0.567270723476156 0.5056230574404094 -0.12722219022651657
0.3954506442033046 0.2603146326949812 -0.12722219022651657
0.5039401182311136 0.48197175105262935 -0.12722219022651657
0.6523693459938142 0.40445637247209504 -0.12722219022651657
0.347496894233672 0.46727608545717264 -0.12722219022651657
0.28656047036375865 0.3499311455899746 -0.12722219022651657
0.24919521291927774 0.479757884592782 -0.12722219022651657
0.30706628322940266 0.49979287517963505 -0.12722219022651657
0.18548394285308517 0.48166120869853307 -0.12722219022651657
0.4219268842638309 0.5566421609698305 -0.12672131546184526
0.41674783919712943 0.5598577769590205 -0.12591991583837112
0.4715335209568789 0.379322476780888 -0.12591991583837112
0.7070147828194558 0.3777296950292331 -0.12591991583837112
0.49432332274942425 0.2783861942043226 -0.12521869116783127
0.47505967930016507 0.33702861165204134 -0.12521869116783127
0.4800884619374651 0.3427586189598812 -0.12521869116783127
0.3253882821210797 0.5361563830947732 -0.12521869116783127
0.6038946862689234 0.326430101631596 -0.12521869116783127
0.5000332950666775 0.47243509553328733 -0.12521869116783127
0.5013055169689425 0.2888745117765401 -0.12521869116783127
0.31481982458651475 0.4974387637856798 -0.12521869116783127
0.3552203831049039 0.34397073589038585 -0.12521869116783127
0.208474094551499 0.3456636925949749 -0.12521869116783127
0.12441729154435718 0.410867569459888 -0.12521869116783127
0.4271159468258258 0.5573233506497834 -0.12471781640315993
0.40355479789568677 0.5624422907447243 -0.12391641677968582
0.3639756739913586 0.418901600685216 -0.12391641677968582
0.6014704524079143 0.27376812887405283 -0.12391641677968582
0.49717830890805076 0.5277917745247621 -0.12321519210914596
0.38563349881574677 0.27229555706591924 -0.12321519210914596
0.3814361682878009 0.5392217366545619 -0.12321519210914596
0.6628476460707382 0.40277343326279935 -0.12321519210914596
0.3687940892274967 0.2642414908500043 -0.12321519210914596
0.5062541596438952 0.48197175105262935 -0.12321519210914596
0.5039000482499401 0.294464274150272 -0.12321519210914596
0.3179052131368901 0.49040648208969445 -0.12321519210914596
0.3476671916536602 0.4509976556053546 -0.12321519210914596
0.24569910706187184 0.47744384318000055 -0.12321519210914596
0.35583145031780283 0.4588814244012813 -0.12321519210914596
0.2886941968612584 0.3421575692422757 -0.12321519210914596
0.2594230756138662 0.49788955107388405 -0.12321519210914596
0.5442405017965685 0.5376489898934937 -0.12191291772100052
0.3112035087855878 0.3364976844014896 -0.12191291772100052
0.4267653344905559 0.2489748280228223 -0.12191291772100052
0.7001728335340454 0.43209464198665876 -0.12191291772100052
0.35926745120344816 0.2739784962752148 -0.12121169305046066
0.3869758431850659 0.540914693359151 -0.12121169305046066
0.4275266641328563 0.2726261344106023 -0.12121169305046066
0.4749795393378177 0.48520740203240614 -0.12121169305046066
0.4225780214579036 0.5551595716664035 -0.12121169305046066
0.5053826375533671 0.5160011825643992 -0.12121169305046066
0.12792341489705655 0.4120496339045123 -0.12121169305046066
0.3139883724771604 0.5005441873266421 -0.12121169305046066
0.331218464381854 0.4651123064737926 -0.12121169305046066
0.3125158006690266 0.3532369190368054 -0.12121169305046066
0.12284454478328925 0.40172159625698967 -0.12121169305046066
0.19143433505738047 0.4132316983491367 -0.12121169305046066
0.4322949918925274 0.5640350724963793 -0.12071081828578933
0.4478321270926318 0.24738204627116742 -0.1199094186623152
0.48272306319963637 0.5532161775794786 -0.1199094186623152
0.3338931356251988 0.3364976844014896 -0.1199094186623152
0.5546386619111452 0.5123447967822985 -0.11920819399177537
0.3981954379137035 0.2682885589485486 -0.11920819399177537
0.42480190541304436 0.5435392771260285 -0.11920819399177537
0.659341522718039 0.4199734726816128 -0.11920819399177537
0.3546193333872983 0.26713654698980455 -0.11920819399177537
0.47649218112712505 0.4826529407325823 -0.11920819399177537
0.5100207378742236 0.48377490020544617 -0.11920819399177537
0.22234832553289463 0.337208926567323 -0.11920819399177537
0.1576853934138266 0.4085334930565196 -0.11920819399177537
0.20837391959856472 0.4796977796210215 -0.11920819399177537
0.32763220106680724 0.48144082380207776 -0.11920819399177537
0.20154198780844781 0.3347145702392597 -0.11920819399177537
0.2834249943369161 0.4973986938045062 -0.11920819399177537
0.44265308202593034 0.5640350724963793 -0.11870731922710404
0.6564564840735321 0.3661294354794453 -0.11790591960362992
0.4695300218981937 0.43209464198665876 -0.11790591960362992
0.35078263268991594 0.4832840429360682 -0.11790591960362992
0.19245611957731001 0.37827063977507813 -0.11790591960362992
0.500023277571384 0.2807503230935711 -0.11720469493309006
0.3784409371950665 0.5406642559768153 -0.11720469493309006
0.5008447121854449 0.3288944054737789 -0.11720469493309006
0.4578496223860583 0.5379094447711229 -0.11720469493309006
0.6533710955231568 0.43771445684627097 -0.11720469493309006
0.5261288703060534 0.29633754577014276 -0.11720469493309006
0.5086283060284372 0.48405539007366205 -0.11720469493309006
0.21129902822424526 0.3470661419360546 -0.11720469493309006
0.33011653989957707 0.4995624727878863 -0.11720469493309006
0.3434698611257146 0.3402943151176983 -0.11720469493309006
0.16502821746390825 0.39621197384560514 -0.11720469493309006
0.1767086169760435 0.4051776321332218 -0.11720469493309006
0.4478321270926318 0.5632436903681985 -0.11670382016841875
0.5618813110082927 0.2846270937721272 -0.11590242054494462
0.4685483073594379 0.5640350724963793 -0.11590242054494462
0.3639756739913586 0.379322476780888 -0.11590242054494462
0.664510550289447 0.40515759714263483 -0.11520119587440476
0.4476117421961765 0.26668575970160036 -0.11520119587440476
0.41254049117389024 0.5464443507611224 -0.11520119587440476
0.4973986938045062 0.27099328267777384 -0.11520119587440476
0.4988913006032268 0.29183969038339425 -0.11520119587440476
0.3772388377598553 0.533050959553811 -0.11520119587440476
0.6184601244255655 0.45740885259314756 -0.11520119587440476
0.16332524326402573 0.4147443401384441 -0.11520119587440476
0.30091554111923874 0.4919291413742953 -0.11520119587440476
0.3066856184082525 0.5016761642947992 -0.11520119587440476
0.24139158408569852 0.3003445438875134 -0.11520119587440476
0.1471169358792617 0.41211975637156634 -0.11520119587440476
0.20054023827910522 0.42735636671286803 -0.11520119587440476
0.19496049340066662 0.4194926329075283 -0.11520119587440476
0.19245611957731001 0.379322476780888 -0.11470032110973344
0.46120548330935623 0.24738204627116742 -0.11389892148625931
0.5750743523097352 0.5401834162027308 -0.11389892148625931
0.19245611957731001 0.32655031157511716 -0.11389892148625931
0.4983603733526752 0.27668322000444007 -0.11319769681571945
0.41579617714425393 0.5453424262788453 -0.11319769681571945
0.43813519164859505 0.27068274032367756 -0.11319769681571945
0.47540027414014163 0.47909672990341584 -0.11319769681571945
0.5198779532429553 0.5382500396110994 -0.11319769681571945
0.5111026273659136 0.3251077922528637 -0.11319769681571945
0.21247107517357622 0.36406583144899946 -0.11319769681571945
0.19803586445574858 0.4766624785471133 -0.11319769681571945
0.21420410185933902 0.46808750257594023 -0.11319769681571945
0.3444415581691769 0.47515985425309937 -0.11319769681571945
0.22418152717159176 0.3698960137097736 -0.11319769681571945
0.18125655983925923 0.4351800305370341 -0.11319769681571945
0.14659602612400344 0.39433870222573425 -0.11319769681571945
0.6806287002165703 0.32655031157511716 -0.11189542242757403
0.4729159353073718 0.5640350724963793 -0.11189542242757403
0.3615314051397625 0.379322476780888 -0.11189542242757403
0.5007946247089777 0.5341829365219681 -0.11119419775703417
0.4749695218425242 0.2696008508319874 -0.11119419775703417
0.4779647529352588 0.3408452773588368 -0.11119419775703417
0.4418316474118694 0.5411050257697259 -0.11119419775703417
0.6400478267828997 0.4591118267930301 -0.11119419775703417
0.5128857415281435 0.2812812503441227 -0.11119419775703417
0.6350791491173601 0.4482428443996623 -0.11119419775703417
0.2080333247585883 0.34485227547620734 -0.11119419775703417
0.30463203187310006 0.5016761642947992 -0.11119419775703417
0.3858138137310284 0.33088788703717087 -0.11119419775703417
0.28916501914004944 0.3425081815775456 -0.11119419775703417
0.18956106343750972 0.4398281483531841 -0.11119419775703417
0.4695300218981937 0.2479931134840665 -0.11069332299236283
0.5223021871039646 0.2654435902852155 -0.10989192336888871
0.6806287002165703 0.4742182096955172 -0.10989192336888871
0.49040648208969445 0.31334725277838105 -0.10989192336888871
0.4855179443865023 0.47036147400754796 -0.10919069869834887
0.42490208036597865 0.5470654354693146 -0.10919069869834887
0.5070856117532496 0.2910282732646268 -0.10919069869834887
0.5074061716026392 0.4850571396030048 -0.10919069869834887
0.5368576077653131 0.5333214319267336 -0.10919069869834887
0.5142581383833429 0.3261596292586735 -0.10919069869834887
0.3472063868701627 0.4543134465474788 -0.10919069869834887
0.22709661830197883 0.327862603458556 -0.10919069869834887
0.37584640591406904 0.4736572299590854 -0.10919069869834887
0.29562630360430964 0.3521850820309955 -0.10919069869834887
0.2051683211046683 0.33108823694303935 -0.10919069869834887
0.2193430769448667 0.4026131533381046 -0.10919069869834887
0.6806287002165703 0.4452876832881014 -0.10788842431020342
0.4729560052885456 0.40570855938377337 -0.10788842431020342
0.4695300218981937 0.4584807245895442 -0.10788842431020342
0.6320839180246255 0.3524956243850918 -0.10718719963966356
0.44791226705497933 0.2655036952569761 -0.10718719963966356
0.5019867066488956 0.5362665755430008 -0.10718719963966356
0.6600828173697527 0.4304617902538303 -0.10718719963966356
0.47907669491282906 0.2610258748608144 -0.10718719963966356
0.5529757576924365 0.5146087507186128 -0.10718719963966356
0.5173635619243052 0.48292341310550485 -0.10718719963966356
0.19172484242088994 0.3556411179072277 -0.10718719963966356
0.19909771895685174 0.4195226853934086 -0.10718719963966356
0.302588462833241 0.5049218327698695 -0.10718719963966356
0.3746042364976842 0.3337228382052104 -0.10718719963966356
0.30342993243788885 0.34271854897870757 -0.10718719963966356
0.20128153293081877 0.4162770169183384 -0.10718719963966356
0.6014704524079143 0.5376489898934937 -0.10588492525151812
0.6410495763122422 0.30015421147693827 -0.10588492525151812
0.36137112521506765 0.43209464198665876 -0.10588492525151812
0.6689382832091416 0.41068725454460636 -0.10518370058097826
0.4347392607441235 0.26351021369358424 -0.10518370058097826
0.4738275273790736 0.5434290846778008 -0.10518370058097826
0.597824084121107 0.49582594704343813 -0.10518370058097826
0.5248165784226145 0.27226550458003895 -0.10518370058097826
0.5229933942792109 0.5244759835826379 -0.10518370058097826
0.616897395159791 0.47128308357454335 -0.10518370058097826
0.3036803698202244 0.49595617448225277 -0.10518370058097826
0.35639243005423465 0.3433095812010197 -0.10518370058097826
0.21511569393104077 0.401941981153445 -0.10518370058097826
0.2856188258061765 0.5016761642947992 -0.10518370058097826
0.3201892020637914 0.48274309819022315 -0.10518370058097826
0.18628534247655928 0.46170635807402755 -0.10518370058097826
0.7070147828194558 0.4452876832881014 -0.1038814261928328
0.4732765651379352 0.4452876832881014 -0.1038814261928328
0.3613210377386006 0.379322476780888 -0.1038814261928328
0.5121945343528972 0.28186226507114154 -0.10318020152229296
0.4579898673201664 0.26089564742199983 -0.10318020152229296
0.48300355306785236 0.27324721911879474 -0.10318020152229296
0.47762415809528225 0.46696554310307636 -0.10318020152229296
0.4552450736097675 0.5382300046205127 -0.10318020152229296
0.6426323405686035 0.36633980288060713 -0.10318020152229296
0.1946900210277441 0.4383355415544635 -0.10318020152229296
0.3745641665165104 0.469279584515858 -0.10318020152229296
0.20791311481506716 0.39327684772463106 -0.10318020152229296
0.19773533959694578 0.4801986543856929 -0.10318020152229296
0.18471259571549137 0.4121397913621531 -0.10318020152229296
0.17669859948075017 0.4639001895432879 -0.10318020152229296
0.21978384673777746 0.46037403120000175 -0.10318020152229296
0.4598831739306239 0.33974335287655993 -0.10187792713414752
0.4598831739306239 0.4716737658909868 -0.10187792713414752
0.488633385422758 0.47562065903659695 -0.10117670246360766
0.4511379005394627 0.2607754374784787 -0.10117670246360766
0.484075425064249 0.273016816727046 -0.10117670246360766
0.4779647529352588 0.34437143570212286 -0.10117670246360766
0.5093094957083902 0.4864395539534975 -0.10117670246360766
0.5238348638838587 0.28457700629566013 -0.10117670246360766
0.2825033847699209 0.49238994615779297 -0.10117670246360766
0.373472259529527 0.46915937457233686 -0.10117670246360766
0.2115394481112875 0.4731363202038271 -0.10117670246360766
0.29562630360430964 0.5088086209437189 -0.10117670246360766
0.29466462405614063 0.35862633150466877 -0.10117670246360766
0.23202522598634473 0.45623680564381663 -0.10117670246360766
0.18065551012165362 0.46887888470412087 -0.10117670246360766
0.6014704524079143 0.27376812887405283 -0.09987442807546221
0.38889920228140373 0.4872810235581454 -0.09987442807546221
0.5057633023745173 0.27339748154819615 -0.09917320340492236
0.46205697040929744 0.26066524503025107 -0.09917320340492236
0.474047912275529 0.3295555601631451 -0.09917320340492236
0.5139576135245402 0.48387507515838035 -0.09917320340492236
0.49302104836127886 0.5496800017408993 -0.09917320340492236
0.5146588381950801 0.4748893818801769 -0.09917320340492236
0.5214507000040232 0.2914289730763638 -0.09917320340492236
0.24505798736309262 0.4627782300704242 -0.09917320340492236
0.3744639915635761 0.4693797594687922 -0.09917320340492236
0.20344531191419882 0.373592469473048 -0.09917320340492236
0.18201788948155959 0.42552316507417093 -0.09917320340492236
0.25714910418225834 0.46513234146437943 -0.09917320340492236
0.21164964055951516 0.4471208849267985 -0.09917320340492236
0.18930060855988068 0.41741901138178894 -0.09917320340492236
0.4695300218981937 0.35293639417800254 -0.09787092901677691
0.357925106834129 0.4848768246877231 -0.09787092901677691
0.5141279109445285 0.2784963866525502 -0.09716970434623705
0.47955753468691353 0.3363273869815014 -0.09716970434623705
0.6787854810825799 0.40778218090951257 -0.09716970434623705
0.5728504683545947 0.29135885060930977 -0.09716970434623705
0.5315082652786235 0.5273610222271449 -0.09716970434623705
0.5854725124243121 0.4994222278537783 -0.09716970434623705
0.21109867831837678 0.43491957565940503 -0.09716970434623705
0.3776595725621792 0.34143630958114896 -0.09716970434623705
0.21182995547479683 0.33451422033339123 -0.09716970434623705
0.18820870157289724 0.4499157661136645 -0.09716970434623705
0.22846901515717827 0.45331169701813606 -0.09716970434623705
0.20351543438125286 0.35587152029897656 -0.09716970434623705
0.7070147828194558 0.40570855938377337 -0.09586742995809162
0.4695300218981937 0.43209464198665876 -0.09586742995809162
0.3611106703374386 0.4452876832881014 -0.09586742995809162
0.522222047141617 0.5190665361241877 -0.09516620528755176
0.5023373189841654 0.2714039999848043 -0.09516620528755176
0.6239396943510699 0.3319998290147411 -0.09516620528755176
0.5042907305663836 0.2634200562359434 -0.09516620528755176
0.5517636407619317 0.31571138166762974 -0.09516620528755176
0.5140577884774744 0.3384911659648816 -0.09516620528755176
0.1896211684092703 0.46477171163381603 -0.09516620528755176
0.32065000684728895 0.46273816008925045 -0.09516620528755176
0.32195228123543446 0.48380495269132645 -0.09516620528755176
0.3116743310643788 0.35067244024168814 -0.09516620528755176
0.19970878616975082 0.3751451812435291 -0.09516620528755176
0.19606241788294354 0.3556411179072277 -0.09516620528755176
0.17813110130771018 0.4683279224629825 -0.09516620528755176
0.5091091458025218 0.24738204627116742 -0.09386393089940631
0.6020214146490525 0.5112629072906085 -0.09386393089940631
0.37033678350268445 0.324997599804636 -0.09386393089940631
0.5251872257484713 0.33095800950422477 -0.09316270622886645
0.47759410560940196 0.33604689711328556 -0.09316270622886645
0.5808844995799227 0.29932275936758385 -0.09316270622886645
0.4859687316747065 0.27562136550333677 -0.09316270622886645
0.4991617729761493 0.33811050114373126 -0.09316270622886645
0.5140577884774744 0.3793825817526485 -0.09316270622886645
0.17536627260672435 0.471112786154555 -0.09316270622886645
0.34528302777382475 0.46785710018419135 -0.09316270622886645
0.3427886714457616 0.4717038183768671 -0.09316270622886645
0.28594940315085954 0.34490236295267457 -0.09316270622886645
0.19877715910746213 0.4276669090669642 -0.09316270622886645
0.3436101060598225 0.3526759393003735 -0.09316270622886645
0.20797321978682773 0.4848768246877231 -0.09266183146419514
0.6146634937093567 0.3026986552814686 -0.09186043184072101
0.6410495763122422 0.5112629072906085 -0.09186043184072101
0.38868883488024175 0.32392572780823936 -0.09186043184072101
0.5347238812678133 0.29566637358548326 -0.09115920717018115
0.5030385436547054 0.27068274032367756 -0.09115920717018115
0.530746935636323 0.29558623362313585 -0.09115920717018115
0.4773436682270664 0.4861290115994014 -0.09115920717018115
0.5806440796928805 0.5176039818113475 -0.09115920717018115
0.5138574385716059 0.34675559958195834 -0.09115920717018115
0.5569627208192202 0.29368290951738474 -0.09115920717018115
0.6216757404147555 0.4738675973602473 -0.09115920717018115
0.1928367843984602 0.35674304238950455 -0.09115920717018115
0.21050764609606462 0.45370237933457974 -0.09115920717018115
0.19267650447376544 0.462397565249274 -0.09115920717018115
0.33445411536163067 0.5088086209437189 -0.09115920717018115
0.329104772874941 0.41056704460108523 -0.09115920717018115
0.25080802966151944 0.45670762792260766 -0.09115920717018115
0.2056491608787528 0.4789464674740146 -0.09065833240550983
0.42994088049857204 0.5112629072906085 -0.0898569327820357
0.3913534886282933 0.4848768246877231 -0.0898569327820357
0.19245611957731001 0.3777998174962871 -0.0898569327820357
0.3186865777697774 0.3555810129354671 -0.08915570811149587
0.35135362992164115 0.35015153048642994 -0.08915570811149587
0.2210560686400427 0.332841298619389 -0.08915570811149587
0.1892705560740004 0.4583805496366099 -0.08915570811149587
0.32266352340126775 0.3620823673809009 -0.08915570811149587
0.22481262937507765 0.4333868988795109 -0.08915570811149587
0.5693743974877756 0.5155904652573686 -0.08915570811149587
0.46728610295246614 0.2677977016791707 -0.08915570811149587
0.5648464896151469 0.28457700629566013 -0.08915570811149587
0.5443506942447963 0.5135569137128032 -0.08915570811149587
0.47521995922485993 0.33013657489016385 -0.08915570811149587
0.47223474562741885 0.4325654642654498 -0.08865483334682453
0.6410495763122422 0.3108128264691441 -0.08785343372335042
0.5077868364237894 0.4980698659891657 -0.08785343372335042
0.19041255053745107 0.4662843534231234 -0.08715220905281056
0.28126121535353593 0.4919291413742953 -0.08715220905281056
0.2523807764225873 0.46702564807483693 -0.08715220905281056
0.3851827115275425 0.48112026395268814 -0.08715220905281056
0.33890188327191206 0.3380403786766774 -0.08715220905281056
0.33218014393002293 0.36260327713615914 -0.08715220905281056
0.2278078604678121 0.42226747910380746 -0.08715220905281056
0.5463041058270145 0.294273941739697 -0.08715220905281056
0.4784656276999301 0.256648229417587 -0.08715220905281056
0.5205891954087886 0.2667759171592412 -0.08715220905281056
0.5456730036235284 0.28730176501547217 -0.08715220905281056
0.475760903970705 0.33571631976860244 -0.08715220905281056
0.49898145806086763 0.47349695003439046 -0.08715220905281056
0.4616562705975605 0.46262796764102276 -0.08584993466466512
0.5750743523097352 0.27123370256481594 -0.08584993466466512
0.5226527994392345 0.5121043768952562 -0.08584993466466512
0.21079815345957398 0.46128562327170364 -0.08514870999412526
0.2255038365503241 0.42737640170345487 -0.08514870999412526
0.34242804161519824 0.4718941507874423 -0.08514870999412526
0.3061747261482877 0.3495104107876507 -0.08514870999412526
0.1978655670357604 0.3728912448025082 -0.08514870999412526
0.2104375236290106 0.35772475692826033 -0.08514870999412526
0.5868849792606851 0.3051629591236515 -0.08514870999412526
