0.37811139439811775 0.3830393440025428 -0.08340296873731073
0.3715198694495238 0.37230457480054696 -0.08340296873731073
0.3635472630831293 0.37095039756621 -0.08340296873731073
0.38607503270335763 0.3610317219292783 -0.08340296873731073
0.49324336350022485 0.4277361607968178 -0.08295456567958327
0.07983368039780003 0.28084828714645077 -0.0822371207872193
0.36939443895589563 0.25059004881100067 -0.0822371207872193
0.5050543000407667 0.4277630649802813 -0.0822371207872193
0.1789576603390361 0.33363429510212933 -0.08160935650640083
0.49322542737791564 0.4117550758194104 -0.08160935650640083
0.24644232052702134 0.42102805105321467 -0.08160935650640083
0.35643559058757146 0.47791246295652245 -0.08160935650640083
0.2273582863901399 0.4195572890238685 -0.08160935650640083
0.12001956243133649 0.26937813692978196 -0.08160935650640083
0.1964633157127168 0.4301306331250825 -0.08160935650640083
0.09238896601416932 0.311303822827301 -0.08160935650640083
0.39859444607510897 0.26015897006290495 -0.08160935650640083
0.3713046359818146 0.3330154988824654 -0.08160935650640083
0.3738156931050885 0.2558273965252575 -0.08160935650640083
0.3975451829200267 0.3773446251694039 -0.08160935650640083
0.34161138549910114 0.4895440382739732 -0.08116095344867334
0.04439190271502013 0.40226686711789705 -0.08044350855630938
0.30425044272924767 0.27421192189208415 -0.08044350855630938
0.4370225881223537 0.31861279266825887 -0.08044350855630938
0.341593449376792 0.4986286842235319 -0.08044350855630938
0.09726759128224424 0.2840229807951613 -0.07981574427549092
0.2582801612510268 0.4757063199125032 -0.07981574427549092
0.26568777976468466 0.4237812458276614 -0.07981574427549092
0.11479118277823412 0.2729743294527563 -0.07981574427549092
0.45453721155718896 0.4455826024943712 -0.07981574427549092
0.23083789411810518 0.40811404299066334 -0.07981574427549092
0.08346574516539249 0.3023985381008333 -0.07981574427549092
0.19462486317603414 0.4213419331936239 -0.07981574427549092
0.39753621485887214 0.3683048195256179 -0.07981574427549092
0.37463178667015257 0.34538245521458927 -0.07981574427549092
0.3714212207768238 0.3966977011409217 -0.07981574427549092
0.05223895622525098 0.4027870146648609 -0.07936734121776344
0.43112160388266024 0.3312846630796374 -0.07936734121776344
0.4300364684829596 0.3304237292088006 -0.07864989632539948
0.30425044272924767 0.25059004881100067 -0.07864989632539948
0.3722104101584241 0.48362511791197055 -0.07864989632539948
0.1958803917376711 0.4277989372248997 -0.07802213204458101
0.5060676909512307 0.40470617975193446 -0.07802213204458101
0.23827241681522668 0.3006677022980052 -0.07802213204458101
0.49276805625903375 0.4072351729975175 -0.07802213204458101
0.26542770599120274 0.28852494749474517 -0.07802213204458101
0.0576556651625989 0.40602448474165326 -0.07802213204458101
0.21904489369987254 0.321895103050824 -0.07802213204458101
0.07599535022365272 0.40598861249703505 -0.07802213204458101
0.11637852960258932 0.34729265224050826 -0.07802213204458101
0.41427061697326145 0.3237156194651976 -0.07802213204458101
0.37790512899156314 0.30744755653084466 -0.07802213204458101
0.3582650750630996 0.41605077711243965 -0.07802213204458101
0.40160771462303746 0.383075216247161 -0.07802213204458101
0.3680312936604041 0.48681774768299013 -0.07757372898685352
0.4218486286488558 0.28352973743166104 -0.07685628409448957
0.44599064927690324 0.3805103507569598 -0.07685628409448957
0.3427234250822653 0.4986286842235319 -0.07685628409448957
0.15312964421393332 0.41814033536144973 -0.07622851981367111
0.3400330067359004 0.47793936713998597 -0.07622851981367111
0.21537695668766174 0.4107954932758736 -0.07622851981367111
0.1947414479710432 0.41918063045537746 -0.07622851981367111
0.09015591878668652 0.3035912902343884 -0.07622851981367111
0.3934378109112428 0.4713837144360103 -0.07622851981367111
0.22047081542344585 0.4018005279378604 -0.07622851981367111
0.08528626157976607 0.31581475758803945 -0.07622851981367111
0.05672298680252575 0.41625704251899437 -0.07622851981367111
0.41268327014890627 0.3009546802549509 -0.07622851981367111
0.37560930533599846 0.3078062789770267 -0.07622851981367111
0.4140195112609341 0.26629312389261683 -0.07622851981367111
0.3851871946490573 0.3982940160264316 -0.07622851981367111
0.07679350766640762 0.27421192189208415 -0.07578011675594362
0.03258096617447845 0.3955408212519849 -0.07506267186357966
0.4068450623372944 0.4727289236091928 -0.07506267186357966
0.3651973863355664 0.321455668054251 -0.07506267186357966
0.5050543000407667 0.2624009853515424 -0.07506267186357966
0.0553777776293434 0.388312563961418 -0.0744349075827612
0.3747663075874707 0.4693748687373913 -0.0744349075827612
0.24375190218065648 0.29830013415320417 -0.0744349075827612
0.09046980092709572 0.45816479229420437 -0.0744349075827612
0.2436442854468019 0.46700730059259016 -0.0744349075827612
0.12600125922142105 0.3350064084587755 -0.0744349075827612
0.18450889019370226 0.4213419331936239 -0.0744349075827612
0.06987016445509546 0.30049730913606887 -0.0744349075827612
0.41618081399918044 0.3335177103071203 -0.0744349075827612
0.38192282038880127 0.35379449657755674 -0.0744349075827612
0.3825326485473107 0.26176425300956935 -0.0744349075827612
0.41466521166406173 0.2570201486588127 -0.0744349075827612
0.43177627234694216 0.3450775411353345 -0.07398650452503372
0.38693596657419443 0.48681774768299013 -0.07326905963266976
0.3160613792697895 0.27421192189208415 -0.07326905963266976
0.4253372044379757 0.28602285843262587 -0.07326905963266976
0.05651672139597115 0.44789636227224505 -0.07264129535185129
0.4480802075259133 0.44023763804625987 -0.07264129535185129
0.21913457431141795 0.40397079873726144 -0.07264129535185129
0.33597047503288946 0.48462954076128 -0.07264129535185129
0.2312952652369872 0.41519881130275743 -0.07264129535185129
0.08747446850147615 0.30422802257636145 -0.07264129535185129
0.22777978526440384 0.40289463139871545 -0.07264129535185129
0.06576279244631178 0.3036181944178521 -0.07264129535185129
0.06461488061852944 0.39895765255186827 -0.07264129535185129
0.3790799450028091 0.39551391706852124 -0.07264129535185129
0.39081016899296 0.38812423467717244 -0.07264129535185129
0.4288795885940228 0.2696113065198002 -0.07264129535185129
0.03542384156047059 0.40414119189919795 -0.07147544740175985
0.4370225881223537 0.3422346657493424 -0.07147544740175985
0.39610132507414425 0.33326660459479285 -0.07147544740175985
0.13902288401782698 0.33347287000134745 -0.07084768312094138
0.18239242776122855 0.4277989372248997 -0.07084768312094138
0.27307746215603346 0.41733320985754024 -0.07084768312094138
0.26921222779842263 0.4193151513726957 -0.07084768312094138
0.03476917309618854 0.3156712686095666 -0.07084768312094138
0.4679893032890133 0.419826330858505 -0.07084768312094138
0.266835691592467 0.28001425745907765 -0.07084768312094138
0.17389967384787008 0.4266151531524991 -0.07084768312094138
0.06269571553145585 0.30396794880287953 -0.07084768312094138
0.41760673572275403 0.34491611603455274 -0.07084768312094138
0.3779589373584904 0.3091783923336727 -0.07084768312094138
0.40608277713915786 0.25458083602477516 -0.07084768312094138
0.0647852737804658 0.27421192189208415 -0.0703992800632139
0.3670089346887854 0.3284866279994179 -0.06968183517084994
0.30425044272924767 0.23877911227045887 -0.06968183517084994
0.4627160833301382 0.44666773789407177 -0.06968183517084994
0.03650897696017117 0.3190970679706046 -0.06905407089003147
0.44269040277202903 0.4427038548637608 -0.06905407089003147
0.2290173777037316 0.31774289073626766 -0.06905407089003147
0.22891872903103158 0.4685139348665545 -0.06905407089003147
0.13178565866610548 0.334019921731775 -0.06905407089003147
0.3782548833765906 0.47891688580583197 -0.06905407089003147
0.22543912130306631 0.33618122447002147 -0.06905407089003147
0.16291379893354696 0.43011269700277327 -0.06905407089003147
0.1254900797356117 0.36891464768412724 -0.06905407089003147
0.41087172179568726 0.3955228851296757 -0.06905407089003147
0.3776809274626993 0.36619732515429876 -0.06905407089003147
0.4072486250892493 0.2536212534812384 -0.06905407089003147
0.43127406092228754 0.36491489240919817 -0.06860566783230398
0.2972732911510082 0.3450775411353345 -0.06788822293994003
0.32787231581033116 0.2646699048236434 -0.06788822293994003
0.14035015706870027 0.4203195742220052 -0.06726045865912157
0.1408703046156642 0.42403235153998875 -0.06726045865912157
0.22319710601442894 0.471572043720256 -0.06726045865912157
0.24614637450892118 0.2959953424364849 -0.06726045865912157
0.40083646136374634 0.4644334670412344 -0.06726045865912157
0.27027942707581404 0.4233328427699338 -0.06726045865912157
0.06864154007692216 0.2797810878690594 -0.06726045865912157
0.23296332461173336 0.34549904000959847 -0.06726045865912157
0.04280455589066493 0.3122903095543015 -0.06726045865912157
0.42096975865571007 0.3499561664034096 -0.06726045865912157
0.38226360671267423 0.3652736148553802 -0.06726045865912157
0.4224405206850561 0.2564820649895397 -0.06726045865912157
0.4320094419369605 0.37599941599622144 -0.06681205560139408
0.39874690311473626 0.35831439939944976 -0.06609461070903012
0.29243950618870596 0.21514827112822077 -0.06609461070903012
0.2192242549229635 0.32170677376657847 -0.06546684642821166
0.3918056237811149 0.4591602470823593 -0.06546684642821166
0.2186502990090724 0.471033960050983 -0.06546684642821166
0.2544507991380341 0.41408677171959335 -0.06546684642821166
0.2336897375652519 0.4087418072714818 -0.06546684642821166
0.23432646990722492 0.3189804831755954 -0.06546684642821166
0.14636772610340307 0.46814624435921803 -0.06546684642821166
0.2310441595246598 0.3415979334073694 -0.06546684642821166
0.07129608617866875 0.3780710381229223 -0.06546684642821166
0.1251672295340479 0.38955912446190033 -0.06546684642821166
0.4225929777246834 0.3549065361607209 -0.06546684642821166
0.3788198712293272 0.36804474575213597 -0.06546684642821166
0.420449611108746 0.26112752066759637 -0.06546684642821166
0.4341797127363614 0.3744031011107116 -0.06501844337048418
0.4329241841747246 0.32284571753320623 -0.06430099847812022
0.4006122598348825 0.33326660459479285 -0.06430099847812022
0.47368402212215216 0.424086159906916 -0.06367323419730175
0.382685105586938 0.25432076225129324 -0.06367323419730175
0.3859584479083487 0.3078062789770267 -0.06367323419730175
0.3881466548300588 0.3971999125655766 -0.06367323419730175
0.3836088158858567 0.37934450280686843 -0.06367323419730175
0.31647391008289866 0.47956258620895953 -0.06367323419730175
0.24245153331324684 0.40912743390112744 -0.06367323419730175
0.29095080803705076 0.48289870495845183 -0.06367323419730175
0.2203452625672822 0.39976477805577776 -0.06367323419730175
0.052247924286405574 0.4539228993681023 -0.06367323419730175
0.24219145953976495 0.3544491650418388 -0.06367323419730175
0.056642274252134805 0.3954690767627484 -0.06367323419730175
0.05944030933235437 0.31385075219519304 -0.06367323419730175
0.04136069804478244 0.28602285843262587 -0.0625073862472103
0.4426007221604834 0.2624009853515424 -0.0625073862472103
0.37183375158993304 0.35688847767587634 -0.0625073862472103
0.12285346975617416 0.3794431514795685 -0.06187962196639183
0.23165398768316914 0.33704215834085827 -0.06187962196639183
0.25569735963851653 0.40838308482529984 -0.06187962196639183
0.13585715843027102 0.32847765993826333 -0.06187962196639183
0.25802905553869937 0.4821543558826243 -0.06187962196639183
0.22925951535490444 0.3557943742150213 -0.06187962196639183
0.12207324843572832 0.3868238658097627 -0.06187962196639183
0.05594276548208004 0.3102545596722187 -0.06187962196639183
0.41817172357549054 0.2474332912845992 -0.06187962196639183
0.38565353382909384 0.36197336835050586 -0.06187962196639183
0.42299654047663826 0.3954690767627484 -0.06187962196639183
0.39893523239898165 0.4600480851366596 -0.06187962196639183
0.44599064927690324 0.45754599607454033 -0.0607137740163004
0.3160613792697895 0.3355444921280485 -0.0607137740163004
0.051934042145996374 0.3752730030427029 -0.06008600973548193
0.061404314725200665 0.4519319897917925 -0.06008600973548193
0.30016997490392766 0.4772667625533949 -0.06008600973548193
0.24532131288270265 0.29207629971194676 -0.06008600973548193
0.1310771818348961 0.38368504440567036 -0.06008600973548193
0.2536795458787428 0.4674467355891631 -0.06008600973548193
0.2342278212345249 0.334836015296839 -0.06008600973548193
0.0686236039546131 0.3680357776909814 -0.06008600973548193
0.14210789705499197 0.4229741203237519 -0.06008600973548193
0.05918920362002693 0.39815949510911336 -0.06008600973548193
0.43119334837189643 0.23590036463984848 -0.06008600973548193
0.4221804469115742 0.38799868182100866 -0.06008600973548193
0.43756067179162667 0.4439862876088614 -0.06008600973548193
0.0462303552517029 0.27421192189208415 -0.059637606677754446
0.44527320438453916 0.25059004881100067 -0.05892016178539048
0.339683252350873 0.35688847767587634 -0.05892016178539048
0.19978149833990017 0.46915066720852755 -0.058292397504572026
0.2878568269387312 0.47782278234497677 -0.058292397504572026
0.24759023235480368 0.3425395798285971 -0.058292397504572026
0.03881376867689032 0.3593367583710683 -0.058292397504572026
0.28114871719512813 0.275270153108321 -0.058292397504572026
0.130799171939105 0.3850930300069346 -0.058292397504572026
0.2369989521312807 0.357910836647495 -0.058292397504572026
0.04791635074875811 0.31069399466879166 -0.058292397504572026
0.4284580897197588 0.2476395566911538 -0.058292397504572026
0.3832859656842929 0.3057974332784076 -0.058292397504572026
0.38351913527431103 0.4032981941506702 -0.058292397504572026
0.40432503715286616 0.44978862317585516 -0.058292397504572026
0.375716922069853 0.29338563664051104 -0.05712654955448058
0.39874690311473626 0.3631750885452155 -0.05712654955448058
0.057054805065244144 0.28904509504170905 -0.05649878527366211
0.2006065599661187 0.4691955075143002 -0.05649878527366211
0.2475722962324946 0.3174648808404765 -0.05649878527366211
0.3043401233407932 0.4803338394682507 -0.05649878527366211
0.14306747959852875 0.3296166037048912 -0.05649878527366211
0.052705295405287615 0.45432646212005723 -0.05649878527366211
0.23751013161709003 0.3549424084053391 -0.05649878527366211
0.13710371893075338 0.4151180987523665 -0.05649878527366211
0.38513338628213 0.2550740793882754 -0.05649878527366211
0.3849809292425027 0.3532295087248201 -0.05649878527366211
0.41342761922473387 0.38627681407933523 -0.05649878527366211
0.447927750486286 0.44626417514211714 -0.05649878527366211
0.4357580914995623 0.3441807350198796 -0.055332937323570676
0.36172674666875576 0.33326660459479285 -0.055332937323570676
0.043808978739974434 0.39205224546286505 -0.05470517304275221
0.039342884285008844 0.33990296984915946 -0.05470517304275221
0.22866762331870413 0.39555875737429397 -0.05470517304275221
0.21238162426204216 0.4088404559441819 -0.05470517304275221
0.053279251319178725 0.3062727405195987 -0.05470517304275221
0.1568872618376897 0.4221221545140697 -0.05470517304275221
0.274781393775398 0.27436437893171145 -0.05470517304275221
0.07175345729755081 0.3724121915344016 -0.05470517304275221
0.06217556798449191 0.3349884723364663 -0.05470517304275221
0.37937589102090924 0.2632888234058428 -0.05470517304275221
0.42705010411849464 0.3766182122158854 -0.05470517304275221
0.41119457199725107 0.454747960994321 -0.05470517304275221
0.042957012930292235 0.2762117995295487 -0.05353932509266076
0.44791878242513145 0.2624009853515424 -0.05353932509266076
0.04944988920618614 0.38055519106273256 -0.052911560811842284
0.06143121890866431 0.4054415607666076 -0.052911560811842284
0.25032549100694135 0.35959683214455024 -0.052911560811842284
0.24876504836604968 0.3187652497078862 -0.052911560811842284
0.03504718299197962 0.33235186235702874 -0.052911560811842284
0.25691701595553523 0.2952599614218119 -0.052911560811842284
0.20580803543575743 0.3179222519593586 -0.052911560811842284
0.07842569479653566 0.38784622478138137 -0.052911560811842284
0.13990175401097282 0.420642424423569 -0.052911560811842284
0.4382422444393724 0.2320979067103194 -0.052911560811842284
0.4343770100817617 0.36641255862200794 -0.052911560811842284
0.4637474103629112 0.4390359178515501 -0.052911560811842284
0.32787231581033116 0.28602285843262587 -0.05174571286175086
0.37757331072884476 0.3271145146427718 -0.05174571286175086
0.043871755168056324 0.30565394429993487 -0.05111794858093238
0.2413933020970099 0.4731683586057658 -0.05111794858093238
0.1413994202237826 0.32977802880567314 -0.05111794858093238
0.18447301794908402 0.47132990606908304 -0.05111794858093238
0.14517497396984788 0.36125592345814195 -0.05111794858093238
0.036921507773280376 0.36650223923355346 -0.05111794858093238
0.2352322440838344 0.38493160490615275 -0.05111794858093238
0.07523306502551608 0.3739995383587569 -0.05111794858093238
0.14779364782697638 0.43389721880999316 -0.05111794858093238
0.38976090583787754 0.24775614148616298 -0.05111794858093238
0.388317047991995 0.35447606922530245 -0.05111794858093238
0.4337940861067157 0.39241096790904706 -0.05111794858093238
0.03695738001789862 0.27421192189208415 -0.0506695455232049
0.49324336350022485 0.35688847767587634 -0.049952100630840934
0.06092900748400956 0.3970653916482583 -0.04932433635002248
0.23467622429225235 0.36891464768412724 -0.04932433635002248
0.06506328367625688 0.4029305036433337 -0.04932433635002248
0.2577510456429084 0.28539509415180747 -0.04932433635002248
0.1726262091639241 0.46977843148934595 -0.04932433635002248
0.19244562431547854 0.3156712686095666 -0.04932433635002248
0.03911868275614506 0.37849253699718627 -0.04932433635002248
0.2431062017775289 0.39637485093935804 -0.04932433635002248
0.07099117209941415 0.3686635419717999 -0.04932433635002248
0.43085256204802375 0.2532266587904382 -0.04932433635002248
0.39639727109224426 0.3329527224543836 -0.04932433635002248
0.4389417532094273 0.44482928535738925 -0.04932433635002248
0.41441410595173445 0.34216292126010606 -0.04815848839993103
0.38314247670581997 0.30613821960228044 -0.04815848839993103
0.4354262732368439 0.2420524545918694 -0.04753072411911256
0.06320689501726506 0.3744031011107116 -0.04753072411911256
0.04671463055404847 0.3720714052105287 -0.04753072411911256
0.04293010874682859 0.37959560851919577 -0.04753072411911256
0.2492851959130136 0.3730847961209928 -0.04753072411911256
0.25118642487777815 0.2936188062305293 -0.04753072411911256
0.147085170995767 0.3280920333086178 -0.04753072411911256
0.035154799725834095 0.357453465528613 -0.04753072411911256
0.2487022719379679 0.397926325519095 -0.04753072411911256
0.12630617330067564 0.42353910817648843 -0.04753072411911256
0.422207351095038 0.3804834465734962 -0.04753072411911256
0.443883154905584 0.4496989425643095 -0.04753072411911256
0.5168652365813082 0.3450775411353345 -0.04636487616902113
0.49324336350022485 0.23877911227045887 -0.04636487616902113
0.039737478975808996 0.33008294288492773 -0.04573711188820266
0.2376984609013356 0.4730697099330658 -0.04573711188820266
0.18339685061053804 0.46388641531080704 -0.04573711188820266
0.06651610958329385 0.45120557683827384 -0.04573711188820266
0.4364217280249988 0.24577419997100752 -0.04573711188820266
0.23690927151973515 0.39911010959149557 -0.04573711188820266
0.25565251933274374 0.2865878462853625 -0.04573711188820266
0.19441859776947942 0.4025000367079153 -0.04573711188820266
0.24546480186117547 0.39547804482390303 -0.04573711188820266
0.43344433172168845 0.3646279144522526 -0.04573711188820266
0.41721214103195375 0.34314940798710647 -0.044571263938111214
0.39470230753403446 0.2624009853515424 -0.044571263938111214
0.03802457929529001 0.310111070693746 -0.043943499657292745
0.17784562075587187 0.46692658804219933 -0.043943499657292745
0.037549272054098914 0.3391496527121774 -0.043943499657292745
0.06346696879074709 0.2889374783078545 -0.043943499657292745
0.044508487510029324 0.3449519882791709 -0.043943499657292745
0.4267362219780855 0.24809692781003584 -0.043943499657292745
0.2809245156662643 0.4026166215029245 -0.043943499657292745
0.1884817412851677 0.40869696696570906 -0.043943499657292745
0.13705887862498067 0.32459448945834346 -0.043943499657292745
0.4245211108729116 0.3788691955656772 -0.043943499657292745
0.48142345889852844 0.19152639804713728 -0.04277765170720131
0.39663044068226266 0.33475530274644805 -0.04277765170720131
0.03873305612649937 0.3141646343356024 -0.04214988742638284
0.2273044780232126 0.4720204467779833 -0.04214988742638284
0.03813219602914461 0.341266115144651 -0.04214988742638284
0.045288708830475165 0.30906180753866364 -0.04214988742638284
0.25462119229997054 0.3232403122240065 -0.04214988742638284
0.14564131314988452 0.3255720081241893 -0.04214988742638284
0.14938996271248628 0.3129091057739654 -0.04214988742638284
0.24598494940813928 0.27974521562444116 -0.04214988742638284
0.39345574703355196 0.2398732157313139 -0.04214988742638284
0.44456472755332993 0.3680268096298269 -0.04214988742638284
0.39874690311473626 0.35688847767587634 -0.04098403947629141
0.456546057255808 0.25059004881100067 -0.04098403947629141
0.03996168050467266 0.3208637760180509 -0.04035627519547294
0.0781476849007447 0.3812905720774057 -0.04035627519547294
0.042257504160237346 0.2984974314986043 -0.04035627519547294
0.2443976025837841 0.47844157856464087 -0.04035627519547294
0.25509649954116165 0.321877166928515 -0.04035627519547294
0.2594818814457364 0.2826777716219788 -0.04035627519547294
0.23200374206819657 0.3914782895489739 -0.04035627519547294
0.39533903987600744 0.2468952076153262 -0.04035627519547294
0.4351931036468255 0.3761339369135397 -0.04035627519547294
0.4580975318355451 0.23877911227045887 -0.03919042724538151
0.39154555000763297 0.3337239757136749 -0.03919042724538151
0.04305566160299224 0.28927826463172734 -0.03856266296456304
0.06036401963127292 0.45140287418367386 -0.03856266296456304
0.07475775778432497 0.3835146512437339 -0.03856266296456304
0.0397912873427363 0.374914280596521 -0.03856266296456304
0.045817824438593564 0.34634203775812605 -0.03856266296456304
0.23879256436219062 0.3962851703278125 -0.03856266296456304
0.29264577159526056 0.40113689141242376 -0.03856266296456304
0.2839557203365021 0.4087149030880181 -0.03856266296456304
0.4350047743625801 0.2399718644040139 -0.03856266296456304
0.3928369508138882 0.3869225144824628 -0.03856266296456304
0.4311664441884329 0.2630197815712063 -0.03739681501447158
0.07051586485822305 0.37516538630884827 -0.0367690507336531
0.03432973809961555 0.30199497534887865 -0.0367690507336531
0.19960213711680908 0.4687919447623456 -0.0367690507336531
0.036598657571716584 0.3493014979391274 -0.0367690507336531
0.2594818814457364 0.39455433452498445 -0.0367690507336531
0.26235166101519225 0.3925185846429017 -0.0367690507336531
0.14972178097520455 0.41199721347058327 -0.0367690507336531
0.39846889321894513 0.24308378162464267 -0.0367690507336531
0.43401828763557954 0.3740981870314569 -0.0367690507336531
0.3803085693809824 0.23877911227045887 -0.035603202783561674
0.03504718299197962 0.2955200351952938 -0.034975438502743206
0.041288953555546085 0.3578121879747949 -0.034975438502743206
0.1622322262858011 0.4651867841782166 -0.034975438502743206
0.044418806898483786 0.4094682202250003 -0.034975438502743206
0.11213663667648739 0.43430974962310265 -0.034975438502743206
0.2614548548997373 0.2790726110378499 -0.034975438502743206
0.21665042137160787 0.39849131337183163 -0.034975438502743206
0.4316507194907786 0.23616940647448498 -0.034975438502743206
0.43092430653725994 0.37438516498840246 -0.034975438502743206
0.29243950618870596 0.28602285843262587 -0.03380959055265177
0.4477663253855041 0.3680985541190633 -0.0331818262718333
0.4408429821741917 0.2338735828189203 -0.0331818262718333
0.29531825381931637 0.39882313163455 -0.0331818262718333
0.17977375390410005 0.40423087251074336 -0.0331818262718333
0.056857507719844 0.3901330803757914 -0.0331818262718333
0.0716099683190781 0.3943660052407389 -0.0331818262718333
0.039109714694990465 0.3397863850541504 -0.0331818262718333
0.037899026439126356 0.2808393190852962 -0.0331818262718333
0.45677025878467176 0.21514827112822077 -0.03201597832174187
0.44425981347407506 0.37975703361997765 -0.0313882140409234
0.38794935748465853 0.24137985000527828 -0.0313882140409234
0.2585402350245087 0.2812070095926327 -0.0313882140409234
0.14950654750749534 0.33288994602630173 -0.0313882140409234
0.14626907743070292 0.3092860090675273 -0.0313882140409234
0.05031082307702293 0.3645292657795526 -0.0313882140409234
0.050624705217432134 0.4190550775992138 -0.0313882140409234
0.03996168050467266 0.36852902105448165 -0.0313882140409234
0.29243950618870596 0.22695920766876257 -0.030222366090831967
0.44920121517023204 0.36173123069933316 -0.029594601810013495
0.436341015474608 0.2414157222498964 -0.029594601810013495
0.2605580487842823 0.28377187508283386 -0.029594601810013495
0.15030470495025025 0.3196799919456503 -0.029594601810013495
0.06801377579610363 0.38740678978480847 -0.029594601810013495
0.14237693888962846 0.4630434175622792 -0.029594601810013495
0.033522612595706186 0.29606708692572137 -0.029594601810013495
0.07008539792280466 0.36519290230498924 -0.029594601810013495
0.29243950618870596 0.33326660459479285 -0.028428753859922034
0.4457036713199576 0.3835774276718158 -0.027800989579103562
0.26239650132096504 0.320065618575296 -0.027800989579103562
0.2663334801678122 0.2753060253529392 -0.027800989579103562
0.15163197800112369 0.3432032163540338 -0.027800989579103562
0.06637262060482113 0.36629597382699874 -0.027800989579103562
0.052642518977205725 0.41062510011393727 -0.027800989579103562
0.05223895622525098 0.3601438838749778 -0.027800989579103562
0.07497299125203417 0.3871825882559447 -0.027800989579103562
0.5050543000407667 0.28602285843262587 -0.02663514162901213
0.4344846268156163 0.35721132787744014 -0.02600737734819366
0.44501313061105724 0.23050159182480962 -0.02600737734819366
0.2614189826551191 0.28002322552023223 -0.02600737734819366
0.15408922675747014 0.3506287709900007 -0.02600737734819366
0.060839326872464024 0.38790900120946326 -0.02600737734819366
0.05292949693415141 0.41066994041970994 -0.02600737734819366
0.05301917754569682 0.366134548726217 -0.02600737734819366
0.0627764280818468 0.4485330946142181 -0.02600737734819366
0.3160613792697895 0.27421192189208415 -0.02484152939810223
0.453559692891343 0.3636862680310249 -0.024213765117283757
0.2632305310083381 0.30789595958857224 -0.024213765117283757
0.2616611203062919 0.2747051652555843 -0.024213765117283757
0.15441207695903392 0.3550500251391937 -0.024213765117283757
0.056202839255561944 0.36754253432748124 -0.024213765117283757
0.16782829644624012 0.4651150396889803 -0.024213765117283757
0.15232251871002397 0.4604337117663053 -0.024213765117283757
0.10522226152632969 0.4540036119184934 -0.024213765117283757
0.3751250300336528 0.22695920766876257 -0.023047917167192327
0.4534789803409522 0.3768603498670582 -0.022420152886373855
0.2653380253796572 0.30554632756608024 -0.022420152886373855
0.2638582952891566 0.30197703922656943 -0.022420152886373855
0.15427755604171567 0.3574355294063038 -0.022420152886373855
0.07428245054313387 0.37296821132598373 -0.022420152886373855
0.16929905847558627 0.46547376213516223 -0.022420152886373855
0.07047102455245022 0.39880519551224086 -0.022420152886373855
0.06622913162634829 0.45176159662985604 -0.022420152886373855
0.29243950618870596 0.28602285843262587 -0.021254304936282425
0.44762283640703115 0.3702688249184643 -0.020626540655463953
0.3887206107439499 0.2332727227215654 -0.020626540655463953
0.29418827811384307 0.26518108430945275 -0.020626540655463953
0.15588283898838007 0.3638656292541159 -0.020626540655463953
0.1648598682040842 0.34033343678457784 -0.020626540655463953
0.059287852292726935 0.3935050713699021 -0.020626540655463953
0.0637180745030744 0.3944736219745935 -0.020626540655463953
0.07672176317717126 0.45328616702612934 -0.020626540655463953
0.36331409349311106 0.37097730174967364 -0.01946069270537249
0.49324336350022485 0.26012309781828674 -0.01946069270537249
0.4391211144325184 0.3536868798437022 -0.01883292842455402
0.2651317599731026 0.38487779653922544 -0.01883292842455402
0.27522979683312543 0.385962931938926 -0.01883292842455402
0.15790962080930826 0.3817120709516695 -0.01883292842455402
0.058534535155744874 0.3983478243933589 -0.01883292842455402
0.05900984239693597 0.45359108110538393 -0.01883292842455402
0.04267900303450128 0.3784476966914134 -0.01883292842455402
0.4682135048178771 0.2624009853515424 -0.018384525366826568
0.3081156770868586 0.24314655805272445 -0.01766708047446259
0.4397399106521822 0.3683675959536998 -0.017039316193644117
0.3940297029474431 0.22911154234585443 -0.017039316193644117
0.2721089115513422 0.27534189759755734 -0.017039316193644117
0.15909340488170884 0.3937920493268477 -0.017039316193644117
0.0698970686385591 0.3825102283944244 -0.017039316193644117
0.13548049986177993 0.462290100425297 -0.017039316193644117
0.05935959678196342 0.3898461024188459 -0.017039316193644117
0.12311354352965606 0.4537794103896296 -0.017039316193644117
0.339683252350873 0.3450775411353345 -0.015873468243552687
0.311810518282533 0.24427653375819772 -0.015873468243552687
0.4559541652196077 0.37695003047860365 -0.015245703962734216
0.4532906510567065 0.22509385094861628 -0.015245703962734216
0.27701444100288075 0.3844114573591889 -0.015245703962734216
0.16845606072705854 0.3921777983190288 -0.015245703962734216
0.05763772904028984 0.43311699748954746 -0.015245703962734216
0.0474500115687216 0.3760173521185305 -0.015245703962734216
0.06270468359261032 0.3883394681448816 -0.015245703962734216
0.4543040419671706 0.2624009853515424 -0.014797300905006732
0.4726526950893791 0.2770547972780763 -0.014079856012642784
0.45868045581059075 0.35545358789114845 -0.013452091731824314
0.3914110290903146 0.23145220630719196 -0.013452091731824314
0.29926420072731813 0.3915679701605195 -0.013452091731824314
0.15926379804364532 0.3825012603332698 -0.013452091731824314
0.07299104973687869 0.3787167385260499 -0.013452091731824314
0.055323969262416096 0.40116379559588744 -0.013452091731824314
0.05136008623210513 0.3685110849321725 -0.013452091731824314
0.16828566756512217 0.46745570365031774 -0.013452091731824314
0.47284999243477915 0.27724312656232186 -0.012286243781732882
0.29243950618870596 0.28602285843262587 -0.012286243781732882
0.46075207793729167 0.3542159954518206 -0.011658479500914412
0.3892317902297591 0.22987382754399122 -0.011658479500914412
0.27060227727737785 0.29778895466739486 -0.011658479500914412
0.2961164112620713 0.25306523368965633 -0.011658479500914412
0.06738601151528523 0.381981112786306 -0.011658479500914412
0.06616635519826652 0.4222477073702335 -0.011658479500914412
0.10685444865645773 0.45500803476780294 -0.011658479500914412
0.061018688095554975 0.4292338270096276 -0.011658479500914412
0.4422778719589198 0.3434722581886703 -0.010492631550822949
0.48446363162992073 0.20333733458767908 -0.010492631550822949
0.41315857739009737 0.3736139117291112 -0.009864867270004478
0.4659087131011578 0.24075208572445975 -0.009864867270004478
0.2734182484799064 0.26884005326050897 -0.009864867270004478
0.2618673857128465 0.29108981298494635 -0.009864867270004478
0.07647065746484395 0.36741698147131746 -0.009864867270004478
0.10720420304148517 0.4592588957550593 -0.009864867270004478
0.14710310711807606 0.4560931701675035 -0.009864867270004478
0.06877606099424041 0.4384171216318863 -0.009864867270004478
0.29243950618870596 0.30964473151370936 -0.008699019319913046
0.4726526950893791 0.19152639804713728 -0.008699019319913046
0.46311067802093825 0.35115788659811925 -0.008071255039094576
0.4689847580771682 0.2059201362001893 -0.008071255039094576
0.2968248880932807 0.38762202325251754 -0.008071255039094576
0.2659926938439394 0.26469680900710707 -0.008071255039094576
0.16807043409741296 0.3759814798739124 -0.008071255039094576
0.09264007172649676 0.4555999268040032 -0.008071255039094576
0.05319853876878778 0.4114322256178466 -0.008071255039094576
0.10528503795441158 0.45187818142486524 -0.008071255039094576
0.45894052958407267 0.19152639804713728 -0.007622851981367092
0.31772047058338115 0.25059004881100067 -0.006905407089003144
0.5168652365813082 0.35688847767587634 -0.006905407089003144
0.05835517393265379 0.42284856746758814 -0.006277642808184674
0.05231966877564193 0.3723942554120925 -0.006277642808184674
0.065000507248175 0.4481474679845724 -0.006277642808184674
0.3015241521382647 0.38598086806123505 -0.006277642808184674
0.2778484706902539 0.2696651148867275 -0.006277642808184674
0.4725002380497516 0.2018307003137147 -0.006277642808184674
0.4565729614392718 0.3668161213739627 -0.006277642808184674
0.4848133860149483 0.21514827112822077 -0.005829239750457189
0.42984813919871395 0.23877911227045887 -0.005111794858093242
0.4842753023456753 0.24162198765645113 -0.005111794858093242
0.07745714419184441 0.3652736148553802 -0.004484030577274771
0.061583675948291616 0.4253237523462439 -0.004484030577274771
0.132610720292324 0.4577163892364768 -0.004484030577274771
0.16990888663409562 0.38571182622659855 -0.004484030577274771
0.28418888992652036 0.383694012466825 -0.004484030577274771
0.2689790582084044 0.39758553919522216 -0.004484030577274771
0.45661780174504446 0.21206325809105578 -0.004484030577274771
0.4549676784926074 0.35810813399289504 -0.004484030577274771
0.44599064927690324 0.284704553442907 -0.004035627519547288
0.4696125223579866 0.30964473151370936 -0.0033181826271833394
0.3708382968017781 0.23877911227045887 -0.0033181826271833394
0.4755762830257622 0.3355444921280485 -0.0033181826271833394
0.06509018785972054 0.45291847651879286 -0.002690418346364869
0.05923404392579964 0.3869673547882355 -0.002690418346364869
0.17085950111647782 0.3961237452270306 -0.002690418346364869
0.26307807396871075 0.3065955907211625 -0.002690418346364869
0.304483612319266 0.39178320362822866 -0.002690418346364869
0.47687665189317174 0.2061443377290531 -0.002690418346364869
0.4555595705288077 0.3596954808172504 -0.002690418346364869
0.44794568660859496 0.2660330501191349 -0.0022420152886373857
0.339683252350873 0.36869941421641805 -0.0015245703962734056
0.49324336350022485 0.21514827112822077 -0.0015245703962734056
0.36156532156797383 0.21514827112822077 -0.0015245703962734056
0.05487556620468865 0.39253652076521073 -8.968061154549351E-4
0.11428000329242477 0.46263985481032455 -8.968061154549351E-4
0.06650714152213938 0.35172287445085576 -8.968061154549351E-4
0.27703237712518985 0.3785822176087317 -8.968061154549351E-4
0.310994424717469 0.2580514756915858 -8.968061154549351E-4
0.3888461636001134 0.2332906588438746 -8.968061154549351E-4
0.46114667262809195 0.21773107274073114 -8.968061154549351E-4
0.4497841391452777 0.35727410430552203 -8.968061154549351E-4
0.48678635946894916 0.23225036374994684 -4.484030577274835E-4
0.3555029122274983 0.23877911227045887 2.6904183463649645E-4
0.4802127706426643 0.24181031694069668 2.6904183463649645E-4
0.4549407743091436 0.3624307394693879 8.96806115454967E-4
0.46311964608209283 0.2253539247220982 8.96806115454967E-4
0.47784520249786316 0.19546337689398458 8.96806115454967E-4
0.26768765740214917 0.2876281413792902 8.96806115454967E-4
0.30591850210399396 0.38946047578920034 8.96806115454967E-4
0.06890161385040407 0.376842413744749 8.96806115454967E-4
0.07540345818745256 0.4558151602717124 8.96806115454967E-4
0.0462303552517029 0.3916845549555285 8.96806115454967E-4
0.4357580914995623 0.20591116813903487 0.0013452091731824504
0.3569288339510718 0.23074372947598246 0.0020626540655463987
0.45039396730378717 0.3373022321143402 0.0020626540655463987
0.48997898923996874 0.23592726882331214 0.0020626540655463987
0.38309763640004724 0.23394532730815665 0.002690418346364869
0.37170819873376937 0.22924606326317268 0.002690418346364869
0.3047078138481297 0.254087592661275 0.002690418346364869
0.3072726793383309 0.3846266908268981 0.002690418346364869
0.07644375328138031 0.35709474308243094 0.002690418346364869
0.07405824901427008 0.45545643782553025 0.002690418346364869
0.0471809697340851 0.39658111634591264 0.002690418346364869
0.4341797127363614 0.2008262774644052 0.0031388214040923524
0.34065180295556435 0.23877911227045887 0.0038562662964563006
0.37796790541964503 0.2534329241969928 0.0038562662964563006
0.47749544811283584 0.321455668054251 0.0038562662964563006
0.4536135012582703 0.35870002602909534 0.004484030577274771
0.44251104154893794 0.2178476575357402 0.004484030577274771
0.2756871679520075 0.26420356564360686 0.004484030577274771
0.3044567081358024 0.24554103038098926 0.004484030577274771
0.2867985957224943 0.3759276715069851 0.004484030577274771
0.11121292637756884 0.4597880113631777 0.004484030577274771
0.08237164170453744 0.36573098597426223 0.004484030577274771
0.36331409349311106 0.23984631154785024 0.004932433635002255
0.45477038114720736 0.3124876068997015 0.0056498785273662025
0.43112160388266024 0.19628843852020314 0.0056498785273662025
0.49324336350022485 0.35688847767587634 0.0056498785273662025
0.47238365325474263 0.34410899053064326 0.006277642808184674
0.45003524485760504 0.21532763235131186 0.006277642808184674
0.35717993966339906 0.22816092786347222 0.006277642808184674
0.3210386532105644 0.2563834163168397 0.006277642808184674
0.31464442560737066 0.38720052437825375 0.006277642808184674
0.05946721351581802 0.40122657202396933 0.006277642808184674
0.1109618206652414 0.4517705646910106 0.006277642808184674
0.49140491096354205 0.2624009853515424 0.006726045865912157
0.3427234250822653 0.25059004881100067 0.007443490758276137
0.4829928696005747 0.27421192189208415 0.007443490758276137
0.5168652365813082 0.35688847767587634 0.007443490758276137
0.06793306324571267 0.4614381346156148 0.008071255039094607
0.31235757001296055 0.38091391350891457 0.008071255039094607
0.2774628440606082 0.262427889535006 0.008071255039094607
0.469845691948005 0.25904693047974087 0.008071255039094607
0.37546581635752563 0.2277932373561357 0.008071255039094607
0.4619358620096923 0.3572561681832129 0.008071255039094607
0.36620180918487594 0.25059004881100067 0.008519658096822058
0.49324336350022485 0.321455668054251 0.008519658096822058
0.34764689065611304 0.25059004881100067 0.00923710298918604
0.48676842334664 0.27421192189208415 0.00923710298918604
0.06444448745659295 0.4545775678323845 0.00986486727000451
0.28034159169121864 0.38326354553140657 0.00986486727000451
0.46445588719412073 0.3454003913368983 0.00986486727000451
0.28319343513836537 0.25908280272435896 0.00986486727000451
0.4258483839237849 0.21937222793201364 0.00986486727000451
0.3683272396785042 0.23905712216624994 0.00986486727000451
0.47475122139954357 0.24698488822687176 0.00986486727000451
0.48676842334664 0.2732702754708564 0.010313270327731992
0.44039457911646435 0.23877911227045887 0.011030715220095941
0.3471626153537673 0.24761265250769016 0.011030715220095941
0.42380366598054775 0.36840346819831804 0.011658479500914412
0.3685604092685225 0.23060024049750974 0.011658479500914412
0.3208054836205462 0.24708353689957174 0.011658479500914412
0.44183843696234687 0.22297738851614257 0.011658479500914412
0.2863770968482305 0.37168577858088314 0.011658479500914412
0.06499153918702054 0.44336749138919757 0.011658479500914412
0.36156532156797383 0.2488681810693271 0.012106882558641894
0.41721214103195375 0.19152639804713728 0.012824327451005844
0.36331409349311106 0.3805103507569598 0.012824327451005844
0.4218127564042377 0.36391943762104323 0.013452091731824314
0.4793159645272094 0.20122087215520534 0.013452091731824314
0.32894848314887715 0.2403574910336596 0.013452091731824314
0.4190236893851727 0.21081669759057342 0.013452091731824314
0.46582800055076673 0.238438325946586 0.013452091731824314
0.3103756284978051 0.3877206719252177 0.013452091731824314
0.08666734299756666 0.4662270792721444 0.013452091731824314
0.35996900668246407 0.2177490088630402 0.014617939681915744
0.45642050439964443 0.3130794989359018 0.014617939681915744
0.4965346419439444 0.2713690465060919 0.014617939681915744
0.28633225654245775 0.25422211357859315 0.015245703962734216
0.46769335727091305 0.3492476895722001 0.015245703962734216
0.49014938240190525 0.26449054360055246 0.015245703962734216
0.2855610032831665 0.38061796749081445 0.015245703962734216
0.06386156348154724 0.4252789120404712 0.015245703962734216
0.463577017200975 0.3257962096530531 0.0156941070204617
0.4055715976533484 0.20044961889591412 0.01641155191282568
0.36331409349311106 0.3805103507569598 0.01641155191282568
0.4682852493071133 0.35083503639655544 0.017039316193644148
0.3276481142814675 0.23938894042896822 0.017039316193644148
0.28791960336681294 0.26825712928546325 0.017039316193644148
0.4233014545558929 0.2102965500436095 0.017039316193644148
0.31393594877616127 0.3825102283944244 0.017039316193644148
0.05915333137540869 0.4392242471357958 0.017039316193644148
0.42236877619581986 0.23224139568879226 0.017487719251371603
0.4195259008098276 0.25059004881100067 0.018205164143735582
0.29243950618870596 0.30964473151370936 0.018205164143735582
0.47716362985011745 0.33731120017549465 0.01883292842455405
0.3264822663313761 0.2424829215272878 0.01883292842455405
0.46748709186435844 0.19112283529518265 0.01883292842455405
0.44151558676078306 0.2223585922964786 0.01883292842455405
0.3130032704160881 0.3862947502016443 0.01883292842455405
0.40176913972381934 0.19152639804713728 0.019281331482281536
0.339683252350873 0.35688847767587634 0.019998776374645484
0.41055783965527803 0.23877911227045887 0.019998776374645484
0.4083247924277953 0.21703156397067624 0.020626540655463953
0.351906719704524 0.23494078209631167 0.020626540655463953
0.29043962855124145 0.25699324447534905 0.020626540655463953
0.48166559654970137 0.23762223238152191 0.020626540655463953
0.31203471981139674 0.38287791890176087 0.020626540655463953
0.40793019773699496 0.19152639804713728 0.02107494371319144
0.44503106673336645 0.2614503708691602 0.021792388605555386
0.29243950618870596 0.3450775411353345 0.021792388605555386
0.47300244947440645 0.33773269904975856 0.022420152886373855
0.4849389388711118 0.2865340379184352 0.022420152886373855
0.2916144445624874 0.2701762943725369 0.022420152886373855
0.31706580211909896 0.3761339369135397 0.022420152886373855
0.08817397727153105 0.4577971017868679 0.022420152886373855
0.49604139858044416 0.30964473151370936 0.02358600083646529
0.44039457911646435 0.27421192189208415 0.02358600083646529
0.06850701915960392 0.4582365367834406 0.024213765117283757
0.2818302898428738 0.38518271061848014 0.024213765117283757
0.4659894256515486 0.3541801232072023 0.024213765117283757
0.4462776272338489 0.19187615243216471 0.024213765117283757
0.47211461142010613 0.26346818462893373 0.024213765117283757
0.49313574676637023 0.33208282052239224 0.025379613067375222
0.4357580914995623 0.266490421238017 0.025379613067375222
0.059601734433136266 0.4476721607433813 0.02600737734819369
0.4759350054719442 0.30768072612086306 0.02600737734819369
0.4468695192700492 0.19533782403782093 0.02600737734819369
0.4673615390081949 0.3450506369518709 0.02600737734819369
0.41721214103195375 0.25059004881100067 0.026455780405921142
0.29243950618870596 0.28602285843262587 0.027173225298285125
0.3841468995551297 0.20049445920168682 0.027173225298285125
0.28921100417306816 0.37296821132598373 0.027800989579103593
0.4867415191631765 0.23986424767015932 0.027800989579103593
0.2932914719983882 0.26625725164799874 0.027800989579103593
0.4740248084460251 0.2732702754708564 0.027800989579103593
0.5006778861973464 0.3200476824529868 0.02824939263683108
0.46120944905617384 0.30964473151370936 0.028966837529195027
0.37781544838001757 0.2003061299174414 0.028966837529195027
0.2860542466466667 0.38290482308522455 0.029594601810013495
0.2917938057855784 0.2505721126886915 0.029594601810013495
0.4977812024444269 0.30372581115170666 0.029594601810013495
0.41820759582010864 0.2191300902808408 0.029594601810013495
0.4954315704219349 0.33687176517892176 0.03076044976010493
0.43112160388266024 0.27421192189208415 0.03076044976010493
0.06746672406567618 0.4512773213275103 0.0313882140409234
0.41435132952365256 0.35730100848898555 0.0313882140409234
0.29502230780121624 0.24718218557227176 0.0313882140409234
0.49578132480696224 0.2487605643354725 0.0313882140409234
0.4526449506535789 0.22703992021915353 0.0313882140409234
0.5168652365813082 0.321455668054251 0.03255406199101483
0.4218486286488558 0.2581142521196677 0.03255406199101483
0.293973044646134 0.37296821132598373 0.0331818262718333
0.4182793403093451 0.356834669308949 0.0331818262718333
0.29708496186676264 0.24504778701748897 0.0331818262718333
0.40932921527710475 0.36873528646103626 0.0331818262718333
0.49796056366751773 0.3282803625928633 0.033630229329560786
0.339683252350873 0.35393798555602946 0.034347674221924765
0.463577017200975 0.30923220070060004 0.034347674221924765
0.29581149718281663 0.3660986764815987 0.034975438502743234
0.4155351135960531 0.3592470777595229 0.034975438502743234
0.29425105454192496 0.24476080906054343 0.034975438502743234
0.4202702498856552 0.3640718946606705 0.034975438502743234
0.463577017200975 0.30923220070060004 0.03542384156047069
0.41055783965527803 0.3426651326847608 0.03614128645283467
0.42648511626575786 0.28602285843262587 0.03614128645283467
0.29624196411823506 0.37136292837931933 0.036769050733653136
0.41179543209460595 0.35572262972578494 0.036769050733653136
0.3611796949383283 0.22682468675144432 0.036769050733653136
0.4745897962987617 0.3393290139352684 0.036769050733653136
0.3605250264740461 0.21081669759057342 0.03721745379138062
0.5099508614311506 0.34023478811187785 0.03721745379138062
0.5099508614311506 0.3450775411353345 0.03793489868374457
0.3565342392602716 0.21121129228137359 0.03793489868374457
0.4120286016846241 0.3594354070437685 0.03856266296456304
0.3012999506094009 0.2419089656133967 0.03856266296456304
0.4742669460971979 0.34014510750033233 0.03856266296456304
0.3522833782730151 0.2140810718508294 0.03901106602229052
0.5017630215970468 0.34811771386672696 0.03972851091465447
0.38693596657419443 0.35277213760593806 0.03972851091465447
0.3754747844186802 0.23670749014375797 0.03972851091465447
0.2847180055346388 0.3534447421925293 0.04035627519547294
0.29327353587607913 0.2501506138144277 0.04035627519547294
0.4172390452154175 0.1951853669981935 0.04035627519547294
0.48788943099095866 0.27639116075263964 0.04035627519547294
0.45799888316284504 0.31437986780331156 0.04080467825320042
0.463577017200975 0.3245227449691071 0.041522123145564374
0.40793019773699496 0.27421192189208415 0.041522123145564374
0.29825080981685403 0.36036808540384163 0.04214988742638284
0.40923056660440477 0.35833233552175886 0.04214988742638284
0.29416137393037944 0.24926277576012726 0.04214988742638284
0.39938363545670924 0.353471646375993 0.04214988742638284
0.34764689065611304 0.3511847907815829 0.042598290484110325
0.40793019773699496 0.26145933893031464 0.042598290484110325
0.395904027728744 0.27421192189208415 0.043315735376474304
0.44503106673336645 0.30732200367468104 0.043315735376474304
0.3248769833847117 0.3659193152585078 0.04394349965729278
0.49556609133925306 0.2846238408925161 0.04394349965729278
0.3852768752606027 0.22309397331115174 0.04394349965729278
0.39767970383734486 0.21610785367175755 0.04394349965729278
0.45894052958407267 0.33385849663099315 0.04439190271502023
0.34699222219183085 0.20333733458767908 0.045109347607384206
0.4195259008098276 0.3006766703591598 0.045109347607384206
0.4440894203121388 0.31008416651028237 0.045109347607384206
0.32480523889547525 0.37203553296591046 0.04573711188820268
0.449936596184905 0.3483419153955906 0.04573711188820268
0.39707884373999 0.19693413892333073 0.04573711188820268
0.4951176882815257 0.3264598461784897 0.04573711188820268
0.39874690311473626 0.27421192189208415 0.046185514945930164
0.38474775965248437 0.35688847767587634 0.046185514945930164
0.43133683735036943 0.3242985434402433 0.04690295983829411
0.4032937101200929 0.27421192189208415 0.04690295983829411
0.33704664237143545 0.3654709122007802 0.04753072411911258
0.40006520810445495 0.20371399315617017 0.04753072411911258
0.47645515301890795 0.3374188169093492 0.04753072411911258
