0.6212636323331445 0.3310093757996655 -0.04218471229392505
0.5216139675143838 0.26923220824033967 -0.04218471229392505
0.42295798702965753 0.32843142115948115 -0.04096604282765611
0.632859741023719 0.33659650658348317 -0.04096604282765611
0.33982598066909586 0.29448678933363615 -0.040309836191972835
0.4339072634650586 0.42550313133805767 -0.040309836191972835
0.44554086967767215 0.3394931901609993 -0.040309836191972835
0.5020871329125514 0.24180277086877855 -0.040309836191972835
0.6145890734101944 0.3827840793550762 -0.040309836191972835
0.48766933568853865 0.48194627638732945 -0.040309836191972835
0.4199675596470438 0.2805377111351116 -0.039091166725703896
0.3612276913728805 0.29288377026646706 -0.039091166725703896
0.6002743943717893 0.416344361580021 -0.039091166725703896
0.32098347584447595 0.2995770779504365 -0.03843496009002061
0.4383225966851561 0.42383449160732023 -0.03843496009002061
0.5075055248471934 0.24419323789876773 -0.03843496009002061
0.5043744817569331 0.4669285188106921 -0.03843496009002061
0.445822101092965 0.49362675450249194 -0.03843496009002061
0.5488559172757494 0.4265624363356607 -0.03843496009002061
0.2890168383061905 0.416344361580021 -0.037216290623751674
0.4834883619811852 0.2805377111351116 -0.037216290623751674
0.65755185928643 0.3175758885291779 -0.037216290623751674
0.34560997344361855 0.42154714276293853 -0.03656008398806839
0.4427285555247438 0.32385672347071776 -0.03656008398806839
0.44166925052714084 0.2225477933017293 -0.03656008398806839
0.4363352280170867 0.4873177964194227 -0.03656008398806839
0.6236259762216044 0.37190042358324354 -0.03656008398806839
0.6157514965934051 0.38939301761445777 -0.03656008398806839
0.5403721029144158 0.2800033714460552 -0.03656008398806839
0.4935283235071394 0.37930618418595485 -0.03534141452179945
0.595812189249143 0.42270956594614884 -0.03534141452179945
0.32109596841059307 0.4134008060999561 -0.034685207886116176
0.4470313961787242 0.38930864818986993 -0.034685207886116176
0.4373289123511213 0.345277182935522 -0.034685207886116176
0.6291193632003244 0.353676627872268 -0.034685207886116176
0.49244089536800695 0.46896275938131027 -0.034685207886116176
0.5234794692358261 0.44584553704423935 -0.034685207886116176
0.5613894640173002 0.36890062182012 -0.034685207886116176
0.4788855411508924 0.4348775118478188 -0.0334665384198472
0.42295798702965753 0.34077748029083665 -0.0334665384198472
0.5340818935923659 0.2187980410978248 -0.0334665384198472
0.3456380965851478 0.28989334288385327 -0.03281033178416392
0.44067556619310605 0.3386026240125721 -0.03281033178416392
0.44389097870795413 0.22281965033651235 -0.03281033178416392
0.4390537983649175 0.49030822380203637 -0.03281033178416392
0.584197331797549 0.4208815617467455 -0.03281033178416392
0.478782422965285 0.4858741418209195 -0.03281033178416392
0.5600395532238945 0.4533919133545971 -0.03159166231789498
0.42295798702965753 0.37930618418595485 -0.03159166231789498
0.2995630163796718 0.3175758885291779 -0.03159166231789498
0.31669938395151515 0.40551695209124705 -0.0309354556822117
0.4370664296968481 0.4203753451992184 -0.0309354556822117
0.46806750604262803 0.39362086322436013 -0.0309354556822117
0.5376910300886242 0.2600265665797542 -0.0309354556822117
0.5640611624625821 0.27073210912190154 -0.0309354556822117
0.6318191847871356 0.34039313068993643 -0.0309354556822117
0.5555492249597191 0.2837531236499597 -0.0309354556822117
0.4289200930338657 0.3609886446698817 -0.029716786215942766
0.33303892918002875 0.2805377111351116 -0.029716786215942766
0.31547134010473643 0.4107853539377328 -0.029060579580259482
0.44394722499101275 0.3794655486546208 -0.029060579580259482
0.43961626119550307 0.3169759281765531 -0.029060579580259482
0.5740073801834388 0.426393697486485 -0.029060579580259482
0.5440468600742422 0.2696446809827692 -0.029060579580259482
0.4349478197016421 0.22816304722707612 -0.029060579580259482
0.5533087480178862 0.4357868267572657 -0.029060579580259482
0.5533368711594153 0.45937276811982464 -0.027841910113990544
0.5093897753296552 0.3916522433173102 -0.027841910113990544
0.47611072452000314 0.4356930829521681 -0.027841910113990544
0.3064813091958755 0.28949961890244325 -0.027185703478307264
0.4749483013367928 0.2831625376778447 -0.027185703478307264
0.5314383182886134 0.253089525002531 -0.027185703478307264
0.5444124609141228 0.4480860139860723 -0.027185703478307264
0.4837977165380072 0.4815056805033707 -0.027185703478307264
0.45142798063780215 0.49638282237236153 -0.027185703478307264
0.29977862713139625 0.4199816212178084 -0.025967034012038325
0.42295798702965753 0.3052298293978224 -0.025967034012038325
0.6425059785682632 0.34226800679188873 -0.025967034012038325
0.34127900964810887 0.42075969480011854 -0.025310827376355045
0.4425785654365876 0.39199909539617145 -0.025310827376355045
0.4472845044524878 0.32172873909500205 -0.025310827376355045
0.5553242398274848 0.26835101647242215 -0.025310827376355045
0.591068752711204 0.29237755371894 -0.025310827376355045
0.639253068531376 0.3493362896962485 -0.025310827376355045
0.5778321274314212 0.4033983420960409 -0.025310827376355045
0.5093897753296552 0.2805377111351116 -0.024092157910086072
0.6234853605139579 0.40548882894971777 -0.024092157910086072
0.3213022047818079 0.4139351457890125 -0.023435951274402792
0.44547524901410374 0.3904616969925706 -0.023435951274402792
0.44056307362698893 0.31253247181492627 -0.023435951274402792
0.5579209432286886 0.2695696859386911 -0.023435951274402792
0.5144331920439066 0.4610132847090328 -0.023435951274402792
0.5436718848538515 0.44084899223253665 -0.023435951274402792
0.5742792372182217 0.28530927081458 -0.023435951274402792
0.29930990810590824 0.34226800679188873 -0.022217281808133853
0.33459507634464924 0.2783909779983763 -0.022217281808133853
0.6205136818923636 0.4008297618363665 -0.022217281808133853
0.6452058001550744 0.3052298293978224 -0.022217281808133853
0.3486378983482713 0.28348126661517664 -0.021561075172450574
0.440403709158323 0.41232275234133364 -0.021561075172450574
0.4475094895847219 0.22228531064745594 -0.021561075172450574
0.5540118265561181 0.4431457154574282 -0.021561075172450574
0.5505433057675065 0.4505514760601394 -0.021561075172450574
0.5085929529863255 0.4771090960442928 -0.021561075172450574
0.617673244597906 0.416344361580021 -0.021092356146962508
0.6236822225046628 0.3052298293978224 -0.020342405706181635
0.42295798702965753 0.37930618418595485 -0.020342405706181635
0.28715133658474806 0.44104585422324166 -0.020342405706181635
0.32120846097671024 0.2951992422523781 -0.01968619907049835
0.44000998517691303 0.4205722071899234 -0.01968619907049835
0.42752331033791124 0.43017157283191876 -0.01968619907049835
0.5772696646008355 0.4258874809389579 -0.01968619907049835
0.4691080622792117 0.2307784993892996 -0.01968619907049835
0.46245225211728125 0.23252213416411507 -0.01968619907049835
0.6046147325478087 0.3887836828813233 -0.01968619907049835
0.3982658687669467 0.4533919133545971 -0.01921748004501029
0.5216795881779521 0.47808403161730784 -0.01921748004501029
0.632859741023719 0.3022581507762282 -0.01921748004501029
0.3177493145686084 0.4086198720399779 -0.017811322968546133
0.44463155476822536 0.39907675268104104 -0.017811322968546133
0.4486719127679324 0.38643071337337337 -0.017811322968546133
0.5873658724098482 0.41732867153354597 -0.017811322968546133
0.5096147604618896 0.24449321807508007 -0.017811322968546133
0.5374004242928215 0.26299824520134857 -0.017811322968546133
0.5899344526695227 0.41118845229965245 -0.017811322968546133
0.4851288785703935 0.42869042071137653 -0.01734260394305807
0.42295798702965753 0.37930618418595485 -0.01734260394305807
0.6240384489640338 0.31150128995885257 -0.01734260394305807
0.341194640223521 0.2935493512826601 -0.015936446866593915
0.4383413454461756 0.2884028163828012 -0.015936446866593915
0.43988811823028623 0.4281467066418103 -0.015936446866593915
0.5967308785390995 0.2995395804283974 -0.015936446866593915
0.44736887387707547 0.4936173801219821 -0.015936446866593915
0.46111171570438536 0.4888833179645528 -0.015936446866593915
0.6008556059633946 0.41585689379351354 -0.015936446866593915
0.6091425583340233 0.3691631044743934 -0.015936446866593915
0.5093897753296552 0.2805377111351116 -0.01546772784110585
0.629138111961344 0.3916522433173102 -0.01546772784110585
0.3166243889074371 0.29522736539390737 -0.014061570764641661
0.4463095688794725 0.323612989577464 -0.014061570764641661
0.4349665684626616 0.3566108089718231 -0.014061570764641661
0.5909656345255966 0.29484301579300703 -0.014061570764641661
0.5830067854728093 0.42221272377913155 -0.014061570764641661
0.6401248859187839 0.35513903123179064 -0.014061570764641661
0.5900375708551301 0.2830875426337667 -0.014061570764641661
0.6215354893679276 0.3408618497154245 -0.014061570764641661
0.5959528049567894 0.4296091100013331 -0.012842901298372724
0.5093897753296552 0.3175758885291779 -0.012842901298372724
0.3390947789893345 0.4154444210510841 -0.012186694662689443
0.3202147766426756 0.30300810121700905 -0.012186694662689443
0.4403755860167937 0.28459681789583824 -0.012186694662689443
0.461130464465405 0.48513356576064826 -0.012186694662689443
0.6077738987795983 0.38595261996737557 -0.012186694662689443
0.5678671609495451 0.27882219950182535 -0.012186694662689443
0.4473407507355462 0.4803995036032189 -0.012186694662689443
0.6103987253223315 0.40473887850893675 -0.012186694662689443
0.5950434900473427 0.27846597304245435 -0.010968025196420504
0.5863534393147939 0.3125793437174752 -0.010968025196420504
0.48586945463066444 0.416344361580021 -0.010968025196420504
0.45498087085100164 0.488442722080594 -0.010311818560737223
0.5449374262226695 0.46036645245385943 -0.010311818560737223
0.6210667703424394 0.3955613599898806 -0.010311818560737223
0.49355644664866877 0.2372561963215444 -0.010311818560737223
0.4459345936590821 0.3496081467310316 -0.010311818560737223
0.437422656156219 0.38840870766093294 -0.010311818560737223
0.317177477357513 0.2965491530457836 -0.010311818560737223
0.6399936445916472 0.37930618418595485 -0.009093149094468286
0.5871690104191434 0.3175758885291779 -0.009093149094468286
0.5093897753296552 0.2805377111351116 -0.009093149094468286
0.28715133658474806 0.29288377026646706 -0.009093149094468286
0.5287759942238411 0.4525950910112674 -0.008436942458785004
0.6048584664410626 0.3195351340557179 -0.008436942458785004
0.519673470748863 0.24786799505859405 -0.008436942458785004
0.4464783077286482 0.32000385308120605 -0.008436942458785004
0.4394006504437786 0.38700255058446875 -0.008436942458785004
0.3193242104942483 0.2950773753057511 -0.008436942458785004
0.30051920319166747 0.42328140315724433 -0.007218272992516066
0.42305173083475517 0.3003176540107076 -0.007218272992516066
0.6162577131409321 0.3004301465768247 -0.007218272992516066
0.5958215636296529 0.2658105593542769 -0.007218272992516066
0.4672800580798081 0.4882364857093791 -0.006562066356832784
0.6241228183886217 0.33103749894119483 -0.006562066356832784
0.6325316377058774 0.3603793099367471 -0.006562066356832784
0.5520994529321268 0.25279891920672837 -0.006562066356832784
0.4384725867733122 0.3166384504782017 -0.006562066356832784
0.4681706242282354 0.2895371164244824 -0.006562066356832784
0.31199344493561515 0.2951336215888097 -0.006562066356832784
0.2988693122219495 0.3916522433173102 -0.005343396890563813
0.38591980963559136 0.3052298293978224 -0.005343396890563813
0.6031335804272665 0.3987767725047287 -0.005343396890563813
0.5978558042002708 0.32522538302514287 -0.005343396890563813
0.4616929272959907 0.48535855089288255 -0.0046871902548805315
0.5864284343588722 0.4315683555278732 -0.0046871902548805315
0.6376594238447167 0.35752012388127 -0.0046871902548805315
0.5206859038439172 0.2438463858199065 -0.0046871902548805315
0.5866815426326358 0.29878025560710675 -0.0046871902548805315
0.4386600743835075 0.283978108782194 -0.0046871902548805315
0.45011556736643554 0.3672976027529508 -0.0046871902548805315
0.34073529557854265 0.4212659113476457 -0.0046871902548805315
0.29882244031940075 0.34226800679188873 -0.003468520788611594
0.3513283455545728 0.2769660721608926 -0.003468520788611594
0.6452058001550744 0.3940333359667896 -0.003468520788611594
0.6094894104128846 0.3071140798802845 -0.003468520788611594
0.4846976570669443 0.21586385999826954 -0.003468520788611594
0.47222035660845235 0.4913956519411688 -0.002812314152928312
0.6356720551766475 0.3548296766749685 -0.002812314152928312
0.46521769436766064 0.22064479405824777 -0.002812314152928312
0.5970027355738828 0.2829563013066299 -0.002812314152928312
0.4332229336878461 0.29232130743588136 -0.002812314152928312
0.450059321083377 0.32204746803233386 -0.002812314152928312
0.45757757425220535 0.3635478505490464 -0.002812314152928312
0.3484785338796054 0.2889465304523674 -0.002812314152928312
0.28715133658474806 0.3916522433173102 -0.0015936446866593747
0.42787016241677234 0.255836218491891 -0.0015936446866593747
0.6497336259412891 0.34226800679188873 -0.0015936446866593747
0.5977526860146636 0.4125102399515288 -0.0015936446866593747
0.4550371171340602 0.49690778768090826 -9.37438050976093E-4
0.6395717974687081 0.3525423278305868 -9.37438050976093E-4
0.47895116181446074 0.2280599290414688 -9.37438050976093E-4
0.4496843458629865 0.4119665258819626 -9.37438050976093E-4
0.43896005455981985 0.4253625156304113 -9.37438050976093E-4
0.45542146673496037 0.41543504667057424 -9.37438050976093E-4
0.33678868138393325 0.4153881747680255 -9.37438050976093E-4
0.3199241708468729 0.3027362441822259 -9.37438050976093E-4
0.48679751830113094 0.20645198196646933 2.8123141529284455E-4
0.4846976570669443 0.5027761498800187 2.8123141529284455E-4
0.5093897753296552 0.44252700634378395 2.8123141529284455E-4
0.5818724854311284 0.4264405693890339 9.374380509761263E-4
0.6223135629502378 0.32579722023623836 9.374380509761263E-4
0.4997341634046013 0.23466886730085038 9.374380509761263E-4
0.4468345341880192 0.39072417964684397 9.374380509761263E-4
0.43009189059758585 0.4131945697287413 9.374380509761263E-4
0.4555808312036263 0.29376496203438457 9.374380509761263E-4
0.3146838921419165 0.41152592999800386 9.374380509761263E-4
0.4964906277482239 0.21925738574280315 0.0014061570764641895
0.5587740118550769 0.24111844109156605 0.002156107517245064
0.4970437161982998 0.49340176937025765 0.002156107517245064
0.38591980963559136 0.416344361580021 0.002156107517245064
0.4895348374099812 0.4781402779003664 0.0028123141529283456
0.6252477440497929 0.38682443735478333 0.0028123141529283456
0.5851347698485251 0.2854686352832459 0.0028123141529283456
0.4436472448147004 0.35623583375143275 0.0028123141529283456
0.44262543733913634 0.41207901844807976 0.0028123141529283456
0.45031242935714055 0.3636978406372025 0.0028123141529283456
0.34516000317914997 0.4121633878726676 0.0028123141529283456
0.5834661301177876 0.3916522433173102 0.004030983619197317
0.6698979184177852 0.3669601250545994 0.004030983619197317
0.3982658687669467 0.255836218491891 0.004030983619197317
0.28715133658474806 0.37930618418595485 0.004030983619197317
0.47711378323454756 0.49341114375076744 0.004687190254880598
0.6368813502624066 0.3317593262404464 0.004687190254880598
0.499424808847779 0.22636316616920205 0.004687190254880598
0.47779811301176023 0.2785222193255129 0.004687190254880598
0.4392131628335834 0.36089490086478404 0.004687190254880598
0.3362355929338574 0.42292517669787344 0.004687190254880598
0.5093897753296552 0.42869042071137653 0.005905859721149536
0.42295798702965753 0.37930618418595485 0.005905859721149536
0.5247075130826048 0.2187980410978248 0.005905859721149536
0.479569870928105 0.4890239336721991 0.006562066356832818
0.621207386050086 0.32970633690880874 0.006562066356832818
0.5029589502999591 0.2312940903173364 0.006562066356832818
0.4642990050777042 0.2903433131483218 0.006562066356832818
0.44604708622519923 0.31675094304431883 0.006562066356832818
0.34506625937405233 0.41225713167776523 0.006562066356832818
0.6072676822320713 0.38224973966601977 0.007780735823101756
0.5697326626709875 0.4533919133545971 0.007780735823101756
0.5093897753296552 0.3175758885291779 0.007780735823101756
0.4689486978105458 0.4838211524892816 0.008436942458785037
0.5953622189846745 0.4278561008460078 0.008436942458785037
0.49122222590173803 0.23155657297160975 0.008436942458785037
0.5813006482200328 0.2912245049162393 0.008436942458785037
0.4306168559061324 0.4146382243272446 0.008436942458785037
0.33654494749067954 0.2936149719462283 0.008436942458785037
0.6452058001550744 0.3940333359667896 0.009655611925053974
0.65755185928643 0.3916522433173102 0.009655611925053974
0.4257140548995274 0.2726351083653829 0.009655611925053974
0.2977537609412879 0.32992194766053323 0.009655611925053974
0.46497396047440703 0.4774465737426442 0.010311818560737256
0.6494617689065059 0.3541265981367364 0.010311818560737256
0.4644489951658603 0.2309003663359264 0.010311818560737256
0.4647864728642117 0.4153694260070059 0.010311818560737256
0.3131277449772962 0.4094823150468759 0.010311818560737256
0.5340818935923659 0.474503018262579 0.01078053758622532
0.537259808585175 0.23114410022918014 0.011530488027006194
0.43215425430973325 0.3669601250545994 0.011530488027006194
0.3612276913728805 0.4039983024486657 0.011530488027006194
0.575638522392137 0.4329276407017885 0.012186694662689476
0.6406029793247816 0.35928250741710516 0.012186694662689476
0.5714200511627445 0.2731881968154588 0.012186694662689476
0.44045058106087176 0.2875122502343739 0.012186694662689476
0.44306603322309523 0.3860369893919634 0.012186694662689476
0.33645120368558185 0.2935212281411308 0.012186694662689476
0.5340818935923659 0.2344438821686161 0.012655413688177538
0.607830145062657 0.2859186055477145 0.013405364128958446
0.4308324666578569 0.32992194766053323 0.013405364128958446
0.3534094580277397 0.43038718358364325 0.013405364128958446
0.5078523769260543 0.47162508344608245 0.014061570764641729
0.6395905462297274 0.3621698166141115 0.014061570764641729
0.5901594378017571 0.2832094095803935 0.014061570764641729
0.47439521288671693 0.2949461339786145 0.014061570764641729
0.44051620172444017 0.32560973262604315 0.014061570764641729
0.3402478277920351 0.2874935014733544 0.014061570764641729
0.5493996313453158 0.24256209569006923 0.014530289790129759
0.5401189946406522 0.47808403161730784 0.014530289790129759
0.5093897753296552 0.4533919133545971 0.014530289790129759
0.5282135313932554 0.4635256186856488 0.015936446866593946
0.5327132340379409 0.47022830075012806 0.015936446866593946
0.4925158904120851 0.23181905562588298 0.015936446866593946
0.4746670699215 0.42359075771406646 0.015936446866593946
0.4400381083184423 0.31739777529949237 0.015936446866593946
0.3113934845829903 0.294571158758224 0.015936446866593946
0.2977537609412879 0.3254222450158479 0.016405165892082012
0.5093897753296552 0.34226800679188873 0.016405165892082012
0.5872252567022019 0.44104585422324166 0.016405165892082012
0.6128266898743595 0.2805377111351116 0.016405165892082012
0.5272667189617696 0.4631600178457681 0.017811322968546168
0.6266070292237084 0.32820643602724703 0.017811322968546168
0.5301446537782664 0.24313393290116472 0.017811322968546168
0.44089117694483065 0.28733413700468835 0.017811322968546168
0.44350662910705396 0.38188413882613925 0.017811322968546168
0.318630506336526 0.2944305430505776 0.017811322968546168
0.6079801351508131 0.416344361580021 0.01828004199403423
0.5359755184553376 0.23114410022918014 0.019029992434815103
0.595812189249143 0.3025581309525405 0.019029992434815103
0.5740917496080264 0.4533919133545971 0.019029992434815103
0.42645463095979846 0.27235387695009006 0.019029992434815103
0.29541016581384766 0.35461406592324407 0.019029992434815103
0.5440749832157713 0.4649692732841521 0.019686199070498386
0.619398130611702 0.3306812724818239 0.019686199070498386
0.49406266319619563 0.23978727905918001 0.019686199070498386
0.46552704892448293 0.29356810004367956 0.019686199070498386
0.3115059771491075 0.40584505540908866 0.019686199070498386
0.3485441545431738 0.40915421172903427 0.019686199070498386
0.6079801351508131 0.3133761660608048 0.02015491809598645
0.2977537609412879 0.3143979735363687 0.020904868536767325
0.5093897753296552 0.37930618418595485 0.020904868536767325
0.569207697362441 0.45476994728953196 0.020904868536767325
0.6360001584944891 0.3916522433173102 0.020904868536767325
0.5885657931150977 0.2691103412937128 0.020904868536767325
0.5352161936340472 0.4508702049974713 0.021561075172450605
0.6324378939007799 0.3230130292248393 0.021561075172450605
0.5442999683480056 0.2419246378154055 0.021561075172450605
0.4790917775221073 0.27799725401696634 0.021561075172450605
0.31010919445315305 0.3269127715168999 0.021561075172450605
0.30405334464384737 0.41880982365408825 0.021561075172450605
0.6079801351508131 0.30877334523051214 0.022029794197938667
0.6218354695442401 0.29288377026646706 0.022779744638719575
0.6016336795457048 0.39791432949783073 0.022779744638719575
0.488522404314927 0.416344361580021 0.022779744638719575
0.5451999088769427 0.45830408874171197 0.023435951274402858
0.622266691047689 0.3880993531041108 0.023435951274402858
0.5534868612475714 0.25994219715516637 0.023435951274402858
0.44338476216042705 0.2872778907216298 0.023435951274402858
0.44394722499101275 0.3869650530624297 0.023435951274402858
0.3114122333440098 0.3032893326323019 0.023435951274402858
0.6009024778659434 0.39306777477428423 0.02390467029989089
0.2952695501062012 0.3916522433173102 0.024654620740671797
0.3982658687669467 0.29525548853543665 0.024654620740671797
0.6452058001550744 0.3151947958796985 0.024654620740671797
0.33811046903580966 0.2928556471249378 0.025310827376355077
0.44409721507916894 0.37291285667829777 0.025310827376355077
0.4790824031415975 0.28153139546914624 0.025310827376355077
0.6080270070533618 0.41300708211854614 0.025310827376355077
0.6464150952408336 0.3614104917928208 0.025310827376355077
0.6406404768468209 0.3329873700872251 0.025310827376355077
0.5834661301177876 0.4444300055872655 0.02577954640184314
0.65755185928643 0.32992194766053323 0.026529496842624015
0.3530626059488786 0.27849409618398363 0.026529496842624015
0.3110841300261682 0.41333518543638775 0.027185703478307295
0.3360574797041719 0.2931462529207403 0.027185703478307295
0.43750702558080684 0.3212787688305335 0.027185703478307295
0.4312074418782474 0.43160585304991217 0.027185703478307295
0.6127516948302814 0.30924206425600015 0.027185703478307295
0.6145234527466263 0.4009047568804445 0.027185703478307295
0.6033398167984813 0.4206846997560405 0.027185703478307295
0.5797632498164321 0.45028899340586614 0.02765442250379536
0.6325597608474066 0.3063547550589938 0.028404372944576234
0.500212256810599 0.35461406592324407 0.028404372944576234
0.297988120454032 0.3007863730361956 0.028404372944576234
0.6056740375454117 0.4070730992558674 0.029060579580259517
0.5633112120218011 0.4376242053371789 0.029060579580259517
0.6207480414051076 0.33061565181825553 0.029060579580259517
0.4402724678311864 0.42700303221961944 0.029060579580259517
0.31090601679648283 0.31661032733667244 0.029060579580259517
0.31133723829993176 0.40767305960849204 0.029060579580259517
0.5934404709801734 0.272597610843344 0.02952929860574758
0.5898313344839154 0.2652105990016521 0.030279249046528452
0.307446870388381 0.3482769846986455 0.030279249046528452
0.5434843972436565 0.2510365356708933 0.030935455682211736
0.6296724516504002 0.3360902900359561 0.030935455682211736
0.5603207846391874 0.25193647619983034 0.030935455682211736
0.47709503447352825 0.2970178720712716 0.030935455682211736
0.48246655450562115 0.430555922432819 0.030935455682211736
0.30759686047653706 0.28721227005806155 0.030935455682211736
0.595812189249143 0.44104585422324166 0.0314041747076998
0.5989901042419521 0.2681822776232464 0.032154125148480706
0.30260031566483436 0.3629103926743827 0.032154125148480706
0.44519401759881094 0.4384116532999987 0.032154125148480706
0.5429031856520512 0.4582665912196729 0.03281033178416399
0.5396409012346545 0.24124968241870268 0.03281033178416399
0.47595136005133726 0.2947492719879095 0.03281033178416399
0.4425598166755681 0.4301059521683504 0.03281033178416399
0.3109341399380121 0.41347580114403415 0.03281033178416399
0.59828702570372 0.43629304330479274 0.03327905080965202
0.6178982297301402 0.2911307611111416 0.03402900125043293
0.38591980963559136 0.4039983024486657 0.03402900125043293
0.28715133658474806 0.3916522433173102 0.03402900125043293
0.5891282559456834 0.2855155071857948 0.03468520788611621
0.6010337191930799 0.4176942723734267 0.03468520788611621
0.4757076261580834 0.29153385947306143 0.03468520788611621
0.48344149007863646 0.29153385947306143 0.03468520788611621
0.30372524132600576 0.2904558057144389 0.03468520788611621
0.3036971181844765 0.399667338653156 0.03468520788611621
0.6452058001550744 0.3151947958796985 0.03590387735238514
0.5093897753296552 0.4039983024486657 0.03590387735238514
0.3219959089395302 0.37238789136975115 0.03590387735238514
0.6408185900765061 0.3643540472728859 0.036560083988068426
0.5960371743813774 0.42642182062801426 0.036560083988068426
0.44237232906537294 0.286762299793593 0.036560083988068426
0.46872371267831153 0.29481489265147776 0.036560083988068426
0.3367230607203649 0.2847936798865432 0.036560083988068426
0.3008379321289993 0.3992173683886875 0.036560083988068426
0.6205136818923636 0.2805377111351116 0.0377787534543374
0.35277200015307597 0.4309965183167777 0.0377787534543374
0.2967225790852142 0.30216440697113056 0.0377787534543374
0.602721107684837 0.4201878575890232 0.03843496009002068
0.5545742893867038 0.25073655549458096 0.03843496009002068
0.47336403103064306 0.4210409262154114 0.03843496009002068
0.31589318722767573 0.2953492323405342 0.03843496009002068
0.3397697343860373 0.41702869135723364 0.03843496009002068
0.638006275923578 0.3916522433173102 0.03965362955628959
0.5093897753296552 0.3669601250545994 0.03965362955628959
0.3329733085164605 0.4323745522517126 0.03965362955628959
0.6244321729454437 0.3220099705102949 0.04030983619197286
0.591846826293514 0.274791215882628 0.04030983619197286
0.46675509277126165 0.2855530047078338 0.04030983619197286
0.48051668335959086 0.27741604242536116 0.04030983619197286
0.3200460377934999 0.3011051019735275 0.04030983619197286
0.6238415869733289 0.2983209109621285 0.04077855521746096
0.632859741023719 0.4069699810702599 0.041528505658241836
0.4271108375954818 0.29288377026646706 0.041528505658241836
0.5793039051714538 0.2752130630055673 0.04218471229392512
0.6279850631586431 0.32010697126681337 0.04218471229392512
0.44885002599761775 0.3590200247628318 0.04218471229392512
0.4444628159190496 0.2793096672883329 0.04218471229392512
0.3352512829803324 0.28538426585865806 0.04218471229392512
0.6452058001550744 0.3916522433173102 0.04265343131941315
0.5093897753296552 0.44104585422324166 0.043403381760194024
0.42295798702965753 0.3052298293978224 0.043403381760194024
0.44481904237842057 0.426356199964446 0.04405958839587731
0.5844035681687636 0.4274717512451076 0.04405958839587731
0.5764447191159765 0.2853186451950898 0.04405958839587731
0.4674487969289838 0.2928181496028987 0.04405958839587731
0.33560750943970336 0.4164943516681773 0.04405958839587731
0.6335346964204218 0.30651411952765967 0.04527825786214627
0.3982658687669467 0.4148632094594789 0.04527825786214627
0.32418951397881435 0.35461406592324407 0.04527825786214627
0.5944247809336984 0.2885340577099378 0.04593446449782956
0.620063711627895 0.39248656318267905 0.04593446449782956
0.6091800558560623 0.2908870272178879 0.04593446449782956
0.3178993046567646 0.2937368388928553 0.04593446449782956
0.3106060366201704 0.4048513710750539 0.04593446449782956
0.32418951397881435 0.34226800679188873 0.04715313396409853
0.5093897753296552 0.4039983024486657 0.04715313396409853
0.6507929309388921 0.33309048827283244 0.04715313396409853
0.6061521309514096 0.4070543504948478 0.047809340599781806
0.5858472227672671 0.27301945796628324 0.047809340599781806
0.4435160034875638 0.4306590406184263 0.047809340599781806
0.3194367030603654 0.2935306025216405 0.047809340599781806
0.33753863182471416 0.42099405431286263 0.047809340599781806
0.6522740830594344 0.37930618418595485 0.04902801006605071
0.5093897753296552 0.29288377026646706 0.04902801006605071
0.2966382096606263 0.32625656488121657 0.04902801006605071
0.6143828370389798 0.4019546874975377 0.049684216701733994
0.6377062957472655 0.351867372433884 0.049684216701733994
0.48744435055630436 0.41173216636921867 0.049684216701733994
0.3102591845413093 0.3050704649291565 0.049684216701733994
0.3027878032750297 0.40630440005406687 0.049684216701733994
0.42295798702965753 0.29525548853543665 0.05090288616800297
0.28715133658474806 0.44104585422324166 0.05090288616800297
0.6145984477907043 0.4010828701101299 0.05155909280368625
0.6543176980105622 0.35649831640570595 0.05155909280368625
0.4817072296843306 0.4322339365440662 0.05155909280368625
0.30690315631881476 0.2903433131483218 0.05155909280368625
0.3185648856729576 0.4078511728381775 0.05155909280368625
0.3982658687669467 0.4434175724922112 0.052777762269955154
0.6480368630690223 0.3618135901547406 0.05343396890563843
0.6082613665661059 0.41259460937611664 0.05343396890563843
0.4681799986087452 0.41669121365888223 0.05343396890563843
0.33938538478513713 0.2918244652688641 0.05343396890563843
0.3068469100357562 0.41880982365408825 0.05343396890563843
0.30589072322376054 0.44104585422324166 0.054652638371907404
0.629719323552949 0.3809092032531241 0.05530884500759069
0.6302161657199663 0.33435602964165023 0.05530884500759069
0.48506325790682514 0.4176942723734267 0.05530884500759069
0.3107185291862875 0.3002145358251002 0.05530884500759069
0.3179836740813524 0.4067262471770062 0.05530884500759069
0.6368532271208771 0.33509660570192146 0.05718372110954294
0.48440705127114164 0.4094260687638173 0.05718372110954294
0.47344840045523107 0.2773410473812831 0.05718372110954294
0.3048314182261575 0.4053294644810517 0.05718372110954294
0.33043285139831524 0.42985284389458683 0.057624316993501686
0.42787016241677234 0.255836218491891 0.057624316993501686
0.6269913788246085 0.3922897011919741 0.059058597211495124
0.4457939779514357 0.430434055486192 0.059058597211495124
0.30670629432810975 0.29015582553812647 0.059058597211495124
0.3475223470676097 0.4101291473020494 0.059058597211495124
0.4920377970060874 0.39997669320997814 0.060586621234586226
0.6495648870921135 0.3641478109016711 0.06093347331344738
0.48550385379078387 0.4176942723734267 0.06093347331344738
0.3107466523278168 0.2989396200757728 0.06093347331344738
0.30020047425433555 0.39793307825885016 0.06093347331344738
0.4744139616477365 0.4094260687638173 0.06280834941539956
0.44608458374723836 0.27868158379417896 0.06280834941539956
0.3102123126387604 0.40780430093562875 0.06280834941539956
0.44996557727827935 0.4366867672862027 0.0635582998561805
0.5019558915854146 0.3175758885291779 0.0635582998561805
0.44432220021140323 0.4333213646831985 0.06468322551735181
0.3429570237593561 0.2851780294874434 0.06468322551735181
0.3359918590406035 0.4251281561176673 0.06468322551735181
0.5093897753296552 0.37930618418595485 0.06655810161930407
0.44668454409986297 0.42326265439622474 0.06655810161930407
0.4887755125886904 0.2933056173894062 0.06655810161930407
0.3100435737895848 0.4159037656960623 0.06655810161930407
0.47485455753169525 0.4094260687638173 0.06843297772125626
0.44497840684708645 0.27766915069912473 0.06843297772125626
0.318902363371309 0.4162131202528844 0.06843297772125626
0.34998780914167693 0.2751286935809794 0.06949228271885925
0.42295798702965753 0.4039983024486657 0.06949228271885925
0.4826259189742871 0.2801252383926821 0.0703078538232085
0.33633871111946473 0.2817563806013805 0.0703078538232085
0.4771700295176061 0.4252031511617454 0.0721827299251607
0.4424285753484315 0.28043459294950424 0.0721827299251607
0.3030971578318518 0.28774660974711797 0.0721827299251607
0.2968444460318411 0.2953398579600245 0.07246396134045353
0.2940415062594225 0.4116477969446308 0.07246396134045353
0.43395413536760735 0.4329932613653569 0.07405760602711295
0.3391135277503541 0.2860217237333219 0.07405760602711295
0.34770046029729523 0.4105416200444789 0.07405760602711295
0.5093897753296552 0.2805377111351116 0.07543563996204782
0.44166925052714084 0.42983409513356735 0.0759324821290652
0.47181725824653253 0.30342994833994835 0.0759324821290652
0.33529815488288117 0.4173192971530362 0.0759324821290652
0.44600958870316015 0.4273030123959319 0.07780735823101738
0.3101279432141727 0.29961457547247544 0.07780735823101738
0.30338776362765435 0.4052638438174835 0.07780735823101738
0.5093897753296552 0.2681822776232464 0.07839794420313236
0.3982658687669467 0.4039983024486657 0.07839794420313236
0.4457189829073577 0.28188762192851724 0.07968223433296964
0.33542002182950814 0.28438120714411363 0.07968223433296964
0.29660071213858724 0.29288377026646706 0.08136962282472664
0.5093897753296552 0.3916522433173102 0.08136962282472664
0.4421004720305898 0.4283248198714958 0.08155711043492182
0.31124349449483424 0.29286502150544746 0.08155711043492182
0.3042408322540427 0.4049169917386223 0.08155711043492182
0.49009730024056664 0.41173216636921867 0.08343198653687407
0.3368261789059724 0.29162760327815906 0.08343198653687407
0.34027595093356444 0.423290777537754 0.08343198653687407
0.33542939621001794 0.2755411663234089 0.08434130144632092
0.4906503886906428 0.4533919133545971 0.08434130144632092
0.47451707983334385 0.2894246238583652 0.08530686263882632
0.2995630163796718 0.31460420990758353 0.08530686263882632
0.28715133658474806 0.2681822776232464 0.08718173874077852
0.3612276913728805 0.4039983024486657 0.08718173874077852
0.49039728041687913 0.4057981835065398 0.08718173874077852
0.3168118765176323 0.29270565703678153 0.08718173874077852
0.3042033347320036 0.40322960324686535 0.08718173874077852
0.43055123524256406 0.41827548396503184 0.08905661484273077
0.3426570435830438 0.2845499459932893 0.08905661484273077
0.3022815867275026 0.4204503402432964 0.08905661484273077
0.4855601000738424 0.2699071636370425 0.09027528430899967
0.43214487992922346 0.42970285380643075 0.09093149094468296
0.4298294079433125 0.29368059260979673 0.09093149094468296
0.31831177739919403 0.4167662087029603 0.09093149094468296
0.3205710031020465 0.3835152810348376 0.09215016041095192
0.2963194807232944 0.4100354034969519 0.09215016041095192
0.44101304389145746 0.4312496265905413 0.09280636704663521
0.3089936431724915 0.30800464602871175 0.09280636704663521
0.31337147887054995 0.3941927004354555 0.09280636704663521
0.4189363777909701 0.2805377111351116 0.09402503651290418
0.38591980963559136 0.4039983024486657 0.09402503651290418
0.4845382925982784 0.4176942723734267 0.09468124314858746
0.30930299772931363 0.2926306619927035 0.09468124314858746
0.3454787321164818 0.41913792697192986 0.09468124314858746
0.28715133658474806 0.416344361580021 0.09589991261485636
0.40764024927670783 0.29585544888806126 0.09589991261485636
0.28715133658474806 0.44104585422324166 0.09589991261485636
0.42452350857478766 0.4330588820289251 0.09655611925053964
0.3094904853395088 0.3014800771939179 0.09655611925053964
0.31689624594222016 0.32150375396276776 0.09655611925053964
0.30157850818927046 0.4013828502864424 0.09655611925053964
0.41388358669620884 0.4333588622052376 0.09777478871680861
0.42295798702965753 0.2703290107599817 0.09777478871680861
0.28715133658474806 0.40848863071284125 0.09777478871680861
0.43519155359489586 0.42472505775574754 0.0984309953524919
0.48116351561476456 0.28313441453631544 0.0984309953524919
0.3510283653782605 0.29073703712973176 0.0984309953524919
0.3484222875965468 0.4210596749764309 0.0984309953524919
0.37046145617499526 0.2805377111351116 0.09889971437797992
0.42041752991151227 0.4387491309983501 0.09889971437797992
0.2977537609412879 0.3669601250545994 0.09964966481876081
0.3982658687669467 0.4434175724922112 0.09964966481876081
0.42592966565125184 0.2652105990016521 0.09964966481876081
0.43521967673642514 0.43375258618664747 0.10030587145444408
0.43611024288485245 0.277697273840654 0.10030587145444408
0.2991692923982618 0.3109013296062279 0.10030587145444408
0.3002754692984137 0.3985049154699457 0.10030587145444408
0.3122934251119274 0.33386856185514274 0.10077459047993217
0.4723515979355891 0.3175758885291779 0.10152454092071306
0.5093897753296552 0.3916522433173102 0.10152454092071306
0.36561490145144876 0.2734225563282029 0.10152454092071306
0.32418951397881435 0.37930618418595485 0.10152454092071306
0.4338228940404707 0.4337150886646085 0.10218074755639633
0.4738889963391898 0.30342994833994835 0.10218074755639633
0.3019253602681317 0.2888621610277795 0.10218074755639633
0.30270343385044185 0.4228501816537953 0.10218074755639633
0.32256774615062567 0.37930618418595485 0.10264946658188437
0.4976905484534732 0.3052298293978224 0.10339941702266531
0.4903222853728009 0.2705633702727258 0.10339941702266531
0.3753080108985417 0.4039983024486657 0.10339941702266531
0.3219959089395302 0.3637915844423002 0.10339941702266531
0.4320792592656551 0.4281935785443592 0.10405562365834858
0.4895535861710006 0.29290251902748654 0.10405562365834858
0.30409084216588644 0.3153916578704035 0.10405562365834858
0.31817116169154763 0.41332581105587807 0.10405562365834858
0.3219959089395302 0.37119734504501156 0.10452434268383662
0.42295798702965753 0.3052298293978224 0.10452434268383662
0.37060207188264166 0.3052298293978224 0.10527429312461749
0.4669894522840057 0.43872100785682083 0.10527429312461749
0.28715133658474806 0.42869042071137653 0.10527429312461749
0.4128336560791155 0.43264640928649567 0.10593049976030078
0.3094998597200186 0.3268846483753706 0.10593049976030078
0.301831616463034 0.28878716598370135 0.10593049976030078
0.3166525120489664 0.40798241416531417 0.10593049976030078
0.3753080108985417 0.4078980447407263 0.10639921878578887
0.3753080108985417 0.3052298293978224 0.10714916922656975
0.389857049449691 0.416344361580021 0.10714916922656975
0.28715133658474806 0.2805377111351116 0.10714916922656975
0.48839116298779023 0.4094260687638173 0.10780537586225303
0.43144180139099136 0.27830660857378847 0.10780537586225303
0.3171493542159837 0.29594919269315895 0.10780537586225303
0.3526032613039003 0.4203659708187086 0.10780537586225303
0.3810451317705156 0.29789906383918924 0.10827409488774106
0.38501049472614457 0.4346337779545651 0.10827409488774106
0.4970437161982998 0.42869042071137653 0.10902404532852193
0.42296736141016733 0.422822058512266 0.10968025196420521
0.482044707382682 0.28278756245745423 0.10968025196420521
0.3555468167839653 0.28832782133872314 0.10968025196420521
0.30891864812841346 0.4153788003875157 0.10968025196420521
0.28715133658474806 0.3052298293978224 0.11089892143047418
0.46654885640004695 0.2703852570430403 0.11089892143047418
0.49230965404087046 0.4057981835065398 0.11155512806615747
0.37775472421158945 0.2855436303273241 0.11155512806615747
0.3596809185887699 0.42268144280461956 0.11155512806615747
0.3863510311390404 0.43132462163461943 0.11155512806615747
0.5093897753296552 0.35461406592324407 0.11277379753242643
0.42591091689023236 0.2858904824061852 0.11343000416810972
0.3590715838556354 0.28438120714411363 0.11343000416810972
0.3169431178447689 0.40937919686126856 0.11343000416810972
0.3035752512378495 0.4298809670361161 0.11464867363437863
0.474235848418051 0.425999973505075 0.1153048802700619
0.3103716771074264 0.41208839282858956 0.1153048802700619
0.4749201781952634 0.2931462529207403 0.1153048802700619
0.5093897753296552 0.4039983024486657 0.11652354973633088
0.41827079677477697 0.4230376692639906 0.11717975637201415
0.30760623485704686 0.33172182871840744 0.11717975637201415
0.4182426736332477 0.27598176220736764 0.11717975637201415
0.4970437161982998 0.35461406592324407 0.11839842583828306
0.28715133658474806 0.3052298293978224 0.11839842583828306
0.3102498101607995 0.2919369578349811 0.11905463247396635
0.48927235475570774 0.41173216636921867 0.11905463247396635
0.49925606999860334 0.3052298293978224 0.12027330194023532
0.29517580630110357 0.38506205381894826 0.12027330194023532
0.3130714986942376 0.29188071155192263 0.1209295085759186
0.371098914049659 0.2835187641372156 0.1209295085759186
0.4902285415677034 0.4176942723734267 0.1209295085759186
0.4267358623750913 0.27083522730750886 0.12214817804218757
0.48301026857518753 0.28768098908354955 0.12280438467787085
0.378710911023585 0.42403135359802524 0.12280438467787085
0.2985787064261468 0.3466833400119861 0.12280438467787085
0.3033315173445958 0.4301153265488602 0.12402305414413975
0.29184790122013843 0.3693599664650982 0.12402305414413975
0.31142160772451966 0.294646153802302 0.12467926077982304
0.48972232502017626 0.4094260687638173 0.12467926077982304
0.3166431376684566 0.2995677035699267 0.12467926077982304
0.29930053372539855 0.2805377111351116 0.125897930246092
0.4116618585153954 0.43684613175486875 0.125897930246092
0.4890192464819443 0.4135132986660732 0.12655413688177528
0.4819509635775842 0.3916522433173102 0.1277728063480442
0.4934814516045906 0.2705633702727258 0.1277728063480442
0.2953726682918085 0.3440303903277237 0.1277728063480442
0.47387962195868 0.4226064477605415 0.12842901298372747
0.48679751830113094 0.39731436914520607 0.12889773200921556
0.28715133658474806 0.42869042071137653 0.12964768244999644
0.4723515979355891 0.3133011710167268 0.12964768244999644
0.47541702036228095 0.4264593181500534 0.13030388908567972
0.48382583967953663 0.2821782277243198 0.13217876518763197
0.4903129109922914 0.4101947679656178 0.13217876518763197
0.3783546845642141 0.27474434398007924 0.13252561726649312
0.2952695501062012 0.35461406592324407 0.13252561726649312
0.317177477357513 0.4178348880810731 0.13405364128958416
0.4912878465653064 0.4315777299083829 0.13405364128958416
0.3136808334273721 0.29683975884158625 0.1359285173915364
0.48371334711341946 0.4104853737614203 0.1359285173915364
0.3135683408612549 0.4123696242438824 0.1378033934934886
0.4872099910435603 0.41143218619290634 0.1378033934934886
0.3219959089395302 0.43267453242802495 0.1382721125189767
0.31724309802108125 0.29502112902269256 0.13967826959544086
0.3068469100357562 0.4146944706103032 0.13967826959544086
0.4921784127137337 0.4164943516681773 0.13967826959544086
0.5093897753296552 0.44104585422324166 0.1401469886209289
0.4814822445520963 0.4241907180666911 0.1415531456973931
0.3185930088144869 0.2904651800949486 0.1415531456973931
0.33653557311016974 0.43391195065531346 0.14202186472288114
0.3219959089395302 0.27483808778517677 0.14202186472288114
0.32691745870715483 0.28813095934801813 0.1434280217993453
0.35255638940135153 0.2888715354082892 0.1434280217993453
0.30726875715869545 0.2930243859741135 0.1434280217993453
0.5093897753296552 0.3916522433173102 0.1438967408248334
0.3172993443041398 0.2985083985723237 0.14530289790129755
0.36529617251411683 0.4212190394450969 0.14530289790129755
0.30248782309871725 0.2754380481378016 0.14530289790129755
0.30576885627713374 0.4197472617050643 0.14530289790129755
0.38591980963559136 0.43750233839055197 0.14577161692678559
0.3672554180406569 0.42153776838242873 0.14717777400324975
0.4819228404360551 0.2848686749306213 0.14717777400324975
0.30007860730770874 0.2755880382259577 0.14717777400324975
0.36561490145144876 0.44104585422324166 0.14764649302873784
0.39955015889678397 0.2681822776232464 0.14764649302873784
0.38075452597471293 0.42473443213625733 0.149052650105202
0.3985845977042786 0.2859186055477145 0.149052650105202
0.3010629172612335 0.3893273969508895 0.149052650105202
0.4572119734123248 0.2689603512055566 0.14952136913069003
0.3169524922252787 0.2947492719879095 0.15092752620715424
0.30827181587323993 0.4106728613716156 0.15092752620715424
0.4911472308576601 0.4347743936622115 0.15092752620715424
0.37130515042087375 0.42718114544930497 0.15092752620715424
0.462977217425828 0.2652105990016521 0.15139624523264228
0.3082155695901813 0.4107197332741644 0.1528024023091064
0.48235406193950403 0.2846718129399163 0.1528024023091064
0.4896567043566079 0.2740693885833764 0.1528024023091064
0.4106119278983022 0.255836218491891 0.15327112133459453
0.4334760419616095 0.4533919133545971 0.15327112133459453
0.44498778122759625 0.2815595186106755 0.1546772784110587
0.4573057172174223 0.282525079803181 0.1546772784110587
0.36869907263916013 0.2852061526289727 0.1546772784110587
0.5093897753296552 0.255836218491891 0.1551459974365467
0.4219549283151131 0.27597238782685796 0.15655215451301085
0.304381447961689 0.386758816691215 0.15655215451301085
0.43716017350194564 0.2797502631722916 0.15655215451301085
0.4865819075494062 0.28039709542746516 0.1584270306149631
0.36049648969311915 0.28485930055011144 0.1584270306149631
0.31950232372393383 0.32342550196726877 0.1584270306149631
0.42352982424075303 0.4308746513701509 0.1584270306149631
0.4441159638401884 0.2777441457432028 0.1584270306149631
0.34096965509128674 0.332481153539698 0.16030190671691538
0.2936571566585223 0.2855436303273241 0.16030190671691538
0.3109716374600511 0.4203190989161598 0.16030190671691538
0.37738912337170877 0.2876528659420203 0.16030190671691538
0.4862350554705453 0.2776597763186149 0.16030190671691538
0.5093897753296552 0.4533919133545971 0.1607706257424034
0.31623066492602714 0.3390713430380601 0.16217678281886755
0.48344149007863646 0.4367055160472223 0.16217678281886755
0.3182461567356258 0.31468857933217137 0.16217678281886755
0.47528577903514424 0.41743178971915335 0.16217678281886755
0.4788761667703828 0.35657331144978416 0.16217678281886755
0.46442087202433113 0.28005961772911375 0.16217678281886755
0.33276707214524576 0.3386963678176697 0.1640516589208198
0.30011610482974765 0.275184939864038 0.1640516589208198
0.31599630541328305 0.3787718444968985 0.1640516589208198
0.47780748739227 0.2853186451950898 0.1640516589208198
0.35175019267751206 0.362076072809014 0.165926535022772
0.4974936864627683 0.27231637942805115 0.165926535022772
0.40049697132826984 0.42916851411737433 0.165926535022772
0.48790369520128274 0.27777226888473205 0.165926535022772
0.3042127091125134 0.348689457441075 0.165926535022772
0.3531469753734665 0.3527860617238407 0.16780141112472424
0.4980467749128442 0.4330588820289251 0.16780141112472424
0.30101604535868476 0.35087368809984937 0.16780141112472424
0.306659422425561 0.4242000924472009 0.16780141112472424
0.35984028305743593 0.3550827849487321 0.16780141112472424
0.33996659637674226 0.3731284674300222 0.1696762872266765
0.29874744527532254 0.2803689722859359 0.1696762872266765
0.37778284735311873 0.428315445490986 0.1696762872266765
0.35552806802294573 0.28222509962686865 0.1696762872266765
0.31869612700009425 0.28439058152462343 0.1696762872266765
0.3495097157356791 0.3431304497987867 0.1715511633286287
0.3114778540075782 0.4288779083215717 0.1715511633286287
0.3417946005761458 0.32579722023623836 0.1715511633286287
0.3980408836347126 0.3361934082215634 0.1715511633286287
0.43602587346026456 0.3977549650291648 0.1715511633286287
0.3485160314016445 0.3604168074587862 0.17342603943058094
0.3305734671059617 0.37759067255266854 0.17342603943058094
0.337154282223814 0.4207221972780796 0.17342603943058094
0.4216268249972715 0.33544345778078255 0.17342603943058094
0.33721990288738224 0.30051451600141255 0.17342603943058094
0.3478504503854513 0.3739065410123325 0.17530091553253313
0.3466036577776532 0.4335182266739035 0.17530091553253313
0.3842511699048539 0.4291966372589036 0.17530091553253313
0.3808951416823594 0.29162760327815906 0.17530091553253313
0.4193582249139092 0.37984989825552096 0.17530091553253313
0.3122934251119274 0.37598765348549945 0.1765195849988021
0.44445344153853983 0.43218706464151746 0.17717579163448538
0.46053987849328987 0.29561171499480754 0.17717579163448538
0.40023448867399664 0.4037639429359216 0.17717579163448538
0.3108122729913852 0.34587714328814667 0.17717579163448538
0.33801672523071197 0.3247379152386354 0.17839446110075435
0.45300287656344207 0.27654422503795334 0.17905066773643763
0.49017229528464484 0.4009047568804445 0.17905066773643763
0.3956222934631941 0.4084323844297827 0.17905066773643763
