0.6599941860161298 -0.047366935671162264 -0.17271337079649857
0.4895366633279938 -0.053135797239943265 -0.17271337079649857
0.4962337123996948 0.40102987270146156 -0.17271337079649857
0.6667617303412172 0.1546019652806615 -0.17118597363979482
0.7441420201416077 -0.24773794421289602 -0.17118597363979482
0.525066271034702 0.015326843007076915 -0.17118597363979482
0.6667617303412172 -0.2876382576295565 -0.17118597363979482
0.6591599921843917 -0.40972428728577537 -0.17036352901695434
0.6202231138973444 0.009745968780659512 -0.17036352901695434
0.5028955138447025 0.02610086756628708 -0.17036352901695434
0.6329827547602693 0.3957662271152825 -0.17036352901695434
0.6083564129106461 0.046274259243674 -0.16883613186025062
0.4191706512395427 -0.29417081777668935 -0.16883613186025062
0.46559177559443843 -0.1394219873848063 -0.16883613186025062
0.6537906037181332 -0.39096080067611483 -0.16801368723741014
0.5042466728679404 -0.39544899847504433 -0.16801368723741014
0.6322543038086107 -0.022153133376653013 -0.16801368723741014
0.4919452511520266 0.02175366027413026 -0.16801368723741014
0.6447319636579903 0.3975638560766337 -0.16801368723741014
0.4810654837127369 0.13912825716236304 -0.16648629008070642
0.40369694312124427 0.09269538359856955 -0.16648629008070642
0.728668312023309 -0.12394827926650767 -0.16648629008070642
0.5295074719980406 -0.3870130664864806 -0.16648629008070642
0.5203430890578182 -0.2881317244032608 -0.16566384545786594
0.6211395521913666 -0.03256293246003376 -0.16566384545786594
0.4876920375310516 0.01643126864346262 -0.16566384545786594
0.6529564098863951 0.3135570124579289 -0.16566384545786594
0.5466965646154065 0.30748267145780717 -0.16413644830116225
0.665633806287036 -0.28659257803765936 -0.16413644830116225
0.5466965646154065 -0.2749608612289155 -0.16413644830116225
0.5274983572765304 -0.0812516541321896 -0.16413644830116225
0.728668312023309 -0.3560656502498835 -0.16413644830116225
0.618002513415675 -0.29101028058320233 -0.16331400367832177
0.49154577804950417 -0.39810431968592924 -0.16331400367832177
0.5096395597519944 -0.05925713507565591 -0.16331400367832177
0.6441210047953088 0.022352869927914056 -0.16331400367832177
0.4922742290011628 0.32316786533626446 -0.16331400367832177
0.5010156404210673 0.10174227444981483 -0.16272654323343572
0.48886695842082367 -0.27545432800261976 -0.16178660652161805
0.6667617303412172 -0.34059194213158506 -0.16178660652161805
0.46877581120572087 0.09269538359856955 -0.16178660652161805
0.43464435935784135 -0.4315778158355364 -0.16178660652161805
0.5856686905291469 0.10631271671102825 -0.16178660652161805
0.5856686905291469 0.40219304438233583 -0.16178660652161805
0.6269671598046362 -0.4006069011811438 -0.16096416189877757
0.5082414038931656 0.02108395536696014 -0.16096416189877757
0.6558584644841322 -0.01110887701279531 -0.16096416189877757
0.6320663164662471 0.33738440810250697 -0.16096416189877757
0.49306142599731007 0.3914660166587168 -0.16096416189877757
0.5274983572765304 -0.08151013672793953 -0.16037670145389152
0.5274983572765304 0.41585737433038544 -0.15943676474207383
0.4773879813277504 -0.08276730207999566 -0.15943676474207383
0.7441420201416077 0.06174796736197247 -0.15943676474207383
0.38822323500294564 -0.10847457114820921 -0.15943676474207383
0.6639654186235596 -0.031094281347818633 -0.15943676474207383
0.529530970415836 -0.4334341908413762 -0.15943676474207383
0.480184293045408 -0.4160806092994424 -0.15861432011923335
0.5152321831873096 0.08424770240110822 -0.15861432011923335
0.629963208073555 0.021001710904676202 -0.15861432011923335
0.5230571563131918 0.3097502687750671 -0.15861432011923335
0.5360400321451735 -0.27187081928881496 -0.15802685967434732
0.5678451406313042 -0.015620573229520174 -0.15802685967434732
0.5192386634214325 -0.2632116523311945 -0.15708692296252963
0.6512880222229186 -0.18584311173970186 -0.15708692296252963
0.5860681636316696 0.12365454904406442 -0.15708692296252963
0.43464435935784135 -0.2322642360945974 -0.15708692296252963
0.6512880222229186 0.17007567339895996 -0.15708692296252963
0.5435830242575105 0.4105819795353086 -0.15708692296252963
0.49435383897605933 -0.3281495299088984 -0.15626447833968915
0.6542018260295535 -0.013646706134702973 -0.15626447833968915
0.623818371820047 0.3183271912704033 -0.15626447833968915
0.5313873454216759 -0.4259146971468349 -0.1556770178948031
0.5374616864217978 -0.09300086302991059 -0.1556770178948031
0.5313873454216759 0.29386533834534834 -0.1556770178948031
0.48180568387329337 -0.41861843842135005 -0.15391463656014498
0.5158196436321958 -0.03345587233626064 -0.15391463656014498
0.6173915545529937 0.013681953761395969 -0.15391463656014498
0.6441562524220019 0.39535500480386226 -0.15391463656014498
0.5197203809862391 0.36317392163300444 -0.15391463656014498
0.4501180674761398 -0.4024867746047792 -0.15344466820423613
0.6667617303412172 -0.031094281347818633 -0.15344466820423613
0.6174972974330731 -0.4034737081521877 -0.15156479478060078
0.483509319163463 -0.07802062168531626 -0.15156479478060078
0.5905211138039057 -3.935984980736959E-4 -0.15156479478060078
0.5285087892417344 0.03696888579667896 -0.15156479478060078
0.6525451875749747 0.4032974700187215 -0.15156479478060078
0.7131946039050105 -0.24773794421289602 -0.1498024134459426
0.4767065272116825 0.17007567339895996 -0.1498024134459426
0.518040244113865 -0.304463124771093 -0.14921495300105658
0.5001461989626359 0.3880704952872752 -0.14921495300105658
0.5286262813307115 -0.06012657653408724 -0.14921495300105658
0.5222347116903513 -0.3728435205558291 -0.14686511122151236
0.4962102139818993 -0.25887619424793545 -0.14686511122151236
0.524478810589816 -0.02719354399377534 -0.14686511122151236
0.49724414436489883 0.17291898195220867 -0.14686511122151236
0.5359695368917872 0.37831865190216696 -0.14686511122151236
0.728668312023309 0.10816909171686818 -0.14616015868764912
0.40369694312124427 -0.15675207050894469 -0.14616015868764912
0.5043289173302246 -0.2837375202755131 -0.14451526944196816
0.5535698518205732 0.3866840886373442 -0.14451526944196816
0.4983838176279777 0.012201553440283069 -0.14451526944196816
0.5401287568415803 -0.04901182491684321 -0.14451526944196816
0.6038212182761259 -0.28065922754431016 -0.14451526944196816
0.6387516163290504 -0.40198155862217716 -0.14451526944196816
0.38822323500294564 -1.4686511122154576E-4 -0.1439278089970821
0.7441420201416077 -0.031094281347818633 -0.1439278089970821
0.5069137432877231 -0.05167889533662592 -0.142165427662424
0.5004634276028744 -0.17270749619204984 -0.142165427662424
0.6312203734256112 -0.008289066877342332 -0.142165427662424
0.5865616304053737 0.011708086666578769 -0.142165427662424
0.637459203350301 0.21152688239011985 -0.142165427662424
0.5946450861270057 0.3847219707514248 -0.142165427662424
0.40369694312124427 -0.2322642360945974 -0.14063803050572027
0.6591717413932895 0.18554938151725858 -0.14063803050572027
0.6443324905554678 -0.2670536436407494 -0.1398155858828798
0.5017440913727259 -0.23279295049499488 -0.1398155858828798
0.38822323500294564 -1.4686511122154576E-4 -0.13828818872617607
0.7441420201416077 -0.031094281347818633 -0.13828818872617607
0.6470465578108414 -0.39840979911727 -0.1374657441033356
0.6342986661568141 -0.4120036338119331 -0.1374657441033356
0.6456484019520127 -0.07603500538160145 -0.1374657441033356
0.40369694312124427 -0.07751540570271435 -0.13593834694663184
0.728668312023309 0.046274259243674 -0.13593834694663184
0.4924857147613218 -0.33833609402322257 -0.13511590232379136
0.5014503611502829 -0.17611476677238883 -0.13511590232379136
0.6492671582925106 -0.22741181281983866 -0.13511590232379136
0.40369694312124427 -0.031094281347818633 -0.13358850516708765
0.7441420201416077 -1.4686511122154576E-4 -0.13358850516708765
0.6398677911743339 -0.006632428422763611 -0.13276606054424717
0.5104385059570394 0.3769322452522356 -0.13276606054424717
0.5085468833245065 -0.4155988917346359 -0.13276606054424717
0.43464435935784135 -0.2632116523311945 -0.13123866338754347
0.6667617303412172 0.20102308963555723 -0.13123866338754347
0.6544603086253034 -0.39138377219643283 -0.130416218764703
0.5083353975643474 0.3792585886139845 -0.130416218764703
0.40369694312124427 -0.18584311173970186 -0.12888882160799928
0.7131946039050105 0.12662709889518783 -0.12888882160799928
0.48050152168564647 -0.22253589112728456 -0.1280663769851588
0.5015913516570555 -0.344633669992401 -0.1280663769851588
0.4810654837127369 0.13912825716236304 -0.12653897982845508
0.728668312023309 -0.19833252079797928 -0.12653897982845508
0.49531727410567256 -0.017970415009064405 -0.1257165352056146
0.6229489303616157 0.37166859966605686 -0.1257165352056146
0.6199176344660037 -0.42098002940979207 -0.1257165352056146
0.43464435935784135 -0.21679052797629894 -0.12418913804891085
0.697720895786712 0.17007567339895996 -0.12418913804891085
0.48260463007833837 -0.03148200524144344 -0.12336669342607039
0.506373279678428 -0.01061541023909101 -0.12336669342607039
0.4810654837127369 0.18852193136838216 -0.12183929626936667
0.7441420201416077 -0.24773794421289602 -0.12183929626936667
0.6436275380216047 -0.003542386482662929 -0.12101685164652619
0.5681858676893381 -0.4187946765548159 -0.12101685164652619
0.6155351795471538 0.23288694416617642 -0.12101685164652619
0.38822323500294564 -0.09300086302991059 -0.11948945448982247
0.7131946039050105 0.06174796736197247 -0.11948945448982247
0.6414069375399353 -0.40878435057395757 -0.118667009866982
0.6172623132551186 0.3733369873295332 -0.118667009866982
0.6456484019520127 -0.39857428804183803 -0.118667009866982
0.4501180674761398 -0.3560656502498835 -0.11713961271027828
0.5011566309278399 -0.0014510272988686249 -0.11631716808743782
0.6280010901876356 0.034431056674771296 -0.11631716808743782
0.4982310779123074 -0.01651351310574689 -0.11631716808743782
0.6698165246546247 -0.10494980847889278 -0.11631716808743782
0.697720895786712 -0.46438160707797327 -0.1147897709307341
0.4938721214112528 -0.39144251824092136 -0.11396732630789362
0.484895725813394 -0.3992792405757013 -0.11396732630789362
0.6123158963091782 0.053723257684829114 -0.11396732630789362
0.40369694312124427 0.07722167548027109 -0.11243992915118986
0.7596157282599063 -0.12394827926650767 -0.11243992915118986
0.6207635775066395 0.04078737868843832 -0.1116174845283494
0.629328750793078 0.3810209699486427 -0.1116174845283494
0.5240440898606002 -0.42835853259756085 -0.1116174845283494
0.6198118915859242 0.04412415401539098 -0.1092676427488052
0.6542723212829398 0.014856874651168002 -0.1092676427488052
0.6149124714755745 0.06231192938906309 -0.1092676427488052
0.43464435935784135 -0.4315778158355364 -0.1089151664818736
0.46761263952484644 -0.08974633216524186 -0.10691780096926101
0.4783631656662612 -0.009898708496330113 -0.10691780096926101
0.6133028298565868 0.06392157100805088 -0.10691780096926101
0.38822323500294564 -1.4686511122154576E-4 -0.10539040381255729
0.7441420201416077 -0.031094281347818633 -0.10539040381255729
0.4740864536274907 -0.02697030902471858 -0.10456795918971683
0.5770682696160152 -0.42767707848149294 -0.10456795918971683
0.6511352825072483 -0.4114161733670471 -0.10221811741017263
0.6226199525124794 -0.4229538965046091 -0.10221811741017263
0.6767015610686892 -0.14725870971958605 -0.10221811741017263
0.43464435935784135 0.07722167548027109 -0.101865641143241
0.7596157282599063 -0.10847457114820921 -0.101865641143241
0.6241121020424901 0.060255817831961954 -0.0998682756306284
0.6292582555396917 0.05882241434643999 -0.0998682756306284
0.5210715400094769 -0.41900616231497484 -0.0998682756306284
0.4191706512395427 -0.1394219873848063 -0.09834087847392468
0.7441420201416077 0.09269538359856955 -0.09834087847392468
0.6256042515725005 -0.4249865096439148 -0.09751843385108422
0.526076702999906 0.1511359486558338 -0.09751843385108422
0.5144684846089578 -0.41249710058563743 -0.09751843385108422
0.6815539843434479 -0.25075749089961036 -0.09516859207154002
0.6153824398314833 -0.4368767090484085 -0.09516859207154002
0.6133850743188707 0.31870316595513054 -0.09516859207154002
0.43464435935784135 -0.20131681985800032 -0.09481611580460839
0.6667617303412172 0.13912825716236304 -0.09481611580460839
0.6841270610920488 -0.23777461506762865 -0.09281875029199584
0.4637823974241895 -0.0716877980894448 -0.09281875029199584
0.6688648387339093 -0.2555629173387782 -0.09281875029199584
0.697720895786712 -0.46438160707797327 -0.09129135313529212
0.4598581616523506 -0.15381476828451446 -0.09046890851245165
0.45067028029433287 -0.1545667176539685 -0.09046890851245165
0.5170885581931495 -0.438368858578419 -0.09046890851245165
0.46829409364091434 -0.26419858587860306 -0.08811906673290741
0.4591062122828964 -0.26493878603915955 -0.08811906673290741
0.6523219526059182 -0.4142594819202956 -0.08811906673290741
0.43464435935784135 0.13912825716236304 -0.08776659046597582
0.728668312023309 -0.18584311173970186 -0.08776659046597582
0.6927979772585668 -0.06858600694044634 -0.08576922495336323
0.701045921904767 -0.14945581178346 -0.08576922495336323
0.6761493482504962 -0.02013226944624504 -0.08576922495336323
0.624535073562808 0.10960249520239014 -0.08576922495336323
0.38822323500294564 -0.15489569550310475 -0.08424182779665951
0.697720895786712 0.10816909171686818 -0.08424182779665951
0.66571605074932 -0.42310663622027955 -0.08341938317381904
0.5117074205179933 0.14898584342755095 -0.08341938317381904
0.5238091056826459 0.2864515875308864 -0.08341938317381904
0.6277543568007834 0.06143073872173415 -0.08341938317381904
0.4754963586952173 -0.38865795573216155 -0.08106954139427484
0.4428923040040415 -0.06830402592690102 -0.08106954139427484
0.4996527321889316 -0.4181249716476457 -0.08106954139427484
0.6796388632931195 -0.02003827577506332 -0.08106954139427484
0.6264501946131366 0.32164046817956077 -0.08106954139427484
0.48867897107846026 -0.4489078989596748 -0.08071706512734321
0.728668312023309 -0.34059194213158506 -0.08071706512734321
0.5051866095797583 -0.43341069242358077 -0.07871969961473066
0.4396730207660659 -0.10377488758912075 -0.07871969961473066
0.5087466198757676 0.21368873682730047 -0.07871969961473066
0.5232216452377599 0.2017750390050113 -0.07871969961473066
0.6377646827816418 -0.42042781659159906 -0.07871969961473066
0.7131946039050105 -0.2786853604494931 -0.0771923024580269
0.40369694312124427 -0.062041697584415724 -0.0771923024580269
0.4587889836426579 -0.23799785003668542 -0.07636985783518643
0.6435570427682183 0.07325044287284146 -0.07636985783518643
0.5560724333157877 -0.1756447984164801 -0.07636985783518643
0.5250427726169067 -0.1997071782390127 -0.07636985783518643
0.6282360743655901 0.2875560131672721 -0.07636985783518643
0.5723568368480291 0.3373139128491206 -0.07636985783518643
0.571522643016291 0.1228791012568148 -0.07402001605564223
0.6455544082808308 -0.43514957534044346 -0.07402001605564223
0.5916960346936778 -0.2844894696449673 -0.07402001605564223
0.6327242721645194 0.06893848320737782 -0.07402001605564223
0.6397972959209476 0.2818811452696731 -0.07402001605564223
0.4810654837127369 0.18799321696798454 -0.07366753978871064
0.6762198435038825 -0.3962831923067825 -0.07167017427609805
0.49790210006317115 0.06500249822664118 -0.07167017427609805
0.6675959241729554 -0.42001659428017885 -0.07167017427609805
0.4893134283589372 -0.4211680167521555 -0.07167017427609805
0.6353325965398136 0.2016810453338294 -0.07167017427609805
0.40369694312124427 -0.19946044485216055 -0.07014277711939433
0.6103655276321565 0.2181886838351274 -0.07014277711939433
0.6495256408882606 -0.4593529456697487 -0.07014277711939433
0.6702629945927381 0.03728611443691744 -0.06932033249655385
0.45164546463284366 -0.2984710282332552 -0.06932033249655385
0.4764245461981372 -0.41649183161086256 -0.06932033249655385
0.632454040359872 -0.22393404698611336 -0.06932033249655385
0.4191706512395427 -0.37153935836818214 -0.06826290369575896
0.5921425046317912 0.2629179221087514 -0.06826290369575896
0.6885095160108987 -0.4334341908413762 -0.06826290369575896
0.6725658395366914 0.03699238421447435 -0.06697049071700967
0.4492603752266063 -0.28491244116528525 -0.06697049071700967
0.6238066226111492 0.08382473088079026 -0.06697049071700967
0.5065730162296893 0.060126576534087074 -0.06697049071700967
0.6287647887659876 0.3123703423592591 -0.06697049071700967
0.4810654837127369 0.20102308963555723 -0.0654430935603059
0.7131946039050105 -0.4489078989596748 -0.0654430935603059
0.507383711643632 0.08018247612249672 -0.06462064893746544
0.5025077899510777 -0.44020173516646355 -0.06462064893746544
0.7032312747597431 -0.07762114858279384 -0.06462064893746544
0.6983671022760867 -0.12413626660887127 -0.06462064893746544
0.4191706512395427 -0.309644525894988 -0.06309325178076172
0.7131946039050105 0.0908390085927298 -0.06309325178076172
0.628623798259215 -0.2816109134650256 -0.06227080715792125
0.676666313441996 -0.4236470998295746 -0.06227080715792125
0.4989360304461705 0.08306103230243841 -0.06227080715792125
0.5496573652576321 0.11014295881168522 -0.06227080715792125
0.5039999394810885 0.16101703333881723 -0.06227080715792125
0.7596157282599063 -0.09300086302991059 -0.06074341000121753
0.4191706512395427 -0.12394827926650767 -0.06074341000121753
0.5101565249434941 -0.4428453071684507 -0.05992096537837706
0.5223874514060217 0.10304643663746174 -0.05992096537837706
0.45936469487864634 -0.29677914215198337 -0.05992096537837706
0.5886529895891681 -0.4392617984546459 -0.05992096537837706
0.5120246491582318 0.23197050587215415 -0.05839356822167334
0.6501248505420444 -0.45705010072579544 -0.05839356822167334
0.6325832816577468 -0.21704901057204887 -0.05757112359883287
0.43617175651454504 -0.10792235833001619 -0.05757112359883287
0.6739522461866224 -0.4384511030407031 -0.05757112359883287
0.6674196860394895 0.041374839133324334 -0.05757112359883287
0.6954767968872474 -0.19419679926598146 -0.05757112359883287
0.38822323500294564 -1.4686511122154576E-4 -0.056043726442129155
0.731159144309626 -0.10847457114820921 -0.056043726442129155
0.524478810589816 -0.21704901057204887 -0.05522128181928868
0.7146045089727371 -0.05590861053980547 -0.05522128181928868
0.45909446307399876 -0.4297096916207987 -0.05522128181928868
0.6754208972988375 -0.42586770031124394 -0.05522128181928868
0.689425954304921 -0.012213302649181013 -0.05522128181928868
0.40369694312124427 0.06174796736197247 -0.05369388466258492
0.7217245295647562 -0.21679052797629894 -0.05369388466258492
0.5193796539282052 0.2913275092234408 -0.05287144003974445
0.43404514970405755 -0.11756845883504527 -0.05287144003974445
0.6957470286918949 -0.3852859327785156 -0.05287144003974445
0.6186722183228451 0.19689911731245716 -0.05287144003974445
0.6364017745495062 -0.24752645845273705 -0.05287144003974445
0.632454040359872 -0.4293924629805602 -0.05287144003974445
0.6926804851695898 -0.0014275288810732378 -0.05287144003974445
0.43146032374655896 -0.2786853604494931 -0.05134404288304073
0.7441420201416077 0.09269538359856955 -0.05134404288304073
0.6241121020424901 -0.27923757326768595 -0.05052159826020026
0.5161251230635364 0.2016810453338294 -0.05052159826020026
0.5602786501011718 0.14654200797682498 -0.05052159826020026
0.5644378700509651 0.16881850804690382 -0.05052159826020026
0.44470168217429046 -0.19606492348071916 -0.05052159826020026
0.5112374521620846 -0.03981219434992766 -0.05052159826020026
0.5225519403305898 -0.31702302908275676 -0.05052159826020026
0.6255337563191142 -0.20412488078455568 -0.05052159826020026
0.6425231123852188 -0.431002104599548 -0.05052159826020026
0.4938721214112528 0.18740575652309835 -0.048994201103496546
0.7131946039050105 -0.3743709177125329 -0.048994201103496546
0.5212007813073519 0.2901290899158732 -0.048171756480656074
0.643063575994514 0.09155571033549069 -0.048171756480656074
0.5013328690613057 0.09463400306669359 -0.048171756480656074
0.5009803927943741 -0.43194204131136565 -0.048171756480656074
0.6906713704480794 -0.32966517785670446 -0.048171756480656074
0.4755668539486036 -0.028791436403865344 -0.048171756480656074
0.569161052027849 0.1374951171255797 -0.048171756480656074
0.6232896574196495 -0.18950886491579078 -0.048171756480656074
0.4462173301220965 -0.4334341908413762 -0.04664435932395231
0.697720895786712 -0.451892198019696 -0.04664435932395231
0.7091528760441946 -0.02751077263401382 -0.04582191470111184
0.5623465108671708 0.15836171212793232 -0.04582191470111184
0.5098862931388465 -0.45205668694426404 -0.04582191470111184
0.6066645268293744 -0.023375051102015987 -0.04582191470111184
0.5529941405845848 -0.288166972029954 -0.04582191470111184
0.6063237997713404 -0.18205986647463565 -0.04582191470111184
0.6785931837012223 -0.4288050025356742 -0.04582191470111184
0.4579195421842266 -0.4489078989596748 -0.04429451754440816
0.6520987176368613 0.20102308963555723 -0.04429451754440816
0.6203523551952193 -0.43881532851653254 -0.04347207292156769
0.5861621573028513 0.1516059170117427 -0.04347207292156769
0.43066137754151396 -0.22295886264760253 -0.04347207292156769
0.6827994004866063 -0.02620661044636674 -0.04347207292156769
0.47911511503571524 -0.03091804321435298 -0.04347207292156769
0.5237856072648506 -0.17928705317477345 -0.04347207292156769
0.5294957227891428 -0.4302266568122984 -0.04347207292156769
0.43858034433857784 -0.036780898454315696 -0.04347207292156769
0.5592329705092747 0.19809753662002474 -0.04347207292156769
0.4155283964812494 -0.1703694036214034 -0.04194467576486393
0.7596157282599063 0.015326843007076915 -0.04194467576486393
0.6211513014002643 -0.21028146624696148 -0.04112223114202346
0.4983368207923867 -0.1868065468693149 -0.04112223114202346
0.5767275425579813 -0.18242409195046508 -0.04112223114202346
0.6675371781284668 -0.03548848547556639 -0.04112223114202346
0.4676243887337442 -0.054604448352158386 -0.04112223114202346
0.5853867095156017 0.15582388300602448 -0.04112223114202346
0.42342386486051786 -0.08249707027534796 -0.04112223114202346
0.5938108922952675 -0.4394967826326003 -0.04112223114202346
0.4358192802476134 -0.033902342274374 -0.04112223114202346
0.7028318016572206 -0.05869317304856528 -0.04112223114202346
0.6126096265316212 0.19701660940143426 -0.04112223114202346
0.7075784820519 -0.4489078989596748 -0.03959483398531979
0.4501180674761398 0.17007567339895996 -0.03959483398531979
0.4689050525035957 -0.42189646770381417 -0.038772389362479315
0.6680658925288643 -0.037955819344087725 -0.038772389362479315
0.4910170636491067 -0.03992968643890493 -0.038772389362479315
0.42620842736927766 -0.09901645798554373 -0.038772389362479315
0.5785251715193326 0.16267367179339579 -0.038772389362479315
0.697004194043951 0.010039699003102436 -0.038772389362479315
0.6278013536363743 -0.18216560935471515 -0.038772389362479315
0.6256394991991937 -0.18657156269136052 -0.038772389362479315
0.4191706512395427 0.030800551125375376 -0.037244992205775554
0.5496221176309389 -0.46438160707797327 -0.037244992205775554
0.7596157282599063 -0.062041697584415724 -0.037244992205775554
0.6444264842266496 -0.19895522886955846 -0.037244992205775554
0.4408949384914289 -0.05227810499040971 -0.03642254758293508
0.4909113207690272 -0.03976519751433672 -0.03642254758293508
0.5567421382229578 -0.4332579527079105 -0.03642254758293508
0.7273641498356621 -0.1097082380824698 -0.03642254758293508
0.658102563383597 -0.022012142869880354 -0.03642254758293508
0.5257242267329744 -0.30181955276910566 -0.03642254758293508
0.638939603671414 -0.17563304920758233 -0.03642254758293508
0.6103655276321565 -0.4606218602307026 -0.03583508713804907
0.40369694312124427 -0.24773794421289602 -0.03489515042623132
0.6048668978680231 0.2629179221087514 -0.03489515042623132
0.6468233228417847 -0.20131681985800032 -0.03489515042623132
0.5120246491582318 -0.12394827926650767 -0.03489515042623132
0.6842680515988214 -0.4176785017095324 -0.03407270580339085
0.5545215377412887 -0.42582070347565304 -0.03407270580339085
0.7027260587771411 -0.2835965297687404 -0.03407270580339085
0.45588692904492084 -0.43241200966727456 -0.03407270580339085
0.7239921268820161 -0.022564355688073207 -0.03407270580339085
0.6387046194934595 0.10426835436282472 -0.03407270580339085
0.6456131543253195 -0.18056771694462515 -0.03407270580339085
0.6373769588880169 -0.19277514498935727 -0.03407270580339085
0.6566809091069725 -0.19725159357938898 -0.03254530864668718
0.4584835042113172 -0.04267900132097158 -0.03254530864668718
0.5253130044215543 0.18554938151725858 -0.03254530864668718
0.6630137327028441 -0.03037757960505774 -0.031722864023846706
0.6806022984227326 -0.4201223371602583 -0.031722864023846706
0.45357233489206994 -0.42640816392053904 -0.031722864023846706
0.6808842794362778 -0.4417056339053718 -0.031722864023846706
0.4600696474125096 0.0654724665825501 -0.031722864023846706
0.6184959801893793 0.12519369540966588 -0.031722864023846706
0.6440035127063317 -0.17523357610505974 -0.031722864023846706
0.6386106258222777 -0.191858706695335 -0.031722864023846706
0.7371864884741567 -0.1703694036214034 -0.030195466867142945
0.40473087350424364 -0.10847457114820921 -0.030195466867142945
0.7183877542378033 -0.10653595168008517 -0.029373022244302473
0.5848932427418974 -0.42925147247378753 -0.029373022244302473
0.6592892334822668 -0.026089118357389637 -0.029373022244302473
0.43518482296713645 -0.2559976380679939 -0.029373022244302473
0.46661395676854023 -0.4519391948552868 -0.029373022244302473
0.6570216361650064 -0.01825239602260972 -0.029373022244302473
0.6211513014002643 -0.30204278773816245 -0.029373022244302473
0.6344631550813823 -0.17767741155578584 -0.029373022244302473
0.697720895786712 -0.045346071740754286 -0.027845625087598795
0.5584457735131275 0.2504285130504738 -0.027845625087598795
0.5274983572765304 -0.04656798946611726 -0.027845625087598795
0.5921425046317912 -0.4231418838469727 -0.027023180464758323
0.4657092676834157 -0.4367122201238404 -0.027023180464758323
0.5001931957982266 0.10695892320040298 -0.027023180464758323
0.7210195770308928 -0.24589331841595388 -0.027023180464758323
0.4147646979028974 -0.05205487002135295 -0.027023180464758323
0.6556822263506663 -0.01955655821025663 -0.027023180464758323
0.6479629961048637 -0.14643626509674568 -0.027023180464758323
0.638681121075664 -0.1360499644311603 -0.027023180464758323
0.7441420201416077 -0.21865865219103664 -0.025495783308054566
0.4191706512395427 0.015326843007076915 -0.025495783308054566
0.571640135105268 -0.44108292583379266 -0.024673338685214093
0.4820994140957365 -0.04827162475628676 -0.024673338685214093
0.6936439202992029 -0.4233886172338248 -0.024673338685214093
0.5555437189153904 0.15655233395768314 -0.024673338685214093
0.7067912850557526 -0.3563006344278379 -0.024673338685214093
0.45776680246855633 0.06890323558068465 -0.024673338685214093
0.6278131028452721 -0.01874586279631402 -0.024673338685214093
0.6383756416443234 -0.18229485065259005 -0.024673338685214093
0.6266851787910909 -0.18732351206081474 -0.024673338685214093
0.7131946039050105 0.07722167548027109 -0.023145941528510336
0.40369694312124427 -0.20131681985800032 -0.023145941528510336
0.6586195285750966 -0.03374960255870373 -0.02232349690566986
0.5699599982328939 -0.40851411876931 -0.02232349690566986
0.4319537905202633 -0.2157213499666064 -0.02232349690566986
0.6918110437111584 -0.4279003134505497 -0.02232349690566986
0.5567656366407534 -0.44292755163073483 -0.02232349690566986
0.44118866871387197 0.0307535542897846 -0.02232349690566986
0.4487551592440042 0.02728753766495689 -0.02232349690566986
0.6278835980986585 -0.3023247687517078 -0.02232349690566986
0.6290350205706351 -0.31029073238436256 -0.02232349690566986
0.4501180674761398 -0.062041697584415724 -0.020796099748966186
0.5274983572765304 0.2349548049321755 -0.020796099748966186
0.6822471876684134 -0.1394219873848063 -0.020796099748966186
0.4820289188423501 -0.023633533697765913 -0.019973655126125714
0.5847640014440224 -0.4430450437197121 -0.019973655126125714
0.5582577861707639 0.16214495739299833 -0.019973655126125714
0.4667784456931083 -0.44145890051851966 -0.019973655126125714
0.5697015156371442 0.1739999091707988 -0.019973655126125714
0.46599124869696085 0.03527699971540708 -0.019973655126125714
0.5266994110714852 -0.21028146624696148 -0.019973655126125714
0.5072897179724501 -0.18740575652309868 -0.019973655126125714
0.7421446546289953 -0.1589256741550231 -0.019386194681239616
0.46559177559443843 0.12365454904406442 -0.018446257969421957
0.6682421306623301 -0.1394219873848063 -0.018446257969421957
0.4818761791266797 -0.047719411938093904 -0.017623813346581484
0.7217715264003469 -0.025748391299355605 -0.017623813346581484
0.7167428649921224 -0.2337446364157103 -0.017623813346581484
0.41855969237686136 -0.09364706951928532 -0.017623813346581484
0.6969454479994625 -0.4449719139789383 -0.017623813346581484
0.6452724272672854 0.1124105561289455 -0.017623813346581484
0.6211513014002643 -0.2148284100903795 -0.017623813346581484
0.5215415083653858 -0.17798289098712655 -0.017623813346581484
0.6674431844572849 -0.15489569550310475 -0.016096416189877807
0.38822323500294564 0.046274259243674 -0.016096416189877807
0.46061011102180466 -0.44108292583379266 -0.015273971567037335
0.5831661090339324 -0.40830263300915104 -0.015273971567037335
0.5053393492954285 -0.1794280436815461 -0.015273971567037335
0.6190951898431631 -0.20203352160076138 -0.015273971567037335
0.7263419686615605 -0.056554817029180034 -0.015273971567037335
0.6438977698262522 -0.026418096206525726 -0.015273971567037335
0.42646690996502756 -0.14607203962091625 -0.015273971567037335
0.4331287114100353 -0.32313261770957163 -0.015273971567037335
0.4866111103124613 -0.006773418929536267 -0.015273971567037335
0.7481837480024236 -0.1530628189150602 -0.013746574410333577
0.4191706512395427 0.030800551125375376 -0.013746574410333577
0.5573295986678438 -0.4335986797659444 -0.012924129787493105
0.6297634715222938 -0.2107749330206658 -0.012924129787493105
0.5273573667697578 -0.20203352160076138 -0.012924129787493105
0.43144857453766117 0.004129846927548778 -0.012924129787493105
0.4222959408063366 -0.0350772631641462 -0.012924129787493105
0.4328349811875924 -0.2812819356158895 -0.012924129787493105
0.430825866466082 -0.2960741896181202 -0.012924129787493105
0.6629549866583556 -0.004458824776685201 -0.012924129787493105
0.6667617303412172 -0.15601187034838823 -0.011396732630789346
0.4191706512395427 0.030800551125375376 -0.011396732630789346
0.7302427060156038 -0.1613107635612605 -0.010574288007948874
0.7188929702204052 -2.9373022244442723E-5 -0.010574288007948874
0.7260247400213219 -0.07673995791546473 -0.010574288007948874
0.7085184187637177 -0.018792859631904794 -0.010574288007948874
0.4326117462185356 -4.993413781531888E-4 -0.010574288007948874
0.7084361743014336 -0.001556770178948118 -0.010574288007948874
0.5003224370961017 -0.15189964723418597 -0.010574288007948874
0.5662120005945209 -0.41415373904021613 -0.010574288007948874
0.6667617303412172 -0.15612936243736553 -0.009046890851245198
0.4191706512395427 0.0598915923561327 -0.009046890851245198
0.7002822233264151 0.04872984390329773 -0.008224446228404726
0.4223781852686207 -0.1831995397377147 -0.008224446228404726
0.737644707621168 -0.11749796358165894 -0.008224446228404726
0.7427086166560858 -0.11027220010956043 -0.008224446228404726
0.6638361773256848 0.09880497222538459 -0.008224446228404726
0.6233601526730359 -0.29983393646539086 -0.008224446228404726
0.6344396566635867 -0.2124550698930399 -0.008224446228404726
0.5639209048594654 -0.4420228625456103 -0.008224446228404726
0.756173210052874 -0.10847457114820921 -0.006697049071700967
0.38822323500294564 -0.10847457114820921 -0.006697049071700967
0.4237058458740632 -0.013305979076669106 -0.005874604448860494
0.41814847006544115 -0.15665807683776298 -0.005874604448860494
0.5113784426688572 0.14246503248931572 -0.005874604448860494
0.4601753902925891 0.08992257029870751 -0.005874604448860494
0.6269906582224316 0.13953947947378323 -0.005874604448860494
0.6289175284816578 -0.20938852637073477 -0.005874604448860494
0.5043524157480199 -0.14140760368852112 -0.005874604448860494
0.7532006602017504 -0.09975665814610019 -0.005287144003974478
0.7596157282599063 0.046274259243674 -0.004347207292156819
0.47455642198339965 -0.05183163505229618 -0.004347207292156819
0.7273758990445599 -0.17450512515340105 -0.0035247626693163466
0.4933081593841622 -0.03343237391846526 -0.0035247626693163466
0.6450609415071267 -0.03223395461089767 -0.0035247626693163466
0.4841437764439398 0.00261419897974288 -0.0035247626693163466
0.6226552001391725 -0.2156391055043223 -0.0035247626693163466
0.5130585795412311 -0.30790564297812517 -0.0035247626693163466
0.566717216577123 -0.4105114842819226 -0.0035247626693163466
0.6475047769578526 -0.21679052797629894 -0.0019973655126125883
0.40369694312124427 0.013458718792339206 -0.0019973655126125883
0.7241213681798909 -0.007807349312535642 -0.0011749208897721157
0.6544368102075078 -0.03055381773852356 -0.0011749208897721157
0.7373744758165204 -0.04559280512760644 -0.0011749208897721157
0.6913998213997381 0.08855966206657188 -0.0011749208897721157
0.5136695384039127 0.1365081835781711 -0.0011749208897721157
0.6307974019052932 -0.21244332068414212 -0.0011749208897721157
0.4915222796317086 -0.14700022712383629 -0.0011749208897721157
0.7543168350470342 -0.062041697584415724 -5.874604448860996E-4
0.4810654837127369 0.13912825716236304 3.52476266931643E-4
0.6822471876684134 -0.10847457114820921 3.52476266931643E-4
0.7328040335553069 -0.14020918438095353 0.0011749208897721157
0.41227386561658064 -0.08263806078212062 0.0011749208897721157
0.42678413860526604 -0.015749814527395052 0.0011749208897721157
0.43072012358600253 -0.01954480900135902 0.0011749208897721157
0.5203783366845114 -0.21437019094336837 0.0011749208897721157
0.5186864506032397 -0.3083403637073409 0.0011749208897721157
0.48946616807460747 -0.15100670735795907 0.0011749208897721157
0.4810654837127369 -0.12692082911763108 0.0027023180464757907
0.697720895786712 0.10816909171686818 0.0027023180464757907
0.7346134117255558 -0.12952915349292507 0.0035247626693162633
0.7349658879924875 -0.10963774282908346 0.0035247626693162633
0.6625907611825262 -0.03645192060517944 0.0035247626693162633
0.6646351235307297 -0.03266867534011325 0.0035247626693162633
0.5420556271008066 -0.016537011523542446 0.0035247626693162633
0.6270024074313294 -0.30288873077879835 0.0035247626693162633
0.5056213303089738 -0.18067345982470465 0.0035247626693162633
0.6276133662940108 -0.19489000259094696 0.0035247626693162633
0.3947087983144877 -0.050879949131580914 0.005052159826020022
0.7577006072095777 -0.053840749773806554 0.005052159826020022
0.6578558299967447 -0.0014510272988686249 0.005874604448860494
0.4148469423651815 -0.14237103881813415 0.005874604448860494
0.6870526141075814 0.09217841840706986 0.005874604448860494
0.6576208458187902 0.1365081835781711 0.005874604448860494
0.48338007786558795 0.007772101685842311 0.005874604448860494
0.6451549351783084 -0.17892282769894421 0.005874604448860494
0.4926149560591967 -0.1883104456082232 0.005874604448860494
0.4850484655290645 -0.18584311173970186 0.007402001605564169
0.6512880222229186 0.20400738869557825 0.007402001605564169
0.7366695232826571 -0.1189313670671809 0.008224446228404642
0.7379971838880997 -0.10573700547504018 0.008224446228404642
0.7325220525417615 -0.09445776493322794 0.008224446228404642
0.7464331158766632 -0.12054100868616852 0.008224446228404642
0.652662679663952 -0.004987539177082665 0.008224446228404642
0.5189684316167849 -0.20948252004191648 0.008224446228404642
0.4869283389526998 -0.15088921526898197 0.008224446228404642
0.47886838164886314 -0.1394219873848063 0.009751843385108401
0.697720895786712 0.10250597302816668 0.009751843385108401
0.43378666710830766 0.035746968071315985 0.010574288007948874
0.7334149924179882 -0.033115145278226774 0.010574288007948874
0.6818594637747887 0.10304643663746174 0.010574288007948874
0.5938931367575516 0.19167071935297106 0.010574288007948874
0.6616978213062995 0.010368676852238693 0.010574288007948874
0.5160311293923545 -0.1949604978443333 0.010574288007948874
0.510790982223971 -0.17852335459642163 0.010574288007948874
0.6822471876684134 -0.1703694036214034 0.012101685164652631
0.5120246491582318 0.21948109681387687 0.012101685164652631
0.6601469257318002 0.005739488546536559 0.012924129787493105
0.40840837588923035 -0.09167320242446812 0.012924129787493105
0.5313873454216759 0.1719907944492886 0.012924129787493105
0.4357722834120226 0.06369833603899427 0.012924129787493105
0.6328300150445989 0.14761118598651754 0.012924129787493105
0.5165010977482635 -0.3063664966125237 0.012924129787493105
0.5114019410866526 -0.17399990917079916 0.012924129787493105
0.6822471876684134 0.17304822325008354 0.014451526944196779
0.4810654837127369 -0.1703694036214034 0.014451526944196779
0.7415219465574157 -0.08388347692527914 0.015273971567037251
0.7318171000078982 -0.04783690402707118 0.015273971567037251
0.7386668887952695 -0.004999288385980442 0.015273971567037251
0.6690528260762727 0.01748869744425755 0.015273971567037251
0.5126591064387087 -0.18379874939149832 0.015273971567037251
0.635567580717768 -0.1788405832366601 0.015273971567037251
0.40369694312124427 0.015326843007076915 0.016801368723741012
0.6751741639119854 -0.031094281347818633 0.016801368723741012
0.740840492441348 -0.08430644844559712 0.017623813346581484
0.41676206341551 -0.01234254394705606 0.017623813346581484
0.5043524157480199 -0.028227474376774715 0.017623813346581484
0.7030902842529705 0.0565195694024867 0.017623813346581484
0.5251720139147815 -0.30144357808437866 0.017623813346581484
0.49410710558920723 -0.1500902690639368 0.017623813346581484
0.5120246491582318 -0.04656798946611726 0.01915121050328516
0.7596157282599063 0.030800551125375376 0.01915121050328516
0.49199224798761754 -0.01786467212898491 0.01997365512612563
0.4927676957748671 -0.02889717928394484 0.01997365512612563
0.6678191591420122 -0.03203421805963646 0.01997365512612563
0.6612513513681861 0.019345072450097478 0.01997365512612563
0.6266969279999887 -0.3093742940903403 0.01997365512612563
0.49073508263556137 -0.14280575954734992 0.01997365512612563
0.507724438701666 -0.05080945387819459 0.021501052282829388
0.7596157282599063 0.015326843007076915 0.021501052282829388
0.49780810639198947 -0.02060223780215395 0.02232349690566986
0.668582857720364 0.010838645208147438 0.02232349690566986
0.7406525050989845 -0.005046285221571216 0.02232349690566986
0.5757758566372659 0.1894031220357111 0.02232349690566986
0.6229724287794111 -0.301091101817447 0.02232349690566986
0.6211513014002643 -0.31127766593177114 0.02232349690566986
0.4810654837127369 -0.15770375642966014 0.02385089406237362
0.6822471876684134 0.13204348419703718 0.02385089406237362
0.44588835227296025 0.07118258210684256 0.024673338685214093
0.49245046713462864 -0.031211773436795903 0.024673338685214093
0.6670554605636603 0.007184641240956295 0.024673338685214093
0.5128823414077655 -0.014610141264316185 0.024673338685214093
0.43584277866540894 0.020191015490733422 0.024673338685214093
0.6366602571452561 -0.1863835753489971 0.024673338685214093
0.5059150605314169 -0.1953364725290605 0.024673338685214093
0.5617707996311824 -0.03514775841753253 0.026200735841917767
0.5893931897497244 0.23197050587215415 0.026200735841917767
0.7269646767331397 0.0076311111790696535 0.02702318046475824
0.528309052690473 0.17771265918247867 0.02702318046475824
0.41546965043676065 -0.06054954805440521 0.02702318046475824
0.4441847169827908 0.061536481601813645 0.02702318046475824
0.6389983497159025 -0.18425696853850945 0.02702318046475824
0.6360492982825745 -0.3184564325682787 0.02702318046475824
0.6194124184834017 -0.03495977107516893 0.028550577621462
0.5120246491582318 0.21948109681387687 0.028550577621462
0.5039881902721907 -0.018087907098041506 0.029373022244302473
0.6844795373589804 0.11087140976334406 0.029373022244302473
0.41753751120275956 0.033796599394294344 0.029373022244302473
0.5566951413873671 0.0517376413811143 0.029373022244302473
0.6233601526730359 -0.29983393646539086 0.029373022244302473
0.4984895605080572 -0.14791666541785856 0.029373022244302473
0.6302451890871004 -0.19246966555801656 0.029373022244302473
0.5584457735131275 -0.04243226793411943 0.030900419401006147
0.5120246491582318 0.18554938151725858 0.030900419401006147
0.7404057717121322 -0.03323263736720388 0.03172286402384662
0.5005574212740561 0.15584738142381988 0.03172286402384662
0.41658582528204413 -0.051396914323080606 0.03172286402384662
0.6707564613664424 0.03658116190305415 0.03172286402384662
0.5148797069203779 -0.3083403637073409 0.03172286402384662
0.5042349236590428 -0.18274132059070355 0.03172286402384662
0.5584457735131275 -0.04243226793411943 0.03231032446873272
0.46559177559443843 -0.10847457114820921 0.033250261180550376
0.6667617303412172 0.20102308963555723 0.033250261180550376
0.7096698412356943 0.06136024346834782 0.03407270580339085
0.7489004497451847 -0.04458237316240245 0.03407270580339085
0.7474787954685603 -0.025795388134946546 0.03407270580339085
0.5530058897934825 0.011896074008942367 0.03407270580339085
0.6795801172486308 0.04437088740224313 0.03407270580339085
0.6328652626712921 -0.3033704483436049 0.03407270580339085
0.6373769588880169 -0.19558320591591247 0.03407270580339085
0.5584457735131275 -0.045757294052174484 0.034660166248276864
0.4790563689912267 -0.15489569550310475 0.03560010296009461
0.6667617303412172 0.20102308963555723 0.03560010296009461
0.6326420277022355 -0.29983393646539086 0.03642254758293508
0.6373769588880169 -0.19564195196040118 0.03642254758293508
0.6557644708129503 -0.030260087516080468 0.03642254758293508
0.4236940966651654 0.02540766424132157 0.03642254758293508
0.5756818629660841 0.2101052281134955 0.03642254758293508
0.4382983633250325 0.05560313110846443 0.03642254758293508
0.6162636304988124 -0.03421957091461248 0.03794994473963876
0.7361525580911573 0.046274259243674 0.03794994473963876
0.4501180674761398 -0.015620573229520174 0.03794994473963876
0.6278013536363743 -0.3118063803321686 0.03877238936247923
0.4916045240939927 -0.14836313535597193 0.03877238936247923
0.5319043106131758 -0.1874880009853828 0.03877238936247923
0.4936253880244007 0.008641543144273641 0.03877238936247923
0.7489591957896732 -0.0409518676130067 0.03877238936247923
0.4196406195954516 0.04592178297674236 0.03877238936247923
0.5410569443445004 -0.04250276318750576 0.03935984980736533
0.698731327751916 0.022235377838936785 0.040299786519182985
0.4645695944203367 0.01840513573827982 0.040299786519182985
0.6582083062636764 0.14173658153765703 0.04112223114202346
0.4118273956784671 -0.03933047678512114 0.04112223114202346
0.6952183142914974 0.06314612322080126 0.04112223114202346
0.48007855016532847 -0.043090223632391775 0.04112223114202346
0.503471225080691 -0.19355059277660688 0.04112223114202346
0.6203406059863215 -0.04656798946611726 0.042649628298727135
0.5921425046317912 0.02989586204025088 0.042649628298727135
0.4077974170265489 -0.023892016293515672 0.04347207292156761
0.7316173634566371 0.008923524157818956 0.04347207292156761
0.6579263252501311 0.15623510531744467 0.04347207292156761
0.49205099403210606 -0.027040804278104905 0.04347207292156761
0.5984753282276628 -0.018475630991666315 0.04347207292156761
0.462666222578906 0.13912825716236304 0.04499947007827137
0.6832693688425152 0.034008085154453326 0.04499947007827137
0.47795194335484087 -0.1394219873848063 0.04499947007827137
0.6741049859022928 -1.4686511122154576E-4 0.04499947007827137
0.4400724938685885 0.0647792632575846 0.04582191470111184
0.5575998304724915 0.20734416402253092 0.04582191470111184
0.44570036493059684 0.07428437325584085 0.04582191470111184
0.6628727421960715 -0.032703922966806416 0.04582191470111184
0.5992272775971169 -0.18436271141858895 0.04582191470111184
0.5089111088003357 -0.04656798946611726 0.047349311857815594
0.6751271670763946 -0.04656798946611726 0.047349311857815594
0.507089981421189 0.045569306709810714 0.047349311857815594
0.46559177559443843 0.18554938151725858 0.047349311857815594
0.7440480264704258 -0.025301921361242246 0.048171756480656074
0.687992550819399 0.12345481249280321 0.048171756480656074
0.4721125865326735 0.10228273805910991 0.048171756480656074
0.4934256514731395 0.00784259693922864 0.048171756480656074
0.6020823353592633 0.21649679775385586 0.049699153637359744
0.6822471876684134 -0.18076745349588635 0.049699153637359744
0.6528976638419064 0.049681529824013165 0.049699153637359744
0.697720895786712 0.03958895938087073 0.049699153637359744
0.49650394420434235 0.15373252382223018 0.050521598260200216
0.7110327494678299 0.04414765243318654 0.050521598260200216
0.6632839645074917 0.11290402290264981 0.050521598260200216
0.47979656915178315 -0.04235002347183549 0.050521598260200216
0.5102387694057782 -0.17966302785950067 0.050521598260200216
0.6628609929871737 -0.19477251050196986 0.05204899541690398
0.4501180674761398 0.032668675340113085 0.05204899541690398
0.6365075174295857 -0.18453894955205477 0.05287144003974445
0.6562696867955524 -0.028967674537331164 0.05287144003974445
0.40361469865896016 -0.02639459778873034 0.05287144003974445
0.7210078278219951 0.05834069678163347 0.05287144003974445
0.4198991021912016 -0.00955798143829608 0.05287144003974445
0.4191706512395427 0.10816909171686818 0.05439883719644813
0.6667617303412172 -0.1703694036214034 0.05439883719644813
0.6365662634740742 -0.1845976955965435 0.0552212818192886
0.6609693703546409 -0.026617832757786935 0.0552212818192886
0.4490136418397541 0.09060402441477525 0.0552212818192886
0.6221852317832638 0.18828694719042763 0.0552212818192886
0.47387496786733174 0.11022520327396931 0.0552212818192886
0.4810654837127369 0.17007567339895996 0.05674867897599235
0.6744222145425313 -1.4686511122154576E-4 0.05674867897599235
0.5442527291646804 0.1974630793395478 0.057571123598832825
0.686899874391911 0.09241340258502441 0.057571123598832825
0.48007855016532847 0.12461798417367763 0.057571123598832825
0.5483884506966782 -0.028027737825513505 0.057571123598832825
0.6584902872772216 -0.15419074296924148 0.057571123598832825
0.697720895786712 0.05845818887061074 0.059098520755536586
0.506584765438587 -0.047848653235968784 0.059098520755536586
0.7401590383252802 -0.020837221980108324 0.05992096537837706
0.5770565204071174 0.2245215074309992 0.05992096537837706
0.5429133193503403 -0.019086589854347885 0.05992096537837706
0.6047964026146367 -0.015550077976133845 0.05992096537837706
0.6667617303412172 -0.15953663301770452 0.061448362535080736
0.46559177559443843 -0.1703694036214034 0.061448362535080736
0.40881959820065056 -0.013117991734305674 0.06227080715792121
0.7089766379107287 0.06503774585333436 0.06227080715792121
0.3989267643087695 -0.007971838237103854 0.06227080715792121
0.6567396551514613 -0.03092979242325059 0.06227080715792121
0.4999464624113745 -0.1745756204067874 0.06227080715792121
0.45743782461942006 0.13912825716236304 0.06379820431462496
0.6667617303412172 -0.13248995413515088 0.06379820431462496
0.4087726013650598 -0.011884324800044924 0.06462064893746544
0.7365637804025775 -0.022646600150357313 0.06462064893746544
0.41845394949678183 -0.010709403910272725 0.06462064893746544
0.6090261178178162 -0.0236570321155613 0.06462064893746544
0.6502305934221239 -0.14883310371188066 0.06462064893746544
0.4271718624988909 0.09269538359856955 0.06614804609416912
0.7441420201416077 0.09269538359856955 0.06614804609416912
0.4810654837127369 -0.18584311173970186 0.06614804609416912
0.7370219995495888 -4.6409375146002447E-4 0.06697049071700958
0.6868176299296269 0.13196123973475324 0.06697049071700958
0.6126448741583144 -0.01925107877891593 0.06697049071700958
0.5364982512921845 -0.014833376233372782 0.06697049071700958
0.5010156404210673 0.20102308963555723 0.06755795116189568
0.5576350780991847 0.23057235001332535 0.06849788787371335
0.6678779051865007 -0.1326661922686167 0.06849788787371335
0.48589440856970023 0.1490445894720395 0.06932033249655381
0.4943185913493662 0.16469453572380377 0.06932033249655381
0.5059385589492122 0.1444623980019283 0.06932033249655381
0.5202608445955342 -0.019709297925927065 0.06932033249655381
0.6375531970214828 -0.1846916892677252 0.06932033249655381
