-0.3260135973533255 0.2872229090559237 -0.19252164436075625
-0.26113776818040796 0.4091679689164668 -0.19119998547498449
0.3769415197517314 0.2977697469643825 -0.19119998547498449
-0.25126938183331204 0.3387411724233077 -0.19119998547498449
0.4219219771641646 0.38825051428431867 -0.19119998547498449
0.426829737159997 0.3357454122822251 -0.19119998547498449
0.6139854464445199 0.42647288926083865 -0.19075943251306055
0.4979349852145188 0.3800562291925337 -0.19075943251306055
-0.15137840324668075 0.3648571520061582 -0.18943777362728872
0.41511102837282043 0.31353273194202064 -0.18943777362728872
0.20323148686512693 0.4274068615401173 -0.18943777362728872
0.45969498811952186 0.369218626329205 -0.18943777362728872
0.38477455141473893 0.31147975513945514 -0.18943777362728872
0.5791729513932911 0.3220354041071525 -0.18899722066536484
0.6952146015640536 0.36845206417545734 -0.18899722066536484
-0.3260135973533255 0.29882707407299997 -0.18899722066536484
0.3181717546310796 0.2839980613746405 -0.18767556177959305
0.31102598558867345 0.4343940315162309 -0.18767556177959305
-0.24202658069214802 0.3407236607519654 -0.18767556177959305
0.3437943148965751 0.41725652129739005 -0.18767556177959305
0.3547288394115271 0.29917951644253904 -0.18767556177959305
0.5039529386743998 0.36845206417545734 -0.1872350088176691
0.13818824756667825 0.4867405344520318 -0.1872350088176691
0.6371937764786723 0.27560993297960895 -0.1872350088176691
0.43280363532368543 0.3172686210591355 -0.18591334993189734
-0.25356025723531644 0.4249221428348664 -0.18591334993189734
-0.2601421184864599 0.40907985832408195 -0.18591334993189734
0.18858750641077554 0.4336274693624832 -0.18591334993189734
0.3748092434160197 0.3046776174073496 -0.18591334993189734
0.5123322560101928 0.3800562291925337 -0.1854727969699734
0.48912392597604026 0.3828493349711313 -0.1854727969699734
-0.29119229124285834 0.27560993297960895 -0.1854727969699734
0.43177274139278354 0.3989911954960241 -0.18415113808420164
0.23444906974705637 0.2690104496099886 -0.18415113808420164
-0.23778846119843977 0.3443185729212647 -0.18415113808420164
0.31073522063380365 0.4255565391000369 -0.18415113808420164
0.48315883887159033 0.3573941848311668 -0.18415113808420164
0.5791729513932911 0.38229423823910724 -0.1837105851222777
0.7184317426574445 0.38229423823910724 -0.1837105851222777
-0.27958812622578205 0.3104312390900762 -0.1837105851222777
0.3890302930269241 0.2967652862111959 -0.18238892623650593
0.29572998675067463 0.44066750569402763 -0.18238892623650593
0.3447459092943308 0.4214858297318598 -0.18238892623650593
0.37517049684479725 0.3001575440180102 -0.18238892623650593
0.387796744733537 0.4048946051858047 -0.18238892623650593
0.5007280909931165 0.3828493349711313 -0.181948373274582
0.6952146015640536 0.345243734141305 -0.181948373274582
0.43619589313049956 0.3972730389445207 -0.1806267143888102
0.28061902015668405 0.26993561083002876 -0.1806267143888102
0.34374144854114425 0.41884251196031624 -0.1806267143888102
0.3760427917094066 0.29917070538330054 -0.1806267143888102
0.49122095807479815 0.3570064982246738 -0.1806267143888102
0.4993976210481062 0.378073740863876 -0.1801861614268863
0.6836104365469773 0.41486872424376237 -0.1801861614268863
0.45217034352986135 0.3218415608039059 -0.1788645025411145
-0.26998407165584043 0.4197764842395949 -0.1788645025411145
0.2197522229372742 0.434764096004247 -0.1788645025411145
-0.26094392487716145 0.2964921433748032 -0.1788645025411145
0.45997694201515327 0.3806818143984656 -0.1788645025411145
0.5327474802657475 0.3104312390900762 -0.17842394957919055
0.49484230342181285 0.3220354041071525 -0.17842394957919055
0.4979349852145188 0.22919327291130398 -0.17842394957919055
-0.27392261513544036 0.4161110835963879 -0.1771022906934188
0.48787275556417636 0.3315601591439477 -0.1771022906934188
0.3916912329169446 0.30491551600678857 -0.1771022906934188
-0.268116127097283 0.413168189810736 -0.1771022906934188
0.477334728714956 0.37719263494002814 -0.1771022906934188
0.5327474802657475 0.2501724049581214 -0.17666173773149485
0.672006271529901 0.35684789915838117 -0.17666173773149485
0.6836104365469773 0.33363956912422865 -0.17666173773149485
0.24312796309695772 0.44344298935414833 -0.17534007884572309
0.41976326765073724 0.2967300419742421 -0.17534007884572309
-0.2692527537390467 0.41692170104632786 -0.17534007884572309
0.43646903596689246 0.3133300775795357 -0.17534007884572309
-0.2644771596317913 0.29498545224502326 -0.17534007884572309
0.6139854464445199 0.37069007322203096 -0.17489952588379915
0.4993976210481062 0.3271017631692775 -0.17489952588379915
-0.28307730568421957 0.2872229090559237 -0.17489952588379915
0.17709788516379948 0.2653274268483045 -0.17357786699802735
0.5260334531260271 0.3588568206647542 -0.17357786699802735
-0.22741784447475058 0.3444066835136494 -0.17357786699802735
0.440345902031823 0.4006036193366656 -0.17357786699802735
-0.2552079253129119 0.2911614525355236 -0.17357786699802735
0.6139854464445199 0.3430057250947314 -0.17313731403610344
0.42830999511206147 0.4961066904225347 -0.17313731403610344
-0.3260135973533255 0.39166039420960985 -0.17313731403610344
0.4753610514455369 0.32090758852462725 -0.17181565515033168
0.19992733965069748 0.45354046324144476 -0.17181565515033168
0.47473546623960494 0.3821268281135761 -0.17181565515033168
-0.25580707734112845 0.4235123733567099 -0.17181565515033168
-0.24603561264565577 0.37447001763533827 -0.17181565515033168
0.5039529386743998 0.38894658796415854 -0.1713751021884077
-0.3260135973533255 0.29882707407299997 -0.1713751021884077
-0.24329537322248887 0.34442430563212645 -0.17005344330263594
0.5007280909931165 0.3763203400754187 -0.17005344330263594
-0.28336807063908936 0.29288842014626537 -0.17005344330263594
0.12663694890503294 0.27567161039427834 -0.17005344330263594
0.3996035641130983 0.417512042015306 -0.17005344330263594
0.309140418911639 0.27612097441544065 -0.17005344330263594
0.42830999511206147 0.21758910789422767 -0.16961289034071203
0.7184317426574445 0.3670599168157779 -0.16961289034071203
0.5471447510614216 0.3828493349711313 -0.16961289034071203
-0.2694642191607702 0.3567685996252349 -0.16829123145494024
0.28950056786907036 0.4445267496404811 -0.16829123145494024
0.33757370707420936 0.2691690486762812 -0.16829123145494024
0.25622119712533686 0.4403855517983962 -0.16829123145494024
0.4206884288707774 0.300060622366387 -0.16829123145494024
-0.038834743593594186 0.278244439691914 -0.16829123145494024
0.5130635739269865 0.3253571734400589 -0.1678506784930163
0.5559558102999002 0.34879459101441174 -0.1678506784930163
-0.3260135973533255 0.35684789915838117 -0.1678506784930163
-0.2522650315272601 0.36713921634892416 -0.16652901960724453
-0.28252220895219543 0.29050943415187624 -0.16652901960724453
0.5069927541116749 0.32799168015236385 -0.16652901960724453
0.2663715373680642 0.44477345929915857 -0.16652901960724453
0.41589521264504525 0.29842176534802994 -0.16652901960724453
-0.25865304947515705 0.3380627208619449 -0.16652901960724453
0.6836104365469773 0.39166039420960985 -0.1660884666453206
0.5791729513932911 0.39166039420960985 -0.1660884666453206
-0.2594284226881432 0.3729104601501275 -0.1647668077595488
0.48648060820449684 0.32188561610009825 -0.1647668077595488
0.2497186354073397 0.4536109517153526 -0.1647668077595488
-0.265649030510509 0.2775043107158819 -0.1647668077595488
-0.27979959164750556 0.34853907029649595 -0.1647668077595488
0.4644529601083005 0.3997137023535793 -0.1647668077595488
-0.1920238195137823 0.4268253316303777 -0.1647668077595488
0.7300359076745209 0.37069007322203096 -0.1643262547976249
0.5791729513932911 0.39166039420960985 -0.1643262547976249
-0.2620276851634943 0.3724170408327727 -0.16300459591185312
0.4017270293895717 0.2869497662195308 -0.16300459591185312
0.4791938622142751 0.40150234737899043 -0.16300459591185312
-0.2686712238293072 0.4369404276361512 -0.16300459591185312
-0.2803546883795297 0.2986860971251843 -0.16300459591185312
0.42812496286805324 0.2982367331040219 -0.16300459591185312
-0.0668451009127175 0.2801035731912331 -0.16300459591185312
0.5267383378651053 0.3264673669041072 -0.16256404294992916
0.6952146015640536 0.39389840325618347 -0.16256404294992916
0.7184317426574445 0.38229423823910724 -0.16256404294992916
-0.23890746572172664 0.3658175574631523 -0.1612423840641574
-0.27617824630049087 0.42918669550628996 -0.1612423840641574
-0.2822843103527565 0.27955728751844733 -0.1612423840641574
-0.2830332503880272 0.41267477049338125 -0.1612423840641574
0.3860433439450799 0.28481748988381905 -0.1612423840641574
0.407330863065244 0.42292203238773174 -0.1612423840641574
0.029530265037760864 0.3083958844059877 -0.1612423840641574
0.06633405947688568 0.2813371214846201 -0.1612423840641574
-0.3260135973533255 0.35684789915838117 -0.16080183110223348
0.544959608370279 0.33363956912422865 -0.16080183110223348
-0.10551683991039994 0.26130077277631986 -0.16080183110223348
-0.26984309470802476 0.3528741114418274 -0.15948017221646169
-0.28438134245151436 0.42589135935109906 -0.15948017221646169
0.2926989823726381 0.4535757074783986 -0.15948017221646169
0.5551892481461526 0.35170224056310967 -0.15948017221646169
-0.28325352686898914 0.351578885733771 -0.15948017221646169
0.4998998514246996 0.38810953733650305 -0.15948017221646169
-0.2833504485206124 0.33104030664887746 -0.15948017221646169
0.03817391415070827 0.31358559829745153 -0.15948017221646169
-0.2361848484170368 0.339040748437416 -0.15948017221646169
0.5675599753169764 0.3800562291925337 -0.15903961925453775
-0.3260135973533255 0.4380858653371534 -0.15903961925453775
-0.2667504129153188 0.37184432198227163 -0.15771796036876598
-0.2866457846758034 0.3149425014201772 -0.15771796036876598
-0.29016139731195634 0.3546275122302846 -0.15771796036876598
-0.2935272219410551 0.4059254991167066 -0.15771796036876598
0.5120679242330385 0.31916299879540844 -0.15771796036876598
-0.27835457793239504 0.34668874785641535 -0.15771796036876598
0.44041639050573095 0.2985627422958456 -0.15771796036876598
0.5443252121051085 0.3571650972909664 -0.15771796036876598
0.04346054969379535 0.3707958059328927 -0.15771796036876598
-0.10068837944771368 0.39403938020399915 -0.15771796036876598
-0.3055983730977707 0.39166039420960985 -0.15727740740684204
0.5495149259965724 0.3800562291925337 -0.15727740740684204
-0.27326178569255444 0.3644518432811881 -0.15595574852107025
0.35968946576279043 0.2714511130190472 -0.15595574852107025
-0.2914918672569666 0.303540990765586 -0.15595574852107025
-0.2967785028000537 0.36155300479172875 -0.15595574852107025
0.2762487347743986 0.4608007760539511 -0.15595574852107025
-0.2779404581481866 0.3452613562597819 -0.15595574852107025
-0.02924831114212958 0.4007622184029582 -0.15595574852107025
0.2960207517055444 0.26864038512197247 -0.15595574852107025
0.378589187829327 0.278852402779369 -0.15595574852107025
0.44913933915182475 0.3008095624016576 -0.15595574852107025
0.5791729513932911 0.33084646334563106 -0.15551519555914634
0.4979349852145188 0.2385682399410451 -0.15551519555914634
-0.23806160403483265 0.34629225019068394 -0.15419353667337457
0.4117628258621986 0.4310810732425629 -0.15419353667337457
0.5267295268058667 0.3865411687920539 -0.15419353667337457
-0.26916464314666194 0.27215599775812543 -0.15419353667337457
-0.2865576740834186 0.38788926085554104 -0.15419353667337457
-0.2754381173244586 0.2829671674437385 -0.15419353667337457
0.5276811212036224 0.33506696072086223 -0.15419353667337457
-0.04642987665716278 0.3127573587290345 -0.15419353667337457
-0.2503970869687026 0.3367851172723655 -0.15419353667337457
-0.2983997376999337 0.4380858653371534 -0.1537529837114506
0.6139854464445199 0.42647288926083865 -0.1537529837114506
0.13818824756667825 0.21758910789422767 -0.1537529837114506
-0.2431632073339118 0.3409615593514044 -0.15243132482567884
0.44210811387951887 0.2905887336850225 -0.15243132482567884
0.4881987647560001 0.30492432706602707 -0.15243132482567884
-0.29757149813151673 0.30226338717600665 -0.15243132482567884
-0.29944825374931267 0.37601195300207196 -0.15243132482567884
-0.28728899200021235 0.3681877323983031 -0.15243132482567884
0.47460330035102766 0.4082956740518574 -0.15243132482567884
-0.17678949809045288 0.2796453981108321 -0.15243132482567884
0.350402609325434 0.4334600592369521 -0.15243132482567884
0.5677361965017458 0.33949011245857846 -0.15199077186375495
0.5819660571718888 0.3800562291925337 -0.15199077186375495
0.04003304765002723 0.3922595462378265 -0.15066911297798313
-0.2383964242858948 0.362037613049845 -0.15066911297798313
-0.2919852865743213 0.4039606329065259 -0.15066911297798313
0.4675720750787217 0.41912446585594754 -0.15066911297798313
0.24014982507435204 0.2476348198974396 -0.15066911297798313
-0.28871638359684587 0.36815248816134916 -0.15066911297798313
0.4671843884722289 0.3023426867091528 -0.15066911297798313
-0.2508993173452959 0.37680494833353506 -0.15066911297798313
0.4541263986808036 0.4052470475553438 -0.15066911297798313
0.6952146015640536 0.40326455922668614 -0.14952367527698093
0.5859662780661581 0.33363956912422865 -0.14952367527698093
0.034957877528663646 0.3128630914398962 -0.14890690113028743
-0.272609767308907 0.3459926741765756 -0.14890690113028743
0.39364728806788685 0.43979521082941825 -0.14890690113028743
0.47003036060625725 0.41978529529883346 -0.14890690113028743
0.40874063254340054 0.27057000709519924 -0.14890690113028743
-0.3003998481470684 0.32340992934835505 -0.14890690113028743
0.47597782559223034 0.30257177424935333 -0.14890690113028743
0.26967568458249364 0.2579878145026519 -0.14890690113028743
-0.011379483006495036 0.44409500773779575 -0.14890690113028743
0.5950769133187448 0.345243734141305 -0.14846634816836352
0.42830999511206147 0.2269552638647304 -0.14846634816836352
-0.09182445385380426 0.3173479205922818 -0.1471446892825917
-0.26359605370794353 0.36713921634892416 -0.1471446892825917
0.39531257826395927 0.44064988357555057 -0.1471446892825917
0.49935356575191386 0.40907104726484356 -0.1471446892825917
0.5728906661562558 0.3447767480016655 -0.1471446892825917
-0.2912892128944816 0.3212247866572123 -0.1471446892825917
0.5049133441313939 0.31379706371917504 -0.1471446892825917
-0.29129802395372006 0.36813486604287227 -0.1471446892825917
0.5603525288599008 0.35684789915838117 -0.1471446892825917
0.576371034555455 0.33084646334563106 -0.1467041363206678
-0.31720253811484694 0.4060576650052838 -0.1467041363206678
-0.08991245399905443 0.3164756257276725 -0.14538247743489602
-0.2412247743014464 0.3519225170440717 -0.14538247743489602
-0.28628453124702574 0.4364910636149888 -0.14538247743489602
0.3431599186314046 0.4557696612287799 -0.14538247743489602
0.5846181860026707 0.3621785899976607 -0.14538247743489602
-0.27442484551203367 0.3747255383532541 -0.14538247743489602
0.5425365670796973 0.336608896087596 -0.14538247743489602
-0.29094558158418093 0.28300241168069246 -0.14538247743489602
-0.10241534705845545 0.3980748453352223 -0.14538247743489602
-0.3260135973533255 0.27560993297960895 -0.14494192447297208
0.5950769133187448 0.345243734141305 -0.14494192447297208
0.5791729513932911 0.42647288926083865 -0.14494192447297208
-0.2380880372125481 0.3619054471612678 -0.14362026558720029
0.5441313688018617 0.32831768934418765 -0.14362026558720029
0.5714985187965763 0.37115705936167026 -0.14362026558720029
0.5668110352817057 0.3787874366621927 -0.14362026558720029
-0.29313953533456205 0.313356510757251 -0.14362026558720029
-0.12053088485276733 0.4444033948111425 -0.14362026558720029
-0.007440939526895228 0.3099818750689137 -0.14362026558720029
0.17545021708620404 0.45986680377467226 -0.14362026558720029
0.2442645897387215 0.2536615844165589 -0.14362026558720029
0.536492180442101 0.330441154620661 -0.14362026558720029
-0.29710451199187743 0.40805777545241845 -0.14362026558720029
0.6132981838239185 0.36845206417545734 -0.1431797126252764
0.3934886890015942 0.24079743792838015 -0.1431797126252764
-0.2771650849352005 0.34232727353336856 -0.14185805373950458
0.5055565514558028 0.3060873868855063 -0.14185805373950458
0.4011278773613551 0.4465092379691389 -0.14185805373950458
-0.306911220924304 0.4149215905991932 -0.14185805373950458
-0.2916945216194516 0.35165818526691733 -0.14185805373950458
-0.2902230747266257 0.3506625355729692 -0.14185805373950458
-0.22559395521238546 0.4413107130184365 -0.14185805373950458
0.016313676180043042 0.40352889100384054 -0.14185805373950458
0.04402445748505804 0.31751533071781296 -0.14185805373950458
0.2972719221174085 0.25616392524028675 -0.14185805373950458
0.35570686698699816 0.4492670995107827 -0.14185805373950458
0.35574211122395194 0.26441988774674124 -0.14185805373950458
0.6952146015640536 0.33587757817080227 -0.14141750077758067
0.6139854464445199 0.34245062836270723 -0.14141750077758067
-0.0967057806719214 0.39562537086692523 -0.1400958418918089
-0.24260811060188764 0.3488650794883196 -0.1400958418918089
-0.295826908402298 0.4359888332383955 -0.1400958418918089
0.4068374437478891 0.2638647910147171 -0.1400958418918089
-0.2846632963471457 0.43680826174757403 -0.1400958418918089
-0.2735084953512319 0.3751396581374626 -0.1400958418918089
-0.10734954023200347 0.36155300479172875 -0.1400958418918089
0.028190984033512115 0.2596002383432934 -0.1400958418918089
0.06575252956714608 0.3957046704000715 -0.1400958418918089
0.3125855430738842 0.4351341604922631 -0.1400958418918089
0.4430068419218437 0.28442099221808753 -0.1400958418918089
0.34262244401785763 0.4525448135474967 -0.1400958418918089
0.6952146015640536 0.33587757817080227 -0.13965528892988496
0.04534611637082987 0.4708982499412474 -0.13965528892988496
0.034957877528663646 0.3973347163591901 -0.13833363004411317
-0.28350904758690504 0.35775543825994444 -0.13833363004411317
0.2617721644455783 0.2453175113177197 -0.13833363004411317
0.6013327653780647 0.35742061800888225 -0.13833363004411317
-0.26383395230738244 0.27431470727155255 -0.13833363004411317
-0.13317475485998406 0.267362781532393 -0.13833363004411317
-0.19503720177334194 0.4430288695699399 -0.13833363004411317
0.03517815400962553 0.4552498087337096 -0.13833363004411317
0.09622998347304342 0.3298860578886368 -0.13833363004411317
0.19057880579867167 0.4631357067521479 -0.13833363004411317
0.5057856389960034 0.4063131857231998 -0.13833363004411317
0.09273199295536738 0.4021367436441609 -0.13833363004411317
0.6371937764786723 0.31266043707741126 -0.13789307708218926
0.42830999511206147 0.2269552638647304 -0.13789307708218926
-0.2702924587291872 0.37402946467341436 -0.13657141819641747
0.40599158206099517 0.2684553528779644 -0.13657141819641747
0.43174630821506793 0.44218300788304593 -0.13657141819641747
-0.29470790387901125 0.2936109270038206 -0.13657141819641747
0.08150670348554583 0.3114709440802166 -0.13657141819641747
0.5782830344102047 0.34942898727958227 -0.13657141819641747
0.2629880906204884 0.2505248473276606 -0.13657141819641747
0.261948385630348 0.4632326284037711 -0.13657141819641747
0.05569911097604214 0.45738208506942135 -0.13657141819641747
-0.01563522461868021 0.31034312849769136 -0.13657141819641747
-0.27465393305223407 0.2739798870204904 -0.13657141819641747
-0.28657529620189554 0.3333135599324049 -0.13657141819641747
-0.3161275888877526 0.44969003035422966 -0.13613086523449353
0.5791729513932911 0.2617765699751976 -0.13613086523449353
0.5559558102999002 0.4380858653371534 -0.13613086523449353
-0.2797643474105517 0.28510825483868885 -0.13480920634872176
-0.2435949492365972 0.35147315302290927 -0.13480920634872176
0.3094223728072703 0.3048626496513577 -0.13480920634872176
0.5341484386846658 0.4006829188698119 -0.13480920634872176
0.1810981060580688 0.4708101393488627 -0.13480920634872176
-0.29961566387484384 0.3476139090764556 -0.13480920634872176
-0.29360652147420147 0.36439016586651873 -0.13480920634872176
0.549840935188396 0.3859684499415528 -0.13480920634872176
0.3236434224181746 0.26451680939836447 -0.13480920634872176
0.13457571327890208 0.30208716599123697 -0.13480920634872176
-0.09646788207248247 0.4038284670179487 -0.13480920634872176
0.42830999511206147 0.21758910789422767 -0.13436865338679782
0.7184317426574445 0.3314015600776551 -0.13436865338679782
-0.1840057556067667 0.46111797418653633 -0.13436865338679782
-0.22501242530264598 0.2524016029454565 -0.13436865338679782
-0.26741124235820474 0.2719533433956403 -0.13304699450102606
-0.26784298426089015 0.2751165136622542 -0.13304699450102606
0.30582746063797106 0.427583082724887 -0.13304699450102606
0.3969690574007931 0.26418198914730234 -0.13304699450102606
0.5811466286627104 0.3787962477214312 -0.13304699450102606
0.2642040167953985 0.4742905077480618 -0.13304699450102606
-0.29313953533456205 0.27502840306986936 -0.13304699450102606
0.5139358687915959 0.30560277862738994 -0.13304699450102606
0.5790495965639525 0.3409175040552119 -0.13304699450102606
-0.09707584515993738 0.31911013243997755 -0.13304699450102606
-0.093533799346069 0.31301287944695044 -0.13304699450102606
0.06851920216802841 0.39448874422516156 -0.13304699450102606
-0.0974370985887151 0.4665455866774391 -0.13260644153910212
0.6952146015640536 0.33587757817080227 -0.13190155680002383
0.17591720322584337 0.2738389100726747 -0.13190155680002383
0.2898177660016556 0.43108988430180145 -0.13190155680002383
0.1440299798417895 0.42703679705210124 -0.13190155680002383
0.6371937764786723 0.40326455922668614 -0.13190155680002383
0.6371937764786723 0.27560993297960895 -0.13190155680002383
0.16855996876171384 0.24769649731210888 -0.13128478265333035
0.3106735432191344 0.4514698643204023 -0.13128478265333035
-0.27606370253039064 0.3472262224699626 -0.13128478265333035
0.29361533253343985 0.46635174337419255 -0.13128478265333035
0.27274193319748413 0.47120663701459437 -0.13128478265333035
-0.09891735654077942 0.4610298635941515 -0.13128478265333035
-0.30076991263508446 0.27842947193592205 -0.13128478265333035
0.3147706857650268 0.41991746118741063 -0.13128478265333035
0.5719038275215463 0.3338246013682367 -0.13128478265333035
-0.09704941198222194 0.39465615435069257 -0.13128478265333035
0.07491603117516384 0.3077879213185326 -0.13128478265333035
-0.10519083071857618 0.3399923428351717 -0.13128478265333035
0.617853501450212 0.36845206417545734 -0.1308442296914064
0.22603450817430937 0.4380858653371534 -0.13013934495232812
0.271596495496482 0.26400576796253267 -0.13013934495232812
0.06658076913556314 0.29628067795307966 -0.13013934495232812
0.5095391502315951 0.44969003035422966 -0.13013934495232812
-0.28311254992117346 0.43823565334420744 -0.12952257080563462
-0.2769183752765231 0.2752486795508314 -0.12952257080563462
0.31082333122618844 0.4278121702650874 -0.12952257080563462
0.2328014016694609 0.24316761286353095 -0.12952257080563462
-0.058650815820932525 0.25276285637423407 -0.12952257080563462
0.19308995768163803 0.23677078385639552 -0.12952257080563462
-0.2991662998536814 0.3461865174798222 -0.12952257080563462
-0.3060301150004562 0.36561490310066735 -0.12952257080563462
0.32255085107260334 0.2957960696949633 -0.12952257080563462
0.6052008203837567 0.35683908809914267 -0.12952257080563462
-0.09585991898502742 0.396982273989651 -0.12952257080563462
0.15375738924106983 0.29526740614065455 -0.12952257080563462
-0.10007160530102012 0.33487311741761566 -0.12952257080563462
0.04379536994485763 0.4761143970104268 -0.12837713310463242
0.302197304231718 0.2758478315790479 -0.12837713310463242
0.6285677494842017 0.3538345168988215 -0.12837713310463242
0.3106206768637035 0.297152972817689 -0.1277603589579389
0.3125150545999763 0.29323205145656606 -0.1277603589579389
0.3122419117635835 0.4522716707111038 -0.1277603589579389
-0.2560625980590443 0.36487477412463515 -0.1277603589579389
-0.2319291068048516 0.44987506259823773 -0.1277603589579389
-0.302214926350195 0.4478220857956722 -0.1277603589579389
-0.30622395830370275 0.4500072284868148 -0.1277603589579389
-0.2915975999678283 0.2730899700374041 -0.1277603589579389
0.3147178194095959 0.4629859187450938 -0.1277603589579389
0.5157157027577686 0.3017259125624594 -0.1277603589579389
0.13420564879088598 0.30191975586570596 -0.1277603589579389
0.09947245327280346 0.31144451090250114 -0.1277603589579389
0.002788700248978378 0.22919327291130398 -0.127319805996015
0.6371937764786723 0.40326455922668614 -0.1266149212569367
0.30470845611468433 0.28205962834217524 -0.1266149212569367
0.048350687571151005 0.4770659914081825 -0.1266149212569367
0.31729064870723167 0.3019726222211368 -0.1259981471102432
0.30730771859003553 0.2920954248148023 -0.1259981471102432
0.273640661239809 0.46111797418653633 -0.1259981471102432
-0.308162391336168 0.27248200694994906 -0.1259981471102432
-0.306928843042781 0.44205084199446876 -0.1259981471102432
-0.3109378749962887 0.26593538993575955 -0.1259981471102432
-0.30532523026137787 0.2633008832234544 -0.1259981471102432
-0.29002923142337916 0.2748345597666228 -0.1259981471102432
0.4445135330516235 0.2748962371812922 -0.1259981471102432
0.4186442631274504 0.4457250536969143 -0.1259981471102432
0.13824111392210914 0.2993469265680702 -0.1259981471102432
0.13359768570343092 0.41934474233690955 -0.1259981471102432
0.6310436571302143 0.36119175136295106 -0.1255575941483193
0.03374195135375356 0.41486872424376237 -0.124852709409241
0.12967676434230804 0.2872229090559237 -0.124852709409241
0.6338455739680505 0.36139440572543613 -0.124852709409241
0.31821580992727194 0.4098992868332605 -0.1242359352625475
0.31174849244622876 0.29702080692911176 -0.1242359352625475
0.3072812854123201 0.4587918545475779 -0.1242359352625475
-0.2729181543822538 0.3673330596521706 -0.1242359352625475
-0.29009971989728695 0.4467911918647702 -0.1242359352625475
-0.3155989253334439 0.4372840589464519 -0.1242359352625475
-0.31900880525873504 0.27618265183011004 -0.1242359352625475
0.47515839708305196 0.28742556341840864 -0.1242359352625475
0.6087516772568635 0.3575087286012671 -0.1242359352625475
0.04003304765002723 0.32143625207893584 -0.1242359352625475
0.13252273647633656 0.4117584203325795 -0.1242359352625475
0.10302331014591037 0.40332623664135553 -0.1242359352625475
0.07113608676185651 0.23470899599459158 -0.12379538230062356
0.7184317426574445 0.39166039420960985 -0.12309049756154528
0.3096867045844247 0.2812930661884276 -0.12309049756154528
0.03374195135375356 0.41486872424376237 -0.12309049756154528
-0.27660117714393784 0.44534617814965965 -0.1224737234148518
-0.28295395085488084 0.43987451036256453 -0.1224737234148518
-0.28312136098041196 0.27899337972718474 -0.1224737234148518
0.3625883042522499 0.25193461680581714 -0.1224737234148518
0.33446340316302636 0.24433067268301015 -0.1224737234148518
0.36368968665705975 0.24511485695523474 -0.1224737234148518
-0.2966110926745226 0.27079909463539964 -0.1224737234148518
0.33613750441833723 0.29215710222947167 -0.1224737234148518
0.5741682697458353 0.38505209978075094 -0.1224737234148518
0.03662316772473603 0.3922595462378265 -0.1224737234148518
0.04216532398573908 0.40159926903061366 -0.1224737234148518
0.0460333789914311 0.32070493416214213 -0.1224737234148518
0.09457350433620942 0.22919327291130398 -0.12203317045292786
0.7184317426574445 0.38229423823910724 -0.12132828571384958
0.30065536886498423 0.3800562291925337 -0.12132828571384958
-0.24736608259066598 0.3551826089623088 -0.12071151156715608
-0.24678455268092644 0.3509444894686005 -0.12071151156715608
0.31373979183412487 0.24488576941503432 -0.12071151156715608
-0.283729324067867 0.2667195742079841 -0.12071151156715608
0.08314556050390277 0.24663917020349155 -0.12071151156715608
0.42484724883133934 0.25998792494978656 -0.12071151156715608
0.4679773838036917 0.2682879427524333 -0.12071151156715608
0.42615128559863413 0.27045546332509895 -0.12071151156715608
0.5779482141591427 0.38538692003181324 -0.12071151156715608
0.49670143692113194 0.42093073299983563 -0.12071151156715608
0.034957877528663646 0.31977096188286347 -0.12071151156715608
0.07436093444313965 0.41313294557378216 -0.12071151156715608
0.07629936747560492 0.3982070112237995 -0.12071151156715608
0.6333521546506956 0.36845206417545734 -0.12027095860523215
0.16073574815794484 0.2872229090559237 -0.11956607386615388
0.7300359076745209 0.3800562291925337 -0.11956607386615388
0.3254585006213013 0.29272101002073425 -0.11894929971946037
0.2809362182892693 0.46388464678741853 -0.11894929971946037
0.4099301255405951 0.25921255173680036 -0.11894929971946037
0.012066745627096389 0.25034862614289094 -0.11894929971946037
0.012366321641204589 0.46296829662661676 -0.11894929971946037
0.6106460549931364 0.3386794950086384 -0.11894929971946037
0.6248847267225178 0.36837276464231117 -0.11894929971946037
0.42692665881162023 0.4440157082046494 -0.11894929971946037
0.5064112242019353 0.2909852313507541 -0.11894929971946037
-0.29485769188606537 0.3415783334980978 -0.11894929971946037
-0.09739304329252262 0.3922595462378265 -0.11894929971946037
0.034957877528663646 0.3120524739899562 -0.11894929971946037
0.06975275046141541 0.39577515887397946 -0.11894929971946037
0.148585297468083 0.4856567741656991 -0.11780386201845816
0.6836104365469773 0.33363956912422865 -0.11780386201845816
0.6836104365469773 0.41486872424376237 -0.11780386201845816
-0.2841610659705524 0.4450906574317438 -0.11718708787176466
-0.27215159222850616 0.3433229232273166 -0.11718708787176466
-0.31062948792294204 0.2785175825283069 -0.11718708787176466
0.07559448273652666 0.40154640267518277 -0.11718708787176466
-0.10023020436731274 0.3084135065244646 -0.11718708787176466
0.35029687661457226 0.24767006413439344 -0.11718708787176466
0.1301878057781397 0.2438548754841323 -0.11718708787176466
0.15114931570648024 0.4721317982346345 -0.11718708787176466
0.6342244495153051 0.3572796410610667 -0.11718708787176466
0.196015229348813 0.2470356678692231 -0.11718708787176466
0.3281811179259912 0.45315277663495174 -0.11718708787176466
0.566722924689321 0.3175593860140053 -0.11718708787176466
0.33969717235068253 0.45912667479864017 -0.11718708787176466
0.6604021065128249 0.42647288926083865 -0.11604165017076246
0.6371937764786723 0.27560993297960895 -0.11604165017076246
0.30065536886498423 0.35684789915838117 -0.11604165017076246
-0.28705990446001184 0.3476139090764556 -0.11542487602406895
-0.088819882653483 0.3160174506472716 -0.11542487602406895
0.039178374903894864 0.31496893459789266 -0.11542487602406895
0.1329809115567375 0.2942717564467065 -0.11542487602406895
0.5051512427308329 0.42879900889979694 -0.11542487602406895
0.1414923947811077 0.24165211067451267 -0.11542487602406895
0.19267583789742956 0.4746517611768394 -0.11542487602406895
0.5690049890320867 0.30940034515917414 -0.11542487602406895
0.3160306672361292 0.2515469301993241 -0.11542487602406895
0.2640542287883443 0.46642223184810044 -0.11542487602406895
0.6097032716546192 0.3412963796024665 -0.11542487602406895
0.6108222761779061 0.36402010137850266 -0.11542487602406895
0.2817380246799708 0.42886068631446633 -0.11427943832306674
0.3168589068045463 0.2742177856199294 -0.11427943832306674
0.6497495358935044 0.36206404622756044 -0.11427943832306674
-0.2769448084542385 0.3463539276053532 -0.11366266417637325
0.039019775837602244 0.39530817273434 -0.11366266417637325
0.15032107613806317 0.41228708388688823 -0.11366266417637325
0.10214220422206258 0.4014054257273672 -0.11366266417637325
0.5790495965639525 0.3963302556060035 -0.11366266417637325
0.065823018041054 0.24485052517808037 -0.11366266417637325
0.3253615789696781 0.24898291196092676 -0.11366266417637325
-0.024560827627259026 0.46020162402573456 -0.11366266417637325
0.6402512140344244 0.36224026741233 -0.11366266417637325
0.34607637923934115 0.289126097851435 -0.11366266417637325
0.5076447724953222 0.28784849426185566 -0.11366266417637325
0.6497495358935044 0.3516317520892019 -0.11322211121444932
0.4631224901632901 0.46129419537130584 -0.11251722647537103
0.1636962640620736 0.40326455922668614 -0.11251722647537103
0.03374195135375356 0.42647288926083865 -0.11251722647537103
-0.25105791641158853 0.35175510691854056 -0.11190045232867753
0.10196598303729291 0.3025277189531609 -0.11190045232867753
-0.09898784501468721 0.4059078769982297 -0.11190045232867753
0.5595683445876762 0.30571732239749017 -0.11190045232867753
0.11283883013757552 0.2398898988268169 -0.11190045232867753
0.3271061686988967 0.4700083329581611 -0.11190045232867753
0.4892208476276635 0.27348646770313567 -0.11190045232867753
0.3313883434887974 0.2537056397127513 -0.11190045232867753
0.2623008279998871 0.4678672455632108 -0.11190045232867753
0.34861396430002284 0.42473711059085834 -0.11190045232867753
0.583261282879945 0.3915546614987481 -0.11190045232867753
0.06855444640498225 0.42647288926083865 -0.11075501462767533
0.23058982580060275 0.21758910789422767 -0.11075501462767533
0.4979349852145188 0.48450252540545835 -0.11075501462767533
-0.30154528584807055 0.35133217607509354 -0.11013824048098182
-0.09697011244907563 0.3187841232481539 -0.11013824048098182
-0.09543698814158043 0.40250680813217704 -0.11013824048098182
0.046227222294677676 0.3272074958801393 -0.11013824048098182
0.3192555149174124 0.4131505676922591 -0.11013824048098182
0.09998349470863528 0.24194287562938246 -0.11013824048098182
0.3310094679415428 0.24841019311042567 -0.11013824048098182
0.035186965068864054 0.4644573656379196 -0.11013824048098182
0.6452999509780725 0.3623107558862379 -0.11013824048098182
0.6071480644754605 0.37815304039702236 -0.11013824048098182
0.33197868445777556 0.415044945428532 -0.11013824048098182
0.21028033425590975 0.22317531945142308 -0.1096976875190579
0.2454188384989622 0.4961066904225347 -0.10899280277997961
0.30065536886498423 0.40326455922668614 -0.10899280277997961
0.06855444640498225 0.4210188435922204 -0.10899280277997961
-0.3029550553262272 0.3482835495785801 -0.1083760286332861
0.13319237697846098 0.30143514760758955 -0.1083760286332861
0.10338456357468796 0.4078022547345026 -0.1083760286332861
0.33678071174274626 0.24296495850104596 -0.1083760286332861
0.18447274174640607 0.4761672633658577 -0.1083760286332861
0.2040861596112593 0.23416271032180583 -0.1083760286332861
0.25103148323387303 0.23275294084364928 -0.1083760286332861
0.30984530365071733 0.29109096406161583 -0.1083760286332861
0.05569911097604214 0.462439633072308 -0.1083760286332861
0.6341539610413972 0.3562839913671186 -0.1083760286332861
0.4510160947696206 0.2701911315479447 -0.1083760286332861
0.4631224901632901 0.46129419537130584 -0.1072305909322839
0.4979349852145188 0.22919327291130398 -0.1072305909322839
0.24262573272036442 0.40326455922668614 -0.1072305909322839
-0.28330639322442 0.36725376011902433 -0.1066138167855904
0.036288347473673876 0.393264006991013 -0.1066138167855904
0.06855444640498225 0.4029914163902933 -0.1066138167855904
0.10552565096963834 0.41844601429458467 -0.1066138167855904
0.5360163832432231 0.2914610285496318 -0.1066138167855904
0.3383402692279569 0.4703431532092233 -0.1066138167855904
0.31595136770298293 0.2403833181441717 -0.1066138167855904
0.37240382424391505 0.4704576969793236 -0.1066138167855904
0.48315002781235183 0.265115961426581 -0.1066138167855904
0.4787621203115896 0.42987395812689133 -0.1066138167855904
0.6367884677537023 0.357561594956698 -0.1066138167855904
0.3563676964298842 0.2579261370879825 -0.1066138167855904
0.625589611461596 0.40326455922668614 -0.10546837908458818
0.6836104365469773 0.29882707407299997 -0.10546837908458818
0.16203978492523974 0.41486872424376237 -0.10546837908458818
-0.3014131199594934 0.36686607351253125 -0.10485160493789471
0.13506913259625686 0.3000870555441024 -0.10485160493789471
0.134813611878341 0.29644808807861067 -0.10485160493789471
-0.10983425893725439 0.36906002726291237 -0.10485160493789471
0.3393799742180973 0.4704048306238927 -0.10485160493789471
0.10275897836875601 0.24109701394248848 -0.10485160493789471
0.19765408636716994 0.23956388963499317 -0.10485160493789471
0.3490897614989007 0.42657862197170043 -0.10485160493789471
0.44154420608825606 0.46087126452785887 -0.10485160493789471
0.3659100735851564 0.2647194637608494 -0.10485160493789471
0.5408536547651479 0.4181552493397149 -0.10485160493789471
0.25193902233543625 0.21965970681527025 -0.10441105197597077
0.6693717648175959 0.36845206417545734 -0.10370616723689248
0.3088144097198153 0.35684789915838117 -0.10370616723689248
-0.27319129721864666 0.36595853441096804 -0.10308939309019899
0.13498102200387202 0.30004300024791 -0.10308939309019899
0.13519248742559553 0.29509118495588504 -0.10308939309019899
-0.10008922741949704 0.3788050587806697 -0.10308939309019899
0.34092190958483115 0.4716119457395643 -0.10308939309019899
0.3145504092840649 0.4173005765935825 -0.10308939309019899
0.304831810944023 0.24221601846577523 -0.10308939309019899
0.35064050792487306 0.42394411525939524 -0.10308939309019899
0.3929952696842393 0.4717529226873799 -0.10308939309019899
0.3577774659080407 0.28673830079780743 -0.10308939309019899
0.641017776188172 0.3600551247211874 -0.10308939309019899
0.27361422806209357 0.4961066904225347 -0.10194395538919677
0.6674421428443691 0.35742942906812075 -0.10194395538919677
0.30065536886498423 0.40326455922668614 -0.10194395538919677
0.034957877528663646 0.31570906357392486 -0.10132718124250328
0.04353103816770326 0.32143625207893584 -0.10132718124250328
-0.09930504314727245 0.3068275158615384 -0.10132718124250328
0.3575660004863172 0.2578556486140747 -0.10132718124250328
0.26228320588141013 0.4794537884618101 -0.10132718124250328
0.19612096205967472 0.2343565536250524 -0.10132718124250328
0.6563049639669324 0.3571122309355355 -0.10132718124250328
0.24763922542705874 0.2232017526291385 -0.10132718124250328
0.31511431707532744 0.3049507602437425 -0.10132718124250328
0.6436434718412386 0.35358780724014405 -0.10132718124250328
0.2807071307490687 0.21758910789422767 -0.10088662828057934
0.3034484746435819 0.21758910789422767 -0.10018174354150106
0.3423581122407032 0.45071211322589316 -0.10018174354150106
-0.2593931784511892 0.3631125622769394 -0.09956496939480756
0.07023735871953167 0.31333888863877407 -0.09956496939480756
-0.12037228578647471 0.3974492601292903 -0.09956496939480756
0.31510550601608905 0.29628948901231805 -0.09956496939480756
0.20702024233767263 0.47902204655912484 -0.09956496939480756
0.23857264547066434 0.23430368726962153 -0.09956496939480756
0.5248351490695938 0.2792929557412929 -0.09956496939480756
0.19702850116123796 0.24165211067451267 -0.09956496939480756
0.3137750360710787 0.424860465420197 -0.09956496939480756
0.4910359258307902 0.43963661176312563 -0.09956496939480756
0.29437308362794895 0.4907231332278241 -0.09912441643288364
0.24262573272036442 0.40326455922668614 -0.09841953169380536
0.672006271529901 0.34971975223445206 -0.09841953169380536
0.03662316772473603 0.3922595462378265 -0.09780275754711186
0.13113940017589545 0.41241043871622685 -0.09780275754711186
0.1559865872284049 0.4151242449616783 -0.09780275754711186
0.5055124961596105 0.2752663016693083 -0.09780275754711186
0.21500306200773425 0.4797709865943953 -0.09780275754711186
0.31120220677344296 0.296359977486226 -0.09780275754711186
0.17220774728644397 0.47485441553932434 -0.09780275754711186
0.6040553826827545 0.4026477850799926 -0.09780275754711186
0.6488331857327024 0.3592004519750549 -0.09780275754711186
0.36515232249064716 0.2571331417565195 -0.09780275754711186
0.24262573272036442 0.44031506332448844 -0.09665731984610963
0.6371937764786723 0.28498490000935006 -0.09665731984610963
0.32147590184550906 0.30011348872181787 -0.09604054569941615
0.23533017567090428 0.47999126307535733 -0.09604054569941615
0.22313566968485 0.2326031528365952 -0.09604054569941615
0.6053770415685263 0.3992114719769861 -0.09604054569941615
0.5133367167633794 0.26980344494145153 -0.09604054569941615
0.3783601002891265 0.45799885921611494 -0.09604054569941615
0.6269200814066064 0.33579827863765593 -0.09604054569941615
-0.11403713419400868 0.31690736763035793 -0.09604054569941615
0.07262515577315937 0.40692114881065483 -0.09604054569941615
0.0460333789914311 0.3929908641546202 -0.09604054569941615
0.0640079398379274 0.41486872424376237 -0.09489510799841394
0.6604021065128249 0.2965890650264264 -0.09489510799841394
0.6613360787921037 0.3567774106844734 -0.09427833385172044
0.23007878436477106 0.4817094196268606 -0.09427833385172044
0.2311361114733885 0.2326031528365952 -0.09427833385172044
0.6103376679197897 0.39759023707710595 -0.09427833385172044
0.5425453781389359 0.27971588658473995 -0.09427833385172044
0.6037029403132155 0.389580984229329 -0.09427833385172044
0.6551066599104991 0.3551914200215472 -0.09427833385172044
0.13658463478527513 0.2985627422958456 -0.09427833385172044
0.09771024142510785 0.4030795269826781 -0.09427833385172044
-0.0997632182276734 0.39788100203197574 -0.09427833385172044
0.24262573272036442 0.44031506332448844 -0.09313289615071824
0.6952146015640536 0.3197973950605789 -0.09313289615071824
0.36273809225930403 0.4687042961908663 -0.09251612200402473
0.23645799125342953 0.482211650003454 -0.09251612200402473
0.2989107791357654 0.29358449382610513 -0.09251612200402473
0.32007494342659104 0.47324199169868286 -0.09251612200402473
0.4573424353028481 0.46185810316256853 -0.09251612200402473
0.37380478266283307 0.2937519039516363 -0.09251612200402473
0.6565869178625635 0.354856599770485 -0.09251612200402473
0.034957877528663646 0.3129159577953271 -0.09251612200402473
0.07302165343889092 0.417512042015306 -0.09251612200402473
0.3070874421090735 0.2184085364034062 -0.0920755690421008
0.5224032967197739 0.26400576796253267 -0.09137068430302252
0.3113519947804972 0.4932783404069831 -0.09137068430302252
0.3657426634596253 0.4728454940329512 -0.09075391015632901
0.3136957365379324 0.4782026180499462 -0.09075391015632901
0.36566336392647886 0.24944989810056623 -0.09075391015632901
0.2965494152598532 0.30006943342562536 -0.09075391015632901
0.3617248204468789 0.4630387851005247 -0.09075391015632901
0.37843939982227287 0.2589394089004076 -0.09075391015632901
0.5383248807637045 0.4272130182368709 -0.09075391015632901
0.034957877528663646 0.31283665826218077 -0.09075391015632901
-0.12114765899946077 0.4007445962844813 -0.09075391015632901
0.30848840052799165 0.4961066904225347 -0.0903133571944051
0.5559558102999002 0.27560993297960895 -0.08960847245532681
0.3126031651923611 0.4961066904225347 -0.08960847245532681
0.3643945713961379 0.4728366829737127 -0.08899169830863331
0.31521123872695067 0.41782924014789125 -0.08899169830863331
0.2800374902469444 0.225712904512105 -0.08899169830863331
0.35752194519012487 0.24766125307515505 -0.08899169830863331
0.2919940976335598 0.28695857727876933 -0.08899169830863331
0.434856612126251 0.45868612183671625 -0.08899169830863331
0.39607914041770675 0.24746740977190848 -0.08899169830863331
0.034957877528663646 0.3128102250844653 -0.08899169830863331
-0.12124458065108412 0.4007886515806736 -0.08899169830863331
0.3133080499314394 0.4940977689161615 -0.08855114534670938
0.30159815220350145 0.33363956912422865 -0.0878462606076311
0.7184317426574445 0.38229423823910724 -0.0878462606076311
0.6661028618401205 0.3599405809510871 -0.0872294864609376
0.31080570910771144 0.47930400045475596 -0.0872294864609376
0.3796993812933753 0.2383391524008447 -0.0872294864609376
0.254934782476519 0.23808363168292884 -0.0872294864609376
0.3269387585733658 0.3248196988265116 -0.0872294864609376
0.394352172806965 0.2849937110685886 -0.0872294864609376
0.38363792477297526 0.4636379371287412 -0.0872294864609376
-0.09479378081717144 0.40093843958772785 -0.0872294864609376
0.13106010064274914 0.41290385803358165 -0.0872294864609376
0.08978028811047711 0.40890363713931244 -0.0872294864609376
0.5095391502315951 0.25463961199203006 -0.08608404875993539
0.30065536886498423 0.3714390132573017 -0.08608404875993539
0.5095391502315951 0.46129419537130584 -0.08608404875993539
0.3653725989716092 0.4732331806394443 -0.08546727461324188
0.2752883293174045 0.23233001000020229 -0.08546727461324188
0.5191608269200139 0.44285264838517024 -0.08546727461324188
0.6777246489756735 0.3592092630342934 -0.08546727461324188
0.3828008741453198 0.2789052691347999 -0.08546727461324188
0.3773468284767016 0.4690831717381209 -0.08546727461324188
0.4233493687607979 0.262869141320769 -0.08546727461324188
0.036464568658443414 0.4008238958176276 -0.08546727461324188
0.06744425294093404 0.407846310030695 -0.08546727461324188
0.31909691585111977 0.2216686283216433 -0.08502672165131797
0.36447387092928435 0.26327445004573896 -0.08432183691223968
0.6836104365469773 0.41486872424376237 -0.08432183691223968
0.41245889954203846 0.24646294901872187 -0.08370506276554618
0.29421448456165633 0.4808459358214898 -0.08370506276554618
0.29913986667596587 0.23668267326401068 -0.08370506276554618
0.37681816492239284 0.2867559229162843 -0.08370506276554618
0.3176254689582938 0.41019005178813034 -0.08370506276554618
0.38595523335269494 0.4616378266816065 -0.08370506276554618
0.647150273418153 0.3399835317759332 -0.08370506276554618
0.4177543461443641 0.3790782016170625 -0.08370506276554618
0.03556584061611857 0.32007934895621015 -0.08370506276554618
0.1361793260603052 0.4158203186415181 -0.08370506276554618
0.09096978110767176 0.38584509511221404 -0.08370506276554618
0.31836559793432606 0.4961066904225347 -0.08326450980362225
0.28833750804959113 0.29882707407299997 -0.08255962506454396
0.625589611461596 0.3057437555752056 -0.08255962506454396
0.5892968584583028 0.3015320692592128 -0.08194285091785046
0.3048494330625 0.4806256593405278 -0.08194285091785046
0.3209384272319618 0.23803957638673648 -0.08194285091785046
0.29793275156029425 0.29979629058923263 -0.08194285091785046
0.31768714637296325 0.4249926313087742 -0.08194285091785046
0.41284658614853165 0.3494201762203437 -0.08194285091785046
0.43601086088649166 0.25396116043066713 -0.08194285091785046
0.4433945285283366 0.44218300788304593 -0.08194285091785046
0.036288347473673876 0.3204317913257494 -0.08194285091785046
0.0418216926754384 0.3974052048330979 -0.08194285091785046
0.10080292321781383 0.40437475269073453 -0.08194285091785046
0.30065536886498423 0.3422039187040298 -0.08150229795592655
0.1618547526812317 0.3104312390900762 -0.08079741321684826
0.7184317426574445 0.3670599168157779 -0.08079741321684826
-0.09195661974238144 0.3962509560728572 -0.08018063907015477
0.07573545968434237 0.4113531116076095 -0.08018063907015477
0.13113940017589545 0.29339946158209723 -0.08018063907015477
0.07529490672241834 0.31194674127909444 -0.08018063907015477
0.32103534888358504 0.412154917998311 -0.08018063907015477
0.39725982235566304 0.465364904739483 -0.08018063907015477
0.3206652843955689 0.4798855303644956 -0.08018063907015477
0.6684642257160327 0.3684696862939344 -0.08018063907015477
0.5211961816041023 0.4477515973217643 -0.08018063907015477
0.42460053917266205 0.4023658311843613 -0.08018063907015477
0.6698123177795199 0.3551209315476394 -0.08018063907015477
0.4725327014299853 0.2895930839910745 -0.08018063907015477
0.321881210570479 0.282975978502977 -0.07903520136915254
0.30349252993977427 0.3813073996043976 -0.07903520136915254
0.7300359076745209 0.3430057250947314 -0.07903520136915254
-0.11512089448034146 0.3971144398782281 -0.07841842722245906
-0.11810784356218568 0.3990881171476473 -0.07841842722245906
0.0775241047097534 0.308052253095687 -0.07841842722245906
0.3168148515083538 0.4181552493397149 -0.07841842722245906
0.31720253811484694 0.3733862573490054 -0.07841842722245906
0.5471623731798986 0.43182120221859516 -0.07841842722245906
0.3080566586253061 0.23279699613984176 -0.07841842722245906
0.4086437108917773 0.45986680377467226 -0.07841842722245906
0.40527788626267847 0.25592602664084796 -0.07841842722245906
0.43969388364817574 0.4356540129873333 -0.07841842722245906
0.4363544921967922 0.31353273194202064 -0.07841842722245906
0.4704004250942733 0.35814312486643757 -0.07841842722245906
0.6567983832842871 0.39166039420960985 -0.07727298952145684
0.12749162165116532 0.28568097368918993 -0.07727298952145684
0.2875621348366051 0.4299973129562301 -0.07727298952145684
0.10372819488498865 0.30148801396302044 -0.07665621537476335
0.13101604534655678 0.4205606685118195 -0.07665621537476335
0.07529490672241834 0.3887615557201505 -0.07665621537476335
0.387796744733537 0.4198205395357874 -0.07665621537476335
