0.49140648873136444 0.14472036588225953 -0.11956013175560917
0.6117031108985882 0.44876656334204384 -0.11956013175560917
0.3890343215169416 0.5208852348170272 -0.11956013175560917
0.21955544355073056 0.4884509622743657 -0.11956013175560917
0.4984748837207561 0.18574383829024418 -0.11956013175560917
0.18214746952703553 0.2864517284706289 -0.11956013175560917
0.23941199023270207 0.3449501097360133 -0.11956013175560917
0.22297008091367074 0.22198490542800445 -0.11956013175560917
0.3913681352888111 0.20534213508762356 -0.11956013175560917
0.2462125705269611 0.21483042714374875 -0.11956013175560917
0.4519707748730943 0.19504083413556028 -0.11956013175560917
0.5872363255361204 0.2205501838469371 -0.11956013175560917
0.16935931783445557 0.3562270213632024 -0.11956013175560917
0.2666334410308192 0.44160252024724783 -0.11956013175560917
0.45620798594251305 0.5076571018395868 -0.11956013175560917
0.6090249639472625 0.4361314486181111 -0.11956013175560917
0.6066337613121503 0.43317592216111245 -0.11956013175560917
0.582606957234543 0.4491395909531214 -0.11956013175560917
0.6141038783442408 0.4190678266139505 -0.11956013175560917
0.614170832018024 0.2174511852318317 -0.11956013175560917
0.31384534585847407 0.4703065166791345 -0.11956013175560917
0.24309444229077487 0.4488335170158271 -0.11956013175560917
0.4192112987720574 0.1220039408486938 -0.11956013175560917
0.011195610737595282 0.22945502246009483 -0.11831670638535084
0.17895282280652564 0.09431381433409462 -0.11831670638535084
0.3111863285282294 0.043763790627823096 -0.11831670638535084
0.3789051871546064 0.08795321532469629 -0.11831670638535084
0.3178338718538412 0.15202788113516233 -0.11831670638535084
0.2569729823849659 0.17529906518007418 -0.11831670638535084
0.13978492364338807 0.25353921540094476 -0.11831670638535084
0.29259233683759706 0.6397853946453456 -0.11831670638535084
0.3062126270471961 0.6315405279594788 -0.11831670638535084
0.13635115665936703 0.07141565790026043 -0.11764716964751944
0.292506253542733 0.05757537704823109 -0.11764716964751944
0.27392182666264114 0.06332382818304078 -0.11764716964751944
0.3499046815959659 0.070191362151083 -0.11764716964751944
0.4332906998875979 0.05538503543446834 -0.11764716964751944
0.5561124320374999 0.11418949063714712 -0.11764716964751944
0.5253328717183361 0.10685328095262298 -0.11764716964751944
0.257441658101448 0.24258750733213097 -0.11764716964751944
0.5918083049744547 0.20692032882679767 -0.11764716964751944
0.40076077923953174 0.5064041116587881 -0.11764716964751944
0.21593038035590043 0.22328571966150543 -0.11764716964751944
0.6460407807387991 0.26890030112890534 -0.11764716964751944
0.34749434933977275 0.5099239619376731 -0.11764716964751944
0.15918235941941816 0.2729653456085962 -0.11764716964751944
0.6245008274017085 0.22024410990964274 -0.11764716964751944
0.4058301288259696 0.5133577289216941 -0.11764716964751944
0.12331431989273542 0.3449596745465538 -0.11764716964751944
0.5614304666979896 0.4612295114762485 -0.11764716964751944
0.19112882662451683 0.2987616396361863 -0.11764716964751944
0.2818797490322944 0.2442135251240073 -0.11764716964751944
0.5152898206508648 0.17248701088118215 -0.11764716964751944
0.5793070975980883 0.21869461060209 -0.11764716964751944
0.5982645520892577 0.21806333310642037 -0.11764716964751944
0.6438886983671982 0.3237449247678385 -0.11764716964751944
0.3664709334520231 0.4591156883468093 -0.11764716964751944
0.209674994262447 0.4063370637846132 -0.11764716964751944
0.3538549483491712 0.4512916733247223 -0.11764716964751944
0.45668622646953555 0.4805695583890358 -0.11764716964751944
0.5710909253438428 0.44732227695043614 -0.11764716964751944
0.21739379636858916 0.313013207341455 -0.11764716964751944
0.2074463934065224 0.2649309047546192 -0.11764716964751944
0.29214279074219596 0.20297006207359222 -0.11764716964751944
0.4731855246518096 0.19234355756315377 -0.11764716964751944
0.289158569853576 0.25121496643961577 -0.11764716964751944
0.3097229125155407 0.44484499102045993 -0.11764716964751944
0.6952421661588675 0.2740939932523691 -0.11764716964751944
0.6374611456840167 0.45045953480770323 -0.11764716964751944
0.6040608272767696 0.5531664703910417 -0.11764716964751944
0.5049215660250186 0.5412965405103449 -0.11764716964751944
0.5462224179386761 0.5217460677656677 -0.11764716964751944
0.3323915134964042 0.5857537799023507 -0.11764716964751944
0.3242709893475632 0.5301152769885603 -0.11764716964751944
0.25565303853038407 0.596227247444142 -0.11764716964751944
0.03960309804272801 0.4893883137073295 -0.11764716964751944
0.029225278606341193 0.39095684843557177 -0.11764716964751944
0.0021759943979521466 0.2802346016193371 -0.11764716964751944
0.3029988507056052 0.6279824184384317 -0.11716892912049699
0.15088966868084908 0.07492594336860517 -0.11640374427726109
0.30391707251748834 0.02851748262634787 -0.11640374427726109
0.39638009601200624 0.16108575671696732 -0.11640374427726109
0.4329176722765205 0.1635821722680244 -0.11640374427726109
0.23870419425270886 0.19255398339504357 -0.11640374427726109
0.20033017436442854 0.20241530306224628 -0.11640374427726109
0.16547600475503332 0.28971332886492185 -0.11640374427726109
0.3023675732099357 0.6309762041375924 -0.11640374427726109
0.38212852830673766 0.6045581974248729 -0.11640374427726109
0.00630799255142602 0.39226722747961323 -0.11573420753942967
-0.012219045465423154 0.30177455495642774 -0.11573420753942967
0.036915386280861995 0.19140620613018983 -0.11573420753942967
0.22858462470091417 0.0585509877233569 -0.11573420753942967
0.26908203252917406 0.06882359424379882 -0.11573420753942967
0.4399478080237503 0.06063611642117462 -0.11573420753942967
0.5335873032147433 0.10529421683452987 -0.11573420753942967
0.6903449831621578 0.26451005309083947 -0.11573420753942967
0.5214782530705353 0.5502492031762047 -0.11573420753942967
0.4344767363946136 0.5943621093887546 -0.11573420753942967
0.33066028278858306 0.5902970649090638 -0.11573420753942967
0.28781949637791315 0.5903257593406852 -0.11573420753942967
0.3403781302976789 0.5218417158710721 -0.11573420753942967
0.22146840565882034 0.2582068429446837 -0.11573420753942967
0.3606459638328897 0.19782419400283086 -0.11573420753942967
0.5932334617449815 0.44243465876426674 -0.11573420753942967
0.17110967816335773 0.3929080697858232 -0.11573420753942967
0.5318082484542198 0.17822589720545146 -0.11573420753942967
0.48896746204355007 0.49161691456325407 -0.11573420753942967
0.1763224999079022 0.33978511204417094 -0.11573420753942967
0.5618321887406884 0.18444302405674307 -0.11573420753942967
0.4866623427033018 0.4992400685639917 -0.11573420753942967
0.16328566314127055 0.39510797621012644 -0.11573420753942967
0.20325700638980584 0.2634100998786878 -0.11573420753942967
0.3772600397416493 0.4673127309799739 -0.11573420753942967
0.2755478444545174 0.20632731057328987 -0.11573420753942967
0.2159112507348196 0.2417649336256524 -0.11573420753942967
0.24952199497395638 0.30345796161154664 -0.11573420753942967
0.2546965574763391 0.21580603781887456 -0.11573420753942967
0.28504570132118295 0.44504585204180935 -0.11573420753942967
0.31091851383309677 0.4358062450597358 -0.11573420753942967
0.4358158098702764 0.48733187944113326 -0.11573420753942967
0.6346777858167458 0.2967147701805303 -0.11573420753942967
0.5345629138898691 0.4701726093315681 -0.11573420753942967
0.5686327690349476 0.44319984360750275 -0.11573420753942967
0.4500578127650045 0.20091362780739586 -0.11573420753942967
0.516274996136531 0.18456736659376893 -0.11573420753942967
0.4080300352502728 0.22111450766882354 -0.11573420753942967
0.5206078553113543 0.5803496619469971 -0.11525596701240724
0.3105933102747216 0.6307370838740811 -0.11449078216917134
0.1527739363573175 0.3367721967239296 -0.11449078216917134
0.22410829336798416 0.19593992632636242 -0.11449078216917134
0.41675314246316203 0.18494995901538694 -0.11449078216917134
0.28946464379087034 0.1772215920987043 -0.11449078216917134
0.3604355380009999 0.1705740487730925 -0.11449078216917134
0.3085751352506869 -0.0010760411858005913 -0.11449078216917134
-0.007608806784926871 0.2474559958972194 -0.11449078216917134
0.2498376337217912 0.22797247682632527 -0.11382124543133994
0.4610286504548992 0.19722161093878254 -0.11382124543133994
0.47613148629826774 0.48822140682139487 -0.11382124543133994
0.17498342643223935 0.24418483069238595 -0.11382124543133994
0.639689746539941 0.3690534322979441 -0.11382124543133994
0.2353373809424709 0.43065081217843393 -0.11382124543133994
0.43012474759870944 0.18998104935966295 -0.11382124543133994
0.49819750421508313 0.48846052708490617 -0.11382124543133994
0.16366825556288858 0.3263943772875428 -0.11382124543133994
0.3703733761525262 0.24150668374106027 -0.11382124543133994
0.41283157014157806 0.20900545752461538 -0.11382124543133994
0.36443362880690744 0.44130601112049384 -0.11382124543133994
0.38545708237481385 0.21660948190427215 -0.11382124543133994
0.22664296816120305 0.22424220071555026 -0.11382124543133994
0.27165496656455485 0.2807032773358192 -0.11382124543133994
0.2258203944547245 0.39258286622744804 -0.11382124543133994
0.2659830339140687 0.3678482661698476 -0.11382124543133994
0.5201200499737916 0.19471563057718497 -0.11382124543133994
0.506595407869597 0.1867098841548295 -0.11382124543133994
0.5938647392406512 0.22954110575495887 -0.11382124543133994
0.18360132072918375 0.38984733041287967 -0.11382124543133994
0.4428172511858849 0.45709751332277465 -0.11382124543133994
0.3111385044755272 0.43327157026651686 -0.11382124543133994
0.5361411076290431 0.465610194703774 -0.11382124543133994
0.5535299331915791 0.1022908663248289 -0.11382124543133994
0.3876091647464147 0.07227649084890085 -0.11382124543133994
0.2569729823849659 0.06999050112973357 -0.11382124543133994
0.1410283490136464 0.08217606975826526 -0.11382124543133994
0.020511736203992385 0.34574398901087056 -0.11382124543133994
0.027207103582306526 0.4027885190741068 -0.11382124543133994
0.2896463751911389 0.590344888961766 -0.11382124543133994
0.4389052436748413 0.5980541262573678 -0.11382124543133994
0.525715464139954 0.5470832508873164 -0.11382124543133994
0.037517969344910154 0.20241530306224628 -0.1133430049043175
0.3126019204882158 0.00984697245139196 -0.1125778200610816
0.20128665541847338 0.20241530306224628 -0.1125778200610816
0.41180813541375005 0.1822622472535208 -0.1125778200610816
0.14563858769414265 0.07643718343399594 -0.1125778200610816
0.14472993069280005 0.2799285276820428 -0.1125778200610816
0.27686778830909925 0.6433339393558521 -0.1125778200610816
0.3886134698531619 0.5899144724874459 -0.1125778200610816
0.25220970673582255 0.6044625493194683 -0.11190828332325017
0.4476761749404328 0.6090632231894241 -0.11190828332325017
0.5269397598891316 0.5499526940494511 -0.11190828332325017
0.23374005758221594 0.3091107646409519 -0.11190828332325017
0.22099016513179778 0.25442874278120653 -0.11190828332325017
0.39719310490794446 0.20648034754193695 -0.11190828332325017
0.49264034929108225 0.476992319246908 -0.11190828332325017
0.2108705955800031 0.22338136776690984 -0.11190828332325017
0.6085371586096997 0.41207595010888254 -0.11190828332325017
0.17149227058497563 0.3354331232482668 -0.11190828332325017
0.6226452541568616 0.24423265474508812 -0.11190828332325017
0.24648995003263421 0.4334915609089473 -0.11190828332325017
0.2778529637947656 0.3875709055042529 -0.11190828332325017
0.6203305700060727 0.2704019763837559 -0.11190828332325017
0.6351847207753899 0.2960739278743203 -0.11190828332325017
0.24355355319671643 0.41938346536178533 -0.11190828332325017
0.251004540607726 0.3553566236040215 -0.11190828332325017
0.2701437264991639 0.2804163330196057 -0.11190828332325017
0.341018972603889 0.24275010911131858 -0.11190828332325017
0.5555289785945329 0.20762812480679085 -0.11190828332325017
0.5752611827394785 0.4363323096394605 -0.11190828332325017
0.6156438128412531 0.38248242629673407 -0.11190828332325017
0.2830753503498505 0.42781006344792066 -0.11190828332325017
0.3712820331538688 0.4379678922418772 -0.11190828332325017
0.2539696318752651 0.3459831092743818 -0.11190828332325017
0.5115595445400899 0.09748933143352367 -0.11190828332325017
0.36220502795098297 0.08051179272422712 -0.11190828332325017
0.1855334124583544 0.08009094106044741 -0.11190828332325017
0.01178862899110308 0.38166941740079596 -0.11190828332325017
0.28118151786284173 0.6092162601580714 -0.11143004279622776
0.39024905245557856 0.6039556143608246 -0.11066485795299186
0.27494526139046915 0.455165421593604 -0.11066485795299186
0.16120053444345284 0.31293668885713133 -0.11066485795299186
0.30134413848210767 0.1864611990807777 -0.11066485795299186
0.37765219697380764 0.04016742186461446 -0.11066485795299186
0.024921113863139235 0.22760901402578823 -0.11066485795299186
0.5366193481560656 0.5619182720355524 -0.10999532121516044
0.3560165955313126 0.5815261336434723 -0.10999532121516044
0.27201842936509185 0.5987810518584418 -0.10999532121516044
0.031463444272806146 0.2187424346547922 -0.10999532121516044
0.29280276266948696 0.04930181593074299 -0.10999532121516044
0.2950887523886541 0.24227186858429617 -0.10999532121516044
0.23957459201188966 0.3894743028018022 -0.10999532121516044
0.2661743301248776 0.22209011834394934 -0.10999532121516044
0.55994792106422 0.20573429231978194 -0.10999532121516044
0.21084190114838175 0.4025207043789743 -0.10999532121516044
0.5773654410583772 0.21016279960000978 -0.10999532121516044
0.20379263578007095 0.4025685284316765 -0.10999532121516044
0.5439172985984281 0.1903158177285786 -0.10999532121516044
0.2627309983303161 0.43425674575218315 -0.10999532121516044
0.6286328255551825 0.3307081068412851 -0.10999532121516044
0.6297327787673339 0.28548568260604357 -0.10999532121516044
0.627284187268979 0.35825476119777755 -0.10999532121516044
0.293443604975697 0.21870417541263049 -0.10999532121516044
0.38588749884913404 0.20854634661867397 -0.10999532121516044
0.2523818733255506 0.32505530381187997 -0.10999532121516044
0.2009518870495577 0.391836811005293 -0.10999532121516044
0.1835726262975624 0.38363976837212843 -0.10999532121516044
0.5189818375194782 0.45843658679843746 -0.10999532121516044
0.31911555646626133 0.42836482245926677 -0.10999532121516044
0.39637053120146576 0.4356914673332504 -0.10999532121516044
0.037517969344910154 0.22444306173689968 -0.109517080688138
-0.012879017392714142 0.24020586950755915 -0.10875189584490211
0.44416588947208807 0.18877588323156635 -0.10875189584490211
0.20128665541847338 0.20241530306224628 -0.10875189584490211
0.13829281319907802 0.342941499522519 -0.10875189584490211
0.3079438577550173 0.63668639603024 -0.10875189584490211
0.5198235408470376 0.5606365874231323 -0.1080823591070707
0.5256006864134686 0.5478675653516331 -0.1080823591070707
0.3032762302112783 0.6147829798926125 -0.1080823591070707
0.029493093301473677 0.21317571492025109 -0.1080823591070707
0.43572972657541237 0.05225734238774162 -0.1080823591070707
0.25765208393333777 0.2845387663625391 -0.1080823591070707
0.22146840565882034 0.23327138186573387 -0.1080823591070707
0.43953652117051095 0.2082020134392178 -0.1080823591070707
0.28585871021712117 0.42900566476547675 -0.1080823591070707
0.49052652616164305 0.18098056264110066 -0.1080823591070707
0.22289356242934708 0.4116264040134815 -0.1080823591070707
0.5829895496561609 0.21525127880752845 -0.1080823591070707
0.16817328132743997 0.37120551466954516 -0.1080823591070707
0.20044495209091395 0.3891395344328865 -0.1080823591070707
0.21006715149460536 0.31390273472171676 -0.1080823591070707
0.2999859353853639 0.21709728724183505 -0.1080823591070707
0.31862775112869846 0.2621092856451868 -0.1080823591070707
0.47833139272257114 0.19446694550313334 -0.1080823591070707
0.62964669547247 0.33746086308284196 -0.1080823591070707
0.5279440649958785 0.4438980747769555 -0.1080823591070707
0.6265094376152028 0.2844813774992964 -0.1080823591070707
0.341956324036853 0.4285465538595352 -0.1080823591070707
0.5915787495214841 0.24510305250426892 -0.1080823591070707
0.3963514015803849 0.2567051676898333 -0.1080823591070707
0.1385319334625893 0.07710672017182742 -0.10760411858004826
-0.034830257583044005 0.24020586950755915 -0.10683893373681236
0.3146583547544123 0.05124347247045397 -0.10683893373681236
0.1506505484173378 0.2780060007634127 -0.10683893373681236
0.24364920130212084 0.43419935688894046 -0.10683893373681236
0.2802824256720395 0.6333387123410831 -0.10683893373681236
0.39145421858367513 0.22088495221585275 -0.10616939699898094
0.25999546251574773 0.30498833129801856 -0.10616939699898094
0.22106668361612147 0.37512708699112907 -0.10616939699898094
0.2146008716907781 0.37893388158622765 -0.10616939699898094
0.48457721400548404 0.18552384764781377 -0.10616939699898094
0.18257788600135574 0.38429974029941943 -0.10616939699898094
0.6234582630527997 0.2663369319040651 -0.10616939699898094
0.18814460573589686 0.31658088167304227 -0.10616939699898094
0.6315118335278574 0.36412755486961296 -0.10616939699898094
0.16714028178907145 0.274218335789395 -0.10616939699898094
0.4102395064851164 0.23930677731675704 -0.10616939699898094
0.3234675452621655 0.20804897647057055 -0.10616939699898094
0.2911767448776107 0.2809423975993303 -0.10616939699898094
0.2871595244506222 0.2734435861356186 -0.10616939699898094
0.20671946780544836 0.249665467132063 -0.10616939699898094
0.30242496207317837 0.382692852128624 -0.10616939699898094
0.41911565066665285 0.434275875373264 -0.10616939699898094
0.6327552588981158 0.32474922987458565 -0.10616939699898094
0.3377095481568937 0.4237163245366086 -0.10616939699898094
0.45745141131277145 0.4532046354328121 -0.10616939699898094
0.14462471777685515 0.08587765143741892 -0.10616939699898094
0.2880586166414243 0.620760986480393 -0.10616939699898094
0.5221956138610688 0.556791533585872 -0.10616939699898094
0.44769530456151363 0.19415130675529851 -0.10569115647195851
-0.02836444565770064 0.22843158773226682 -0.10492597162872261
0.3326688930020772 0.4498665165541954 -0.10492597162872261
0.22881418015388483 0.4283743872698071 -0.10492597162872261
0.4406364743826625 0.17418954715738214 -0.10492597162872261
0.2966478165067474 0.041898652572435656 -0.10492597162872261
0.395882725863903 0.23008629995576446 -0.1042564348908912
0.20783855063868079 0.26688212610487067 -0.1042564348908912
0.2901150509076208 0.2600624161895308 -0.1042564348908912
0.304634433308022 0.25262099358906165 -0.1042564348908912
0.46588757420944715 0.20456738543384717 -0.1042564348908912
0.21035409581081885 0.3943236617458096 -0.1042564348908912
0.5947638314314536 0.23393135379302488 -0.1042564348908912
0.18771418926157665 0.29811123251943583 -0.1042564348908912
0.6013635507043632 0.40681530431163576 -0.1042564348908912
0.17933541522814364 0.23094713290440488 -0.1042564348908912
0.261238887886006 0.404902342203546 -0.1042564348908912
0.35244892119972515 0.42222421409229854 -0.1042564348908912
0.3042614056969445 0.25722166745901753 -0.1042564348908912
0.32322842499865434 0.2596989533889938 -0.1042564348908912
0.4067005265851505 0.24916809698395972 -0.1042564348908912
0.5575949776712695 0.4218894457233829 -0.1042564348908912
0.6244434385384658 0.3480395435405782 -0.1042564348908912
0.3278099692475293 0.20265442332575753 -0.1042564348908912
0.1412387748455363 0.07147304676350313 -0.1042564348908912
0.3722767734500755 0.5869972052726089 -0.1042564348908912
0.5526691002429386 0.5768298116681121 -0.1042564348908912
0.446423184759634 0.02888094542688489 -0.10377819436386876
0.39069859855097977 0.4537880888757795 -0.10301300952063286
0.34445273958791006 0.4543715423187468 -0.10301300952063286
0.17609294445493154 0.29343404016515645 -0.10301300952063286
0.2953948263259486 0.23692513949218535 -0.10301300952063286
0.26421354396408564 0.33036377366182895 -0.10234347278280144
0.31641827989385485 0.24913940255233838 -0.10234347278280144
0.395222753936612 0.23560519563760338 -0.10234347278280144
0.5869685108409876 0.40675791544839307 -0.10234347278280144
0.22165013705908876 0.228115948984432 -0.10234347278280144
0.37445755025329774 0.20479694088681796 -0.10234347278280144
0.4824729556865853 0.18333350603405102 -0.10234347278280144
0.17247744607064192 0.3692351636982127 -0.10234347278280144
0.6414879309215455 0.3102394122847248 -0.10234347278280144
0.16762808712663435 0.2731853362510265 -0.10234347278280144
0.29816862138267863 0.2730131696612984 -0.10234347278280144
0.27170279061725705 0.32484487797999 -0.10234347278280144
0.28029199048257997 0.34324757345981344 -0.10234347278280144
0.4111768579180804 0.4245867222957894 -0.10234347278280144
0.6040512624662291 0.38182245436944323 -0.10234347278280144
0.40533275867786633 0.24048324901323226 -0.10234347278280144
0.36720742386363764 0.2655334878186675 -0.10234347278280144
0.3005024351545481 0.41973736335178197 -0.10234347278280144
0.4563992821533221 0.20611688474139994 -0.10234347278280144
0.021143013699662025 0.22023454509910226 -0.10234347278280144
0.36389799941664236 0.5819182908756306 -0.10234347278280144
-0.025475872874485193 0.22890026344874886 -0.10186523225577902
0.28946464379087034 0.026049761506912003 -0.10110004741254312
0.35165504192486796 0.22568648710715797 -0.10110004741254312
0.29578698355810695 0.1877715781248192 -0.10110004741254312
0.26427093282732833 0.43857047530592547 -0.10110004741254312
0.3180921217384333 0.44819267470961693 -0.10110004741254312
0.32017725043625117 0.25824510218684554 -0.1004305106747117
0.3913203112361089 0.22011976737261688 -0.1004305106747117
0.18977062352777316 0.2365042878284055 -0.1004305106747117
0.383735416477533 0.26830728287539757 -0.1004305106747117
0.542147808648445 0.2078098562070593 -0.1004305106747117
0.2604067493689871 0.2064516531103156 -0.1004305106747117
0.5578054035031597 0.4303064789989777 -0.1004305106747117
0.30369708187505806 0.19280266846909533 -0.1004305106747117
0.39986168704872965 0.4323533484546339 -0.1004305106747117
0.20067450754388472 0.35458187395024526 -0.1004305106747117
0.3488142931943547 0.28775254270412987 -0.1004305106747117
0.4070639893856875 0.2258969129390479 -0.1004305106747117
0.34261629596414395 0.25953635160980604 -0.1004305106747117
0.6104788151494108 0.36848910847605765 -0.1004305106747117
0.5497900922702633 0.21512693627050258 -0.1004305106747117
0.35696351177481705 0.40714050787001094 -0.1004305106747117
0.27776688049990156 0.2904785137081577 -0.1004305106747117
0.14298913517443834 0.07131044498431555 -0.1004305106747117
0.0013055966387713696 0.24020586950755915 -0.09995227014768926
0.3146583547544123 0.025887159727724415 -0.09918708530445337
0.3524584860102657 0.21487825119645096 -0.09918708530445337
0.3574034930596776 0.1772215920987043 -0.09918708530445337
0.25179841988258317 0.4314159970216698 -0.09918708530445337
0.25093758693394275 0.4052562401935425 -0.09851754856662197
0.3057726457623354 0.2578433801441467 -0.09851754856662197
0.3784843354908267 0.2649882936178619 -0.09851754856662197
0.370689014900361 0.25370181718013235 -0.09851754856662197
0.5826834757188668 0.23381657606653947 -0.09851754856662197
0.2728218734504896 0.3355765954063735 -0.09851754856662197
0.1782737212581538 0.3847971104475227 -0.09851754856662197
0.5928699989444447 0.23752772255623364 -0.09851754856662197
0.1835726262975624 0.2984460008883516 -0.09851754856662197
0.6185228208139281 0.37425668923194816 -0.09851754856662197
0.20846026332380993 0.3842614810572576 -0.09851754856662197
0.3112054581493103 0.27984244438717876 -0.09851754856662197
0.29665738131728775 0.3544766610343002 -0.09851754856662197
0.34938818182678166 0.4205790666793414 -0.09851754856662197
0.49099520187812506 0.4430755010704769 -0.09851754856662197
0.4907943408567758 0.1973650830968893 -0.09851754856662197
0.3722193845868328 0.2734340213250781 -0.09851754856662197
0.40424237027625515 0.26277882238301814 -0.09851754856662197
0.42636577705631307 0.25175059582988085 -0.09851754856662197
0.30521788675098943 0.02902441758499163 -0.09851754856662197
0.3969635494549737 0.4398904191605075 -0.09727412319636362
0.302864943358039 0.23524173283706634 -0.09727412319636362
0.38253025034943655 0.22760901402578823 -0.09727412319636362
0.15088966868084908 0.39137770009935147 -0.09727412319636362
0.22207098872286848 0.2302871609771139 -0.0966045864585322
0.3024153972626379 0.3728506620825023 -0.0966045864585322
0.3228267029559555 0.2614014896651936 -0.0966045864585322
0.33233412463316153 0.25669560287929283 -0.0966045864585322
0.5749455439916438 0.22935937435469028 -0.0966045864585322
0.33062202354642123 0.19586340784203887 -0.0966045864585322
0.17395999170441134 0.3795938535135186 -0.0966045864585322
0.5771167559843257 0.22624124611850407 -0.0966045864585322
0.1836778392135073 0.32439533188458897 -0.0966045864585322
0.640598403541284 0.3211241666797555 -0.0966045864585322
0.19048798431830685 0.2506410778071888 -0.0966045864585322
0.36600225773554107 0.25412266884391216 -0.0966045864585322
0.29301318850137675 0.32881427435427635 -0.0966045864585322
0.2930418829329981 0.4120376908667207 -0.0966045864585322
0.3541610222864655 0.4152801616399328 -0.0966045864585322
0.33076549570452796 0.2767721402036947 -0.0966045864585322
0.35654266011103736 0.39680094767578583 -0.0966045864585322
0.5697805462998012 0.40415628698139094 -0.0966045864585322
0.48039739179930785 0.20901502233515587 -0.0966045864585322
0.4444910930304634 0.22174578516449317 -0.0966045864585322
0.006365381414668715 0.23236272486439127 -0.09612634593150977
0.15088966868084908 0.4039745555811224 -0.09536116108827389
0.4019085565043856 0.18868979993670232 -0.09536116108827389
0.38599271176507893 0.22760901402578823 -0.09536116108827389
0.30370664668559855 0.045973261862666835 -0.09469162435044247
0.22763770845740972 0.3968774661601095 -0.09469162435044247
0.2968869367702585 0.27612173308694427 -0.09469162435044247
0.3891969232961292 0.2689959492343099 -0.09469162435044247
0.3492542744792154 0.3924489588798817 -0.09469162435044247
0.3717220144387294 0.19254441858450322 -0.09469162435044247
0.3031614524847929 0.4192878172563809 -0.09469162435044247
0.28587783983820203 0.20116231288144748 -0.09469162435044247
0.4283648224592669 0.42528495346524225 -0.09469162435044247
0.3965522626017343 0.1939695753550301 -0.09469162435044247
0.24646125560101287 0.41638967966262486 -0.09469162435044247
0.35489751269808006 0.24694906093857563 -0.09469162435044247
0.37591140145544594 0.295088752388654 -0.09469162435044247
0.4011338068506093 0.39207593126880413 -0.09469162435044247
0.27568175180208365 0.3122958465509213 -0.09469162435044247
0.29973725031131226 0.34976120943785904 -0.09469162435044247
0.37320456007249897 0.41506017099750253 -0.09469162435044247
0.35186546775675787 0.24938808762639 -0.09469162435044247
0.3846153790472543 0.3015354346929165 -0.09469162435044247
0.5577097553977549 0.22290312723988742 -0.09469162435044247
0.621631384239574 0.34390754538710444 -0.09469162435044247
0.21164534523377948 0.23086104960954085 -0.09469162435044247
0.6293023622930138 0.26302750745706993 -0.09344819898018412
0.17609294445493154 0.29573915950540464 -0.09344819898018412
0.3524584860102657 0.1394310256533914 -0.09344819898018412
0.38618400797588787 0.255739121825248 -0.09344819898018412
0.2569155935217232 0.3409902781722675 -0.09344819898018412
0.31727911284249527 0.3940558470506771 -0.0927786622423527
0.371607236712244 0.19753724968661737 -0.0927786622423527
0.246040403937233 0.4024633155157316 -0.0927786622423527
0.3257535349813328 0.2537879004749964 -0.0927786622423527
0.43558625441730564 0.23444785356220912 -0.0927786622423527
0.44237726990102416 0.42694923049928024 -0.0927786622423527
0.30345796161154676 0.27887639852259344 -0.0927786622423527
0.20119100731306896 0.30505528497180157 -0.0927786622423527
0.38082771407323657 0.18867067031562146 -0.0927786622423527
0.3282212561007685 0.4238215374525535 -0.0927786622423527
0.38258763921267924 0.18541863473186887 -0.0927786622423527
0.3234292860200038 0.42791527636386556 -0.0927786622423527
0.29795819555078884 0.2022335716619777 -0.0927786622423527
0.36067465826451106 0.2960165390110776 -0.0927786622423527
0.3076569134388038 0.3115593561393068 -0.0927786622423527
0.37882866867028286 0.3293785981761628 -0.0927786622423527
0.27680083463531624 0.3156244006189975 -0.0927786622423527
0.39211419051096613 0.3500959778067747 -0.0927786622423527
0.36633702610445673 0.37456276316924264 -0.0927786622423527
0.4695222022148178 0.43826440136863115 -0.0927786622423527
0.4929751176599979 0.20353438589547881 -0.0927786622423527
0.40737962813352235 0.21445739953267123 -0.0927786622423527
0.3820041857697118 0.40841262767189074 -0.0927786622423527
0.19438086220826944 0.2504976056490821 -0.0927786622423527
0.19814939756120628 0.3292159963969752 -0.0927786622423527
0.37718352125732557 0.15202788113516233 -0.09230042171533029
0.1540077969170353 0.35748001154400116 -0.09153523687209439
0.16349608897316048 0.2150121585440172 -0.09153523687209439
0.3485082192570604 0.1394310256533914 -0.09153523687209439
0.37436190214789333 0.23375918720329678 -0.09153523687209439
0.2516740773455573 0.3283934226904966 -0.09153523687209439
0.35927819592560556 0.3074273579858329 -0.09086570013426297
0.3107846064855305 0.40220506563113945 -0.09086570013426297
0.353233235664042 0.25921114805143086 -0.09086570013426297
0.29361577156542507 0.40205202866249223 -0.09086570013426297
0.4352993101010922 0.2509949757971853 -0.09086570013426297
0.3100863753160777 0.42025386312096624 -0.09086570013426297
0.34806823797219966 0.2462030057164206 -0.09086570013426297
0.2903637359816725 0.1985989436566072 -0.09086570013426297
0.17805373061572352 0.26550479338704613 -0.09086570013426297
0.3406268153717306 0.18426129265647462 -0.09086570013426297
0.5551368213623744 0.4205408074371796 -0.09086570013426297
0.1865568471861824 0.22578213521256252 -0.09086570013426297
0.5653902982617353 0.4187426230555753 -0.09086570013426297
0.38208070425403534 0.31112893966498656 -0.09086570013426297
0.2926688553219206 0.2933670864913733 -0.09086570013426297
0.33098548634695824 0.35890516831452807 -0.09086570013426297
0.38510318438481717 0.3067291268163802 -0.09086570013426297
0.39205680164772344 0.35474447572943285 -0.09086570013426297
0.5645294653130951 0.4065379248059626 -0.09086570013426297
0.4775470782582541 0.21674338925183853 -0.09086570013426297
0.5417460866057462 0.24206144275240624 -0.09086570013426297
0.4230467877987773 0.24633691306398683 -0.09086570013426297
0.19491649159853455 0.2545339556971514 -0.09086570013426297
0.1842230334143129 0.3533575782010678 -0.09086570013426297
0.2090245871456965 0.21111928065405458 -0.09038745960724053
0.42664315656198604 0.1772215920987043 -0.09038745960724053
0.15088966868084908 0.3409902781722675 -0.08962227476400464
0.20128665541847338 0.18981844758047522 -0.08962227476400464
0.3969635494549737 0.17035405813066207 -0.08962227476400464
0.33472532726827375 0.2150121585440172 -0.08962227476400464
0.30519875712990846 0.06107609770603532 -0.08895273802617323
0.27652345512964327 0.28433790534118963 -0.08895273802617323
0.20486389456060128 0.2544861316444492 -0.08895273802617323
0.307637783817723 0.27989026843988096 -0.08895273802617323
0.20692989363733816 0.29554786329459554 -0.08895273802617323
0.3243857670740486 0.3595268809996572 -0.08895273802617323
0.3851988324902217 0.19324264975395591 -0.08895273802617323
0.6301536304311137 0.303486656043168 -0.08895273802617323
0.17648510168708992 0.36077987118045596 -0.08895273802617323
0.17284090887117895 0.37972776086108484 -0.08895273802617323
0.1696080029085072 0.37437146695843354 -0.08895273802617323
0.37758524330002446 0.17867544330085253 -0.08895273802617323
0.4486039615628564 0.4399765024553715 -0.08895273802617323
0.22859418951145455 0.20849852256597162 -0.08895273802617323
0.5985132371633094 0.24276923873239942 -0.08895273802617323
0.340932889309025 0.3028266841158771 -0.08895273802617323
0.29967029663752903 0.30747518203853513 -0.08895273802617323
0.3333766889820704 0.3609042137174817 -0.08895273802617323
0.3859544525229171 0.3532236708535014 -0.08895273802617323
0.4058109992048887 0.4060692490894807 -0.08895273802617323
0.47675319898339685 0.23714513013461563 -0.08895273802617323
0.5693692594465621 0.23316616894978898 -0.08895273802617323
0.45575843984711195 0.4377383367889064 -0.08895273802617323
0.20956978134650212 0.22897678193307242 -0.08895273802617323
0.19616948177933333 0.2775373250469306 -0.08895273802617323
0.23375918720329691 0.18981844758047522 -0.08847449749915079
0.6295988714197678 0.2654091452816416 -0.08770931265591489
0.3079438577550173 0.258445963208195 -0.08770931265591489
0.37928777957622445 0.24020586950755915 -0.08770931265591489
0.3524584860102657 0.14442385675550556 -0.08770931265591489
0.15462950960216446 0.24020586950755915 -0.08770931265591489
0.23232446562222955 0.21963196203505397 -0.08703977591808347
0.2996607318269887 0.2849596180263188 -0.08703977591808347
0.17759461970978196 0.37985210339811076 -0.08703977591808347
0.28194670270607763 0.32985683870318516 -0.08703977591808347
0.3506029127654186 0.1683932719698701 -0.08703977591808347
0.6303831858840846 0.326824793761863 -0.08703977591808347
0.3249405260853947 0.42206161231311096 -0.08703977591808347
0.1870446525237453 0.3280777839426618 -0.08703977591808347
0.3380538813363499 0.2573651396171243 -0.08703977591808347
0.4503351922706776 0.4400817153713164 -0.08703977591808347
0.31199933742416747 0.35932601997830776 -0.08703977591808347
0.4062509804897493 0.23717382456623698 -0.08703977591808347
0.16779068890582194 0.3643571103225838 -0.08703977591808347
0.3778721876162379 0.17103315967903393 -0.08703977591808347
0.1805405813562401 0.3858588044175126 -0.08703977591808347
0.3613824542445044 0.17157835387983952 -0.08703977591808347
0.6406270979729051 0.3175086682954659 -0.08703977591808347
0.18829764270454408 0.27413225249453094 -0.08703977591808347
0.19045928988668548 0.3548496886453777 -0.08703977591808347
0.3384269089474274 0.34784824732976927 -0.08703977591808347
0.34266412001684615 0.3383216960314824 -0.08703977591808347
0.36101899144396726 0.3572982801437326 -0.08703977591808347
0.39801567861442305 0.40806829449243454 -0.08703977591808347
0.43887654924321995 0.2665951817886572 -0.08703977591808347
0.4468727308550351 0.416007087241007 -0.08703977591808347
0.45338636683308076 0.42869002601764195 -0.08703977591808347
0.48091389156849207 0.23620777870165166 -0.08703977591808347
0.5753472660343426 0.24956981902665845 -0.08703977591808347
0.42071297402690777 0.18012929450300075 -0.08656153539106105
0.1645195237009885 0.31554788213467394 -0.08656153539106105
0.4596321881159937 0.1991441378574128 -0.08579635054782513
0.38336238886645546 0.20990454971541764 -0.08579635054782513
0.3079438577550173 0.2665090984937932 -0.08579635054782513
0.14765676271817732 0.2654091452816416 -0.08579635054782513
0.27686778830909925 0.4402538819610445 -0.08579635054782513
0.39092815400395053 0.40394586114950104 -0.08512681380999373
0.36978992270955874 0.33206630993802877 -0.08512681380999373
0.18801069838833062 0.23828334258892903 -0.08512681380999373
0.3380921405785117 0.2799189628715023 -0.08512681380999373
0.38453886056293074 0.2893020420116826 -0.08512681380999373
0.44555278700045325 0.2583694447238713 -0.08512681380999373
0.3913777000993516 0.41849393798152357 -0.08512681380999373
0.30472051660288607 0.4147349674391272 -0.08512681380999373
0.3813824730845827 0.4231137414725603 -0.08512681380999373
0.32292235106136 0.3491873208054321 -0.08512681380999373
0.2945626878089295 0.2035917747587215 -0.08512681380999373
0.42375458377877046 0.23979458265431994 -0.08512681380999373
0.41890522483476306 0.420846881374474 -0.08512681380999373
0.18568644942700163 0.3553470587934811 -0.08512681380999373
0.17083229865768462 0.34005292673930354 -0.08512681380999373
0.23686775062894277 0.40321893554842697 -0.08512681380999373
0.1906218916658731 0.2157582137661722 -0.08512681380999373
0.4339028477621866 0.21911546226586973 -0.08512681380999373
0.4485370078890732 0.4423007514167005 -0.08512681380999373
0.39524188355769285 0.2800241757874473 -0.08512681380999373
0.5655433352303826 0.25267838245230434 -0.08512681380999373
0.5673319548014464 0.26363965533165856 -0.08512681380999373
0.4249884443384884 0.27300360485075786 -0.08512681380999373
0.4613729836343554 0.43658099471351214 -0.08512681380999373
0.41338632915292417 0.20637513462599205 -0.08512681380999373
0.31127241182309345 0.33513661412151297 -0.08512681380999373
0.3319706618326245 0.34266412001684604 -0.08512681380999373
0.18476822761511852 0.3285368948486032 -0.08512681380999373
0.43209509857004175 0.180645794272185 -0.08464857328297129
0.6170020159379968 0.24020586950755915 -0.08388338843973539
0.4216981495125741 0.1646247366169334 -0.08388338843973539
0.22648036638201532 0.18981844758047522 -0.08388338843973539
0.15262089938867027 0.3409902781722675 -0.08388338843973539
0.29161672616247125 0.27837902837449 -0.08388338843973539
0.3574034930596776 0.29863729709916054 -0.08388338843973539
0.29507918757811374 0.34328583270197516 -0.08321385170190397
0.187742883693198 0.256466047426322 -0.08321385170190397
0.3421571850582024 0.30850818157690363 -0.08321385170190397
0.39410367110337946 0.41402717145913404 -0.08321385170190397
0.4336445978775945 0.19403652902881313 -0.08321385170190397
0.5126690625627821 0.4279631004165679 -0.08321385170190397
0.3206076669105714 0.42781006344792066 -0.08321385170190397
0.3093403200939228 0.20166924784009124 -0.08321385170190397
0.4395747804126728 0.2639170348373316 -0.08321385170190397
0.4201295205839405 0.4215164181123054 -0.08321385170190397
0.1728696033028003 0.34028248219227436 -0.08321385170190397
0.19335742748044144 0.2542565761914784 -0.08321385170190397
0.3010093701131919 0.30306580437938824 -0.08321385170190397
0.3522958842310781 0.3695508024460475 -0.08321385170190397
0.18930194781129112 0.37724091012056826 -0.08321385170190397
0.3174704090533042 0.18585861601672957 -0.08321385170190397
0.5498857403756681 0.24275010911131858 -0.08321385170190397
0.5034677148228702 0.26159278587600254 -0.08321385170190397
0.4982740226994065 0.24985676334287193 -0.08321385170190397
0.5541803403083294 0.22393612677825592 -0.08321385170190397
0.39693485502335235 0.2801485183244731 -0.08321385170190397
0.41413238437507904 0.20016757258524082 -0.08321385170190397
0.33812083501013307 0.3454092206419549 -0.08321385170190397
0.4679344436651032 0.41293678305752296 -0.08321385170190397
0.4259353605819929 0.37249676409250565 -0.08321385170190397
0.1885941518312979 0.27150192959590747 -0.08321385170190397
0.339039056822016 0.2632570629100407 -0.08321385170190397
0.14477775474550236 0.2528027249893302 -0.08273561117488155
0.434017625488672 0.17125315032146435 -0.08273561117488155
0.24606909836885435 0.18060753503002314 -0.08197042633164565
0.3013919625348099 0.3555192253832092 -0.08197042633164565
0.3524584860102657 0.22760901402578823 -0.08197042633164565
0.41180813541375005 0.1646247366169334 -0.08197042633164565
0.44016779866618055 0.2262795053606659 -0.08197042633164565
0.23907722186378638 0.4417746868369759 -0.08197042633164565
0.18042580362975472 0.2251795521485142 -0.08130088959381424
0.3940367174295963 0.2785798893958395 -0.08130088959381424
0.5245963813067215 0.2000145356165936 -0.08130088959381424
0.3021475825675053 0.41743224401153384 -0.08130088959381424
0.4009233810187193 0.1900097437912843 -0.08130088959381424
0.5113108594660382 0.2313584197576441 -0.08130088959381424
0.3324967264123491 0.42822135030116004 -0.08130088959381424
0.2246821820004111 0.21130101205432317 -0.08130088959381424
0.1716644371747037 0.33099505115749855 -0.08130088959381424
0.16984712317201847 0.31595916898791315 -0.08130088959381424
0.19050711393938768 0.388020451599654 -0.08130088959381424
0.20049277614361613 0.2692159398767402 -0.08130088959381424
0.3751844758543719 0.1696462621506689 -0.08130088959381424
0.41016298800079287 0.18130576619947597 -0.08130088959381424
0.6158446738626023 0.26171712841302847 -0.08130088959381424
0.19176966893072697 0.3175660571587086 -0.08130088959381424
0.5038311776234075 0.4207512332690695 -0.08130088959381424
0.4542185053500997 0.2616693043603261 -0.08130088959381424
0.45280291339011336 0.29811123251943583 -0.08130088959381424
0.428814368554668 0.41496452289209795 -0.08130088959381424
0.49726971759265953 0.4126498387413095 -0.08130088959381424
0.5370401998198452 0.2787233615539462 -0.08130088959381424
0.5887571304120516 0.25479220558174354 -0.08130088959381424
0.3510907181029815 0.23659037112326953 -0.08130088959381424
0.33721217800879044 0.3276664970894224 -0.08130088959381424
0.30757083014393977 0.32784822848969103 -0.08130088959381424
0.3583312796821012 0.3627597869623288 -0.08130088959381424
0.2535392154009449 0.30319971172695465 -0.08082264906679179
0.3029988507056052 0.18157358089460846 -0.08082264906679179
0.3178338718538412 0.15202788113516233 -0.0800574642235559
0.33761390005148917 0.3027119063893917 -0.0800574642235559
0.42480671293822 0.1727739551973956 -0.0800574642235559
0.38253025034943655 0.36206155579287613 -0.0800574642235559
0.3398616305284948 0.4417746868369759 -0.0800574642235559
0.2945818174300104 0.3273030342888854 -0.0793879274857245
0.3556435679202351 0.35705915988022147 -0.0793879274857245
0.32362058223081275 0.3534627911170127 -0.0793879274857245
0.3270543492148338 0.26175538765519013 -0.0793879274857245
0.44174599240535456 0.3836110739405071 -0.0793879274857245
0.4002634090914285 0.3590582052831751 -0.0793879274857245
0.579087106955658 0.24802031971910585 -0.0793879274857245
0.40599273060515717 0.3836684628037498 -0.0793879274857245
0.4005216589760206 0.2609423787592521 -0.0793879274857245
0.5283553518491179 0.1972598701809444 -0.0793879274857245
0.1948973619774537 0.3377095481568936 -0.0793879274857245
0.17402694537819455 0.3428458514171146 -0.0793879274857245
0.38099031585242427 0.30421358164424217 -0.0793879274857245
0.540359189077381 0.22162144262746727 -0.0793879274857245
0.26239622996140044 0.4183600306339573 -0.0793879274857245
0.191473159803973 0.26375443305814394 -0.0793879274857245
0.18726464316617558 0.3424345645638752 -0.0793879274857245
0.45750880017601414 0.25932592577791624 -0.0793879274857245
0.4412677518783321 0.2902011342024847 -0.0793879274857245
0.44639449032801265 0.37881910385974227 -0.0793879274857245
0.4711195255750727 0.43193249679085405 -0.0793879274857245
0.41923042839313823 0.40070339037628894 -0.0793879274857245
0.5056867508682543 0.2599093792208836 -0.0793879274857245
0.41380718081670387 0.22161187781692693 -0.0793879274857245
0.24438569171373536 0.2016979422717126 -0.0793879274857245
0.34117200957253613 0.18021537779786478 -0.0793879274857245
0.31261148529875626 0.16290307071965254 -0.0793879274857245
0.31288886480442923 0.4543715423187468 -0.07890968695870205
0.38869955314802596 0.20309440461061812 -0.07814450211546616
0.15462950960216446 0.23156884558953403 -0.07814450211546616
0.34256847191144163 0.4543715423187468 -0.07814450211546616
0.3146583547544123 0.2528027249893302 -0.07814450211546616
0.3099142087263498 0.2791442132177261 -0.07814450211546616
0.1585032578710462 0.39235331077447727 -0.07747496537763474
0.29732691805511924 0.30629871034206 -0.07747496537763474
0.35046900541785236 0.353128022748097 -0.07747496537763474
0.3462317943484336 0.24501696920940488 -0.07747496537763474
0.23046889237738247 0.20409870971736527 -0.07747496537763474
0.29853208418321564 0.1904401602656045 -0.07747496537763474
0.24890028228882724 0.1860499122275385 -0.07747496537763474
0.40611707314218304 0.3769444009938143 -0.07747496537763474
0.5688431948668374 0.23361571504519005 -0.07747496537763474
0.31815907541221655 0.42385979669471535 -0.07747496537763474
0.43823570693701 0.2834101187187662 -0.07747496537763474
0.45781487411330846 0.43960347484429396 -0.07747496537763474
0.20022496144848365 0.3834484721613194 -0.07747496537763474
0.42719791557333214 0.26692995015757304 -0.07747496537763474
0.5114830260557662 0.4324107373178766 -0.07747496537763474
0.19858937884606687 0.38183201917998355 -0.07747496537763474
0.16843153121203208 0.34163112047847755 -0.07747496537763474
0.17322350129279682 0.3401868340868698 -0.07747496537763474
0.40043557568115656 0.27813990811097894 -0.07747496537763474
0.4214494644385223 0.40806829449243454 -0.07747496537763474
0.4418894645634613 0.3462509239695143 -0.07747496537763474
0.42421369468471204 0.28477788662605036 -0.07747496537763474
0.46523716709269664 0.4256866755079411 -0.07747496537763474
0.6153281740934181 0.28121977710500345 -0.07747496537763474
0.510689146780909 0.25431396505472115 -0.07747496537763474
0.419182604340436 0.2207032208155843 -0.07747496537763474
0.26342922949976877 0.1772215920987043 -0.07699672485061232
0.4411242797202254 0.2594024442622398 -0.0762315400073764
0.3436588603130528 0.27931637980745416 -0.0762315400073764
0.32512225748566315 0.2993259634580729 -0.0762315400073764
0.3272647750467237 0.43794876262079635 -0.0762315400073764
0.14785762373952677 0.3409902781722675 -0.0762315400073764
0.158178054312671 0.34539965583141435 -0.075562003269545
0.1792302023121986 0.28148759180013594 -0.075562003269545
0.19915370266795332 0.30948379225202943 -0.075562003269545
0.274304419084259 0.27887639852259344 -0.075562003269545
0.3496846909535355 0.3570782895013023 -0.075562003269545
0.3311767825577673 0.31405577169036386 -0.075562003269545
0.35506011447726776 0.23403656670896977 -0.075562003269545
0.30352491528532993 0.18022494260840513 -0.075562003269545
0.4295986830189847 0.3777000210265097 -0.075562003269545
0.4039745555811225 0.26165017473924523 -0.075562003269545
0.5429225583022212 0.2138356868475421 -0.075562003269545
0.3157774375876448 0.42386936150525584 -0.075562003269545
0.40033036276521156 0.2603206660741229 -0.075562003269545
0.5187905413086692 0.19771898108688596 -0.075562003269545
0.23671471366029556 0.4094743216418804 -0.075562003269545
0.4302682197568162 0.21951718430856856 -0.075562003269545
0.6405505794885814 0.30819254282906877 -0.075562003269545
0.41001951584268614 0.379431251734331 -0.075562003269545
0.5054093713625813 0.41136815412888933 -0.075562003269545
0.44906307246879784 0.31183673564497977 -0.075562003269545
0.4421094552058917 0.3694838487722643 -0.075562003269545
0.5087379254306577 0.41330024585805997 -0.075562003269545
0.5343429232474388 0.2744191968107444 -0.075562003269545
0.531894331749084 0.285323080826856 -0.075562003269545
0.41615055939911383 0.21521301956536662 -0.075562003269545
0.37223851420791365 0.4417746868369759 -0.07508376274252256
0.39262112546960987 0.18981844758047522 -0.07431857789928666
0.3873413500512823 0.36129637094964023 -0.07431857789928666
0.2516740773455573 0.3283934226904966 -0.07431857789928666
0.3304976810093953 0.4389626325380839 -0.07431857789928666
0.17212354808064526 0.22719772717254888 -0.07364904116145525
0.17687725891924827 0.3026162582839872 -0.07364904116145525
0.1939217513023279 0.3407320282876754 -0.07364904116145525
0.26106672129627795 0.3086325241139295 -0.07364904116145525
0.323754489578379 0.35782434472345737 -0.07364904116145525
0.32095200009002756 0.25471568709742 -0.07364904116145525
0.2531183637371652 0.1937400199020593 -0.07364904116145525
0.41998604842583376 0.24144929487781758 -0.07364904116145525
0.5389340323068541 0.206566430836801 -0.07364904116145525
0.421143390501228 0.40541884197273026 -0.07364904116145525
0.4247397592644368 0.28273101717039434 -0.07364904116145525
0.6375472289788806 0.31616959481980306 -0.07364904116145525
0.40406063887598653 0.39299415308068725 -0.07364904116145525
0.31505051198657064 0.42823091511170036 -0.07364904116145525
0.40033992757575204 0.3931950141020367 -0.07364904116145525
0.5037833535707053 0.2551939276244424 -0.07364904116145525
0.46626060182052464 0.413022866352387 -0.07364904116145525
0.41433324539642846 0.40801090562919184 -0.07364904116145525
0.4497517388277102 0.36900560824524187 -0.07364904116145525
0.4200625669101573 0.32435707264242714 -0.07364904116145525
0.4888048602643625 0.25120540162907523 -0.07364904116145525
0.5695414260362902 0.2937496789129913 -0.07364904116145525
0.508345768198499 0.3795842887029781 -0.07364904116145525
0.49088998896218017 0.42328590806228844 -0.07364904116145525
0.46773358264375386 0.4265092492144197 -0.07364904116145525
