-0.20406545251059385 0.37710817801000784 -0.10708098301991308
-0.08200600733679317 0.36685787415780113 -0.10708098301991308
0.36002314608328356 -0.14086478280635592 -0.10708098301991308
0.6049717888711195 0.09466330856950764 -0.10708098301991308
0.002020733313502026 0.4903479269871784 -0.10708098301991308
-0.5726686680081985 0.5110059015337054 -0.10708098301991308
-0.6009374752823933 0.2642403870232872 -0.10708098301991308
0.722567738159521 0.16773874761636354 -0.10658027034046125
-0.0938657448015237 0.445019123420232 -0.10658027034046125
-0.20520278559677732 -0.16850412271209705 -0.10658027034046125
-0.21184080511865302 -0.2069874686471092 -0.10658027034046125
-0.5538275651842539 0.4903479269871784 -0.10565037536433643
-0.4219326923783636 0.3396119513573437 -0.10565037536433643
-0.20524570382644464 -0.18338959536837224 -0.10565037536433643
-0.6480402323422548 -0.1785469884542452 -0.10565037536433643
-0.20776357330025957 0.3653628891577235 -0.10565037536433643
-0.054509728196609784 0.4149835156913999 -0.10565037536433643
0.039702938961391286 0.48092737557520626 -0.10565037536433643
0.039702938961391286 0.2548198356113148 -0.10565037536433643
0.2281211202391154 -0.07491376988427186 -0.10565037536433643
-0.01682752254872052 -0.3115791943463189 -0.10565037536433643
0.7112730907187435 0.14096492534224625 -0.10565037536433643
0.7124032707666489 0.07996381490845748 -0.10514966268488458
-0.08205607860473839 0.5261202714148728 -0.10514966268488458
-0.21815693791802404 -0.17268149706638092 -0.10514966268488458
-0.09641222642845011 -0.2719656683634012 -0.10514966268488458
-0.007406971136748155 -0.35573489963569255 -0.10421976770875976
-0.2994583709844457 -0.21623634714041237 -0.10421976770875976
-0.525565910948337 -0.39523397700616414 -0.10421976770875976
-0.2806172681605011 0.24539928419934248 -0.10421976770875976
-0.06721352417813051 0.3789751210005354 -0.10421976770875976
0.3129132359851442 -0.13144423139438366 -0.10421976770875976
0.6049717888711195 0.10408385998148 -0.10421976770875976
-0.054509728196609784 0.4820647086613896 -0.10421976770875976
-0.4313532437903359 0.5562989399092625 -0.10421976770875976
-0.5726686680081985 0.27366093843525957 -0.10421976770875976
-0.20838588763043536 -0.26225899542031356 -0.10371905502930794
-0.200195658802259 0.4503624430138109 -0.10371905502930794
-0.07314339291049572 0.4997684783991508 -0.10371905502930794
0.7156936683744752 0.05358340973962384 -0.10371905502930794
-0.30887892239641795 0.40556296427942773 -0.1027891600531831
-0.07335083102055431 0.5562989399092625 -0.1027891600531831
0.3506025946713114 0.31135029712142653 -0.1027891600531831
0.21870056882714303 -0.21623634714041237 -0.1027891600531831
0.011441284725474392 -0.19738809127818982 -0.1027891600531831
0.039702938961391286 0.11350441139345226 -0.1027891600531831
-0.5444070137722815 0.2171376299634256 -0.1027891600531831
-0.6103580266943657 -0.15142266730451168 -0.1027891600531831
-0.33714057663233493 -0.14086478280635592 -0.1027891600531831
-0.21417984863552084 -0.2103279375228807 -0.10228844737373126
-0.07310762771910634 0.14252428768682485 -0.10228844737373126
-0.2126777105971654 0.5011633208633379 -0.10228844737373126
-0.19227009239036427 0.5249900913669674 -0.10228844737373126
0.7130756563647699 0.048218631031211365 -0.10228844737373126
-0.26177616533655645 0.48092737557520626 -0.10135855239760642
0.07738514460928055 0.48092737557520626 -0.10135855239760642
0.6332334431070366 0.12292496280542463 -0.10135855239760642
0.03028238754941902 -0.2727596556122462 -0.10135855239760642
0.01597631099365241 -0.05607266706032722 -0.10135855239760642
0.06796459319730817 0.1888759757275087 -0.10135855239760642
-0.24293506251261182 0.39613525982917747 -0.10135855239760642
-0.6337341557864883 -0.22565689855238463 -0.10135855239760642
-0.6103580266943657 -0.10318257715846667 -0.10135855239760642
-0.19959480358691678 -0.2719656683634012 -0.10085783971815461
-0.20956613894628615 -0.10104381871337961 -0.10085783971815461
-0.21100389964014074 0.3980379680110943 -0.10085783971815461
0.6293135781307565 0.15372594562999012 -0.10085783971815461
-0.46903544943822517 0.38671470841720507 -0.09992794474202978
-0.2146662552384169 0.5562989399092625 -0.09992794474202978
0.1433361575313646 0.3490325027693158 -0.09992794474202978
0.5955512374591473 0.1888759757275087 -0.09992794474202978
-0.01682752254872052 -0.32929011712235795 -0.09992794474202978
0.06796459319730817 -0.02781101282441033 -0.09992794474202978
0.011441284725474392 0.19829652713948095 -0.09992794474202978
-0.23350735806236153 0.028712295647423558 -0.09992794474202978
-0.4219326923783636 -0.2539185527883016 -0.09992794474202978
-0.20991663782190248 -0.3241900008302272 -0.09942723206257793
-0.07096886927401919 0.144663046131912 -0.09942723206257793
-0.1304678416694526 0.5777509017046347 -0.09942723206257793
0.722567738159521 0.16836821498481722 -0.09942723206257793
0.624499583369741 0.046137096892347344 -0.09942723206257793
-0.22726275564576948 -0.17150839878880805 -0.09849733708645311
-0.38425048673047435 -0.08434147433452203 -0.09849733708645311
-0.2994583709844457 0.1888759757275087 -0.09849733708645311
0.039702938961391286 0.019291744235451293 -0.09849733708645311
0.05854404178533591 -0.3387106685343303 -0.09849733708645311
0.3411748902210611 -0.2727596556122462 -0.09849733708645311
0.002020733313502026 0.3490325027693158 -0.09849733708645311
-0.11103303666844357 0.6240596715156511 -0.09849733708645311
-0.5915097708321432 0.42440406710337225 -0.09849733708645311
0.7215806188771733 0.04663065653352131 -0.09799662440700128
-0.1426065476270205 0.583673617398722 -0.09799662440700128
-0.20375787186464492 0.4509990634205425 -0.09799662440700128
-0.06648391427378637 0.09876199950273482 -0.09799662440700128
-0.5915097708321432 0.2548198356113148 -0.09706672943087646
-0.5161453595363646 0.5186167342613732 -0.09706672943087646
0.13391560611939235 0.5186167342613732 -0.09706672943087646
0.6049717888711195 0.06640165433359074 -0.09706672943087646
0.27523103033725493 -0.35755177135827493 -0.09706672943087646
0.3411748902210611 -0.1785469884542452 -0.09706672943087646
-0.04508917678463741 0.3490325027693158 -0.09706672943087646
-0.22719837830126852 0.17003487290356406 -0.09706672943087646
-0.22656891093281473 -0.31044186126013545 -0.09706672943087646
-0.5161453595363646 -0.037231564236382596 -0.09706672943087646
0.6262520777478224 0.13946994034216872 -0.09656601675142462
-0.1303033217890612 0.5831085273747693 -0.09656601675142462
-0.21006685162573804 -0.05447038648608134 -0.09656601675142462
-0.07107616484818743 0.08469912624841618 -0.09656601675142462
-0.0977641506629701 -0.2789255746077816 -0.09656601675142462
-0.5726686680081985 0.22655818137539796 -0.0952069394786268
-0.5726686680081985 0.47150682416323386 -0.0952069394786268
0.020861836137446656 0.2736680914735373 -0.0952069394786268
0.11507450329544772 -0.08252460261193974 -0.0952069394786268
0.07738514460928055 -0.35755177135827493 -0.0952069394786268
0.7086050074410928 0.09466330856950764 -0.0952069394786268
-0.054459656928664564 0.39613525982917747 -0.0952069394786268
-0.3277200252203626 0.1888759757275087 -0.0952069394786268
-0.3936710381424467 -0.3481312199463026 -0.0952069394786268
-0.23350735806236153 -0.235077449964357 -0.0952069394786268
0.7180756301210104 0.14773169955312396 -0.09513540909584796
-0.21896523124342487 0.5109558302657602 -0.09513540909584796
-0.06983868922611361 0.4019578329873744 -0.09513540909584796
-0.0655182541062721 0.20223785123059468 -0.09513540909584796
-0.06390166745547048 -0.12954152321246667 -0.09513540909584796
-0.08577565850923767 -0.2638541229562815 -0.09513540909584796
-0.2073916153098096 -0.27190844405717807 -0.09370480144027131
-0.20520278559677732 -0.15597915268752335 -0.09370480144027131
-0.21446597016663624 0.45270863956895646 -0.09370480144027131
0.6189488256661035 0.14279610314138438 -0.09370480144027131
0.7257150750017897 0.07119418997977256 -0.09370480144027131
-0.44077379520230825 -0.24268112965374697 -0.09334714952637713
-0.23350735806236153 0.019291744235451293 -0.09334714952637713
-0.007406971136748155 0.20771707855145322 -0.09334714952637713
0.06796459319730817 -0.0354146925138002 -0.09334714952637713
0.12449505470741999 -0.3651554510476649 -0.09334714952637713
0.37886424890722825 -0.2727596556122462 -0.09334714952637713
0.34492308227867197 0.3396119513573437 -0.09334714952637713
-0.06393027960858204 0.5845605941451796 -0.09334714952637713
-0.2806172681605011 0.38671470841720507 -0.09334714952637713
-0.21757038877923757 -0.2740472025022652 -0.09227419378469463
-0.06282155867551012 -0.14003503036612147 -0.09227419378469463
-0.18278516363389105 0.561971299263624 -0.09227419378469463
0.6223965901160432 0.1689905293149931 -0.09227419378469463
0.6255653860731456 0.045729373710507976 -0.09227419378469463
-0.44077379520230825 -0.21736652718831792 -0.09191654187080048
-0.23350735806236153 -0.0089699100004657 -0.09191654187080048
0.020861836137446656 0.1888759757275087 -0.09191654187080048
-0.05035381295715956 -0.018390461412437966 -0.09191654187080048
0.07738514460928055 -0.34994093863060705 -0.09191654187080048
0.3506025946713114 -0.2633391042002739 -0.09191654187080048
0.29407213316119946 0.27366093843525957 -0.09191654187080048
-0.03566862537266515 0.5186167342613732 -0.09191654187080048
-0.3277200252203626 0.4526657213392892 -0.09191654187080048
-0.2149595298078102 -0.3316291606392258 -0.09084358612911798
-0.20279221169713063 -0.1660291714679494 -0.09084358612911798
-0.21734149155434532 0.06948461383135843 -0.09084358612911798
-0.06256404929750632 -0.007603679689389971 -0.09084358612911798
-0.06925929312560514 0.09129422754062468 -0.09084358612911798
-0.10815751528073457 0.5644176383546602 -0.09084358612911798
-0.13980255662209026 0.5836664643604441 -0.09084358612911798
0.7188839234464112 0.1399205817536754 -0.09084358612911798
-0.3277200252203626 -0.32929011712235795 -0.0904859342152238
-0.26177616533655645 -0.2916007584361908 -0.0904859342152238
-0.3182994738083903 0.14176606562936925 -0.0904859342152238
-0.01682752254872052 0.32077084853339893 -0.0904859342152238
0.3317543388090887 -0.15970588563030055 -0.0904859342152238
0.3694436974952559 -0.31044186126013545 -0.0904859342152238
0.6108372802589839 0.14176606562936925 -0.0904859342152238
0.002020733313502026 0.3490325027693158 -0.0904859342152238
-0.12045358808041594 0.6128222483810964 -0.0904859342152238
-0.24293506251261182 0.5204264529456778 -0.0904859342152238
-0.0541806884358271 -0.2851272587947064 -0.08941297847354132
-0.2153457938748159 0.5117355114380495 -0.08941297847354132
-0.07274282276693428 0.45212924346844796 -0.08941297847354132
0.7152430269629685 0.15467014668267076 -0.08941297847354132
-0.22408680665038927 0.5280372856733456 -0.08905532655964715
-0.619778578106338 -0.19738809127818982 -0.08905532655964715
-0.2900378195724733 0.3290540668591879 -0.08905532655964715
-0.053064814464477264 0.48092737557520626 -0.08905532655964715
-0.2146662552384169 0.5845605941451796 -0.08905532655964715
0.3223337873971164 -0.1502853342183283 -0.08905532655964715
0.3129132359851442 -0.3368937968117479 -0.08905532655964715
-0.37482993531850206 -0.38581342559419185 -0.08905532655964715
-0.230231266531091 -0.17375445280806337 -0.08905532655964715
0.6540344784191211 0.1323455142173969 -0.08905532655964715
-0.059016142311676234 -0.1585327873527277 -0.08798237081796466
-0.07218488578125935 0.443724423491935 -0.08798237081796466
-0.1732072453798053 0.5594891949811986 -0.08798237081796466
0.713376083972441 0.05146611040937034 -0.08798237081796466
0.5955512374591473 0.1606143214915917 -0.08705247584183982
0.03028238754941902 -0.22565689855238463 -0.08705247584183982
-0.41251214096639127 -0.02781101282441033 -0.08705247584183982
-0.23361465363652978 -0.22565689855238463 -0.08705247584183982
-0.007406971136748155 -0.35573489963569255 -0.08705247584183982
0.06796459319730817 -0.120206808259829 -0.08705247584183982
0.011441284725474392 0.3019297457094544 -0.08705247584183982
0.3129132359851442 0.31135029712142653 -0.08705247584183982
-0.049323775445144324 0.17945542431553632 -0.08705247584183982
-0.23350735806236153 0.019291744235451293 -0.08705247584183982
-0.4219326923783636 0.5186167342613732 -0.08705247584183982
-0.07218488578125935 0.35150745401346345 -0.086551763162388
-0.05988881298157799 0.4986096861981336 -0.086551763162388
0.6223608249246538 0.15149419768729055 -0.086551763162388
0.7154719241878609 0.07655181564990712 -0.086551763162388
-0.2806172681605011 0.38671470841720507 -0.08619411124849383
-0.2094588433721179 -0.1717372960137003 -0.08619411124849383
-0.3654093839065297 -0.32929011712235795 -0.08619411124849383
-0.23237002497617815 0.1606143214915917 -0.08619411124849383
-0.007406971136748155 0.292509194297482 -0.08619411124849383
0.36002314608328356 0.3584530541812882 -0.08619411124849383
0.2375488246893657 0.19829652713948095 -0.08619411124849383
0.09622624743322518 -0.09194515402391201 -0.08619411124849383
-0.04282166365054846 -0.31044186126013545 -0.08619411124849383
0.7309367929446445 0.0811512192625861 -0.08619411124849383
-0.06715629987190737 -0.22642942668639604 -0.08512115550681133
-0.22213402720052716 0.5014494423944534 -0.08512115550681133
-0.06321497578079376 0.5030517229686993 -0.08512115550681133
0.6275896959057865 0.05778939624701918 -0.08512115550681133
0.36002314608328356 -0.3198695657103857 -0.08476350359291716
-0.2094588433721179 -0.16912643704227293 -0.08476350359291716
-0.23350735806236153 -0.3481312199463026 -0.08476350359291716
-0.4878837053004477 -0.19557837259388533 -0.08476350359291716
-0.3654093839065297 0.22655818137539796 -0.08476350359291716
0.15275670894333687 0.17945542431553632 -0.08476350359291716
0.17159781176728162 -0.19738809127818982 -0.08476350359291716
0.3129132359851442 0.24539928419934248 -0.08476350359291716
0.05854404178533591 0.4620862727512615 -0.08476350359291716
-0.6103580266943657 0.39613525982917747 -0.08476350359291716
-0.2125489559081635 -0.27608581841146196 -0.08369054785123467
-0.06715629987190737 -0.012195930263791024 -0.08369054785123467
-0.22712684791848964 0.4986382983512453 -0.08369054785123467
0.6197070477235591 0.14665874381144142 -0.08369054785123467
0.7113303150249664 0.0571599288785655 -0.08369054785123467
0.05854404178533591 0.2660572587458695 -0.0833328959373405
0.17159781176728162 -0.07491376988427186 -0.0833328959373405
0.2563899275133102 -0.3669723227702472 -0.0833328959373405
-0.5820892194201708 -0.1220236799824113 -0.0833328959373405
-0.33714057663233493 -0.2916007584361908 -0.0833328959373405
-0.3936710381424467 0.23597873278737033 -0.0833328959373405
-0.4878837053004477 0.38853158013978756 -0.0833328959373405
-0.22408680665038927 0.5657194913212349 -0.0833328959373405
0.20928001741517088 0.39613525982917747 -0.0833328959373405
0.6134052210007439 0.1323455142173969 -0.0833328959373405
-0.054960369608116344 0.1905211745314219 -0.08225994019565802
-0.06373714757507919 0.5203763816777326 -0.08225994019565802
0.7178896511257853 0.15256000039069517 -0.08225994019565802
0.7181257013889556 0.07000678562564396 -0.08225994019565802
0.3506025946713114 -0.27094278388966386 -0.08190228828176385
-0.619778578106338 0.4526657213392892 -0.08190228828176385
-0.5726686680081985 0.23597873278737033 -0.08190228828176385
-0.5632481165962262 0.2171376299634256 -0.08190228828176385
-0.24520257564670078 -0.16685892390818385 -0.08190228828176385
-0.2094588433721179 -0.19739524431646774 -0.08190228828176385
-0.007406971136748155 -0.2633391042002739 -0.08190228828176385
0.039702938961391286 0.05698110292161837 -0.08190228828176385
-0.04501764640185855 -0.3375590293715911 -0.08190228828176385
0.24696937610133804 0.22837505309798026 -0.08190228828176385
-0.05397325032576851 -0.3035391793219781 -0.08082933254008134
-0.05981728259879912 -0.2913003308285197 -0.08082933254008134
-0.22184075263113387 -0.11077910380957871 -0.08082933254008134
-0.17086104882465958 0.5709626683789233 -0.08082933254008134
0.6245639607142419 0.15352566055820935 -0.08082933254008134
-0.6480402323422548 -0.21623634714041237 -0.08047168062618719
-0.2806172681605011 -0.1137333086183446 -0.08047168062618719
0.054795849727725054 -0.3198695657103857 -0.08047168062618719
0.12449505470741999 -0.0937620257464944 -0.08047168062618719
0.020861836137446656 0.28308864288550967 -0.08047168062618719
0.3506025946713114 -0.24562818142423481 -0.08047168062618719
0.36002314608328356 0.3772941570052329 -0.08047168062618719
-0.1864046010025 0.6128222483810964 -0.08047168062618719
-0.23350735806236153 -0.35755177135827493 -0.08047168062618719
-0.5067248081243922 0.1888759757275087 -0.08047168062618719
-0.4777621561372428 0.3772941570052329 -0.08047168062618719
-0.6009374752823933 0.4903479269871784 -0.08047168062618719
-0.053873107789878076 -0.28731608850773876 -0.0793987248845047
-0.22433716299011516 -0.16781743103742022 -0.0793987248845047
-0.21390088014268338 0.3906989507379862 -0.0793987248845047
0.7281399549779922 0.14668735596455298 -0.0793987248845047
0.19169784932813372 0.3584530541812882 -0.07904107297061053
0.19539597011779936 0.5468783884972903 -0.07904107297061053
0.34146101175217636 0.4338246185153446 -0.07904107297061053
0.11772112745826448 0.22655818137539796 -0.07904107297061053
-0.28543126292151644 0.1511866170413415 -0.07904107297061053
-0.47036591455791144 0.40556296427942773 -0.07904107297061053
-0.5432053033415972 0.24539928419934248 -0.07904107297061053
-0.24520257564670078 0.17945542431553632 -0.07904107297061053
-0.32611774464611676 -0.018390461412437966 -0.07904107297061053
-0.35940798479138564 -0.08433432129624421 -0.07904107297061053
-0.6291991295183104 -0.1220236799824113 -0.07904107297061053
-0.4259813120436456 -0.39523397700616414 -0.07904107297061053
-0.5295501532691179 -0.21623634714041237 -0.07904107297061053
-0.32611774464611676 -0.21623634714041237 -0.07904107297061053
0.06963840415433294 -0.11260312857043903 -0.07904107297061053
0.13252076365520504 -0.04665211564835496 -0.07904107297061053
0.746287213088982 0.1511866170413415 -0.07904107297061053
0.2545730557907279 -0.3763928741822195 -0.07904107297061053
0.1732000923415274 -0.2633391042002739 -0.07904107297061053
0.04005343783700761 -0.35755177135827493 -0.07904107297061053
-0.02398056082660383 0.03813284705939592 -0.07904107297061053
0.009323985395220887 0.32077084853339893 -0.07904107297061053
-0.1016124852564713 0.5939811455571518 -0.07904107297061053
-0.3520117432120543 0.22655818137539796 -0.07904107297061053
-0.4999580339135147 0.5186167342613732 -0.07904107297061053
-0.21780643904240773 -0.27652930678469073 -0.07796811722892802
-0.07218488578125935 -0.17541395768853227 -0.07796811722892802
-0.10953805166836604 0.5786021132597028 -0.07796811722892802
-0.22230570011919637 0.49918192926036437 -0.07796811722892802
0.6626968077736379 0.14397635445723517 -0.07796811722892802
-0.2452097286849787 -0.18796753986621756 -0.07761046531503386
-0.518448637861843 -0.07491376988427186 -0.07761046531503386
-0.344615501632723 -0.3387106685343303 -0.07761046531503386
-0.4370828274509205 -0.19738809127818982 -0.07761046531503386
-0.5591351195864434 -0.3763928741822195 -0.07761046531503386
-0.2743369005525195 -0.3387106685343303 -0.07761046531503386
-0.3182994738083903 0.00987119282347893 -0.07761046531503386
-0.3890001041469889 0.17945542431553632 -0.07761046531503386
-0.5739347557833839 0.3584530541812882 -0.07761046531503386
-0.4000944665159859 0.3584530541812882 -0.07761046531503386
-0.009674484270837216 0.18660846259341965 -0.07761046531503386
0.2693726919876684 0.20771707855145322 -0.07761046531503386
0.28416517514633116 0.5186167342613732 -0.07761046531503386
0.023129349271535714 0.3490325027693158 -0.07761046531503386
0.7086050074410928 0.10408385998148 -0.07761046531503386
0.09553240272027054 -0.05607266706032722 -0.07761046531503386
0.10292864429960182 -0.38581342559419185 -0.07761046531503386
0.31745541529160004 -0.32929011712235795 -0.07761046531503386
0.2101884532764619 -0.2633391042002739 -0.07761046531503386
-0.007406971136748155 -0.18796753986621756 -0.07761046531503386
0.09923052350993618 0.17003487290356406 -0.07761046531503386
0.003065076902072994 0.4903479269871784 -0.07761046531503386
-0.27803502134218516 0.509196182849401 -0.07761046531503386
-0.3890001041469889 0.5174293299072447 -0.07761046531503386
-0.5924253597317122 0.42440406710337225 -0.07761046531503386
-0.22200527251152524 -0.20198034185259087 -0.07653750957335137
-0.06715629987190737 0.1484756155340238 -0.07653750957335137
-0.07514624362830305 0.4476371354299374 -0.07653750957335137
-0.18619716289244143 0.5596537148615899 -0.07653750957335137
0.6285195908819113 0.05529298588803798 -0.07653750957335137
0.2758461916291528 -0.37142866561736854 -0.0761798576594572
0.040468314057124796 -0.20567846264225662 -0.0761798576594572
0.30349268457317186 -0.11260312857043903 -0.0761798576594572
0.20649033248679627 0.3961424128674554 -0.0761798576594572
0.0659402833646673 0.5156267642612181 -0.0761798576594572
0.33412914751734596 0.4460777730853587 -0.0761798576594572
0.13621888444487068 0.5232876682568312 -0.0761798576594572
0.08073276652332996 0.2394408033138657 -0.0761798576594572
0.33594601923992845 0.28308864288550967 -0.0761798576594572
0.0659402833646673 0.1606143214915917 -0.0761798576594572
0.13991700523453643 -0.4046545284181365 -0.0761798576594572
0.3433422608192597 -0.1220236799824113 -0.0761798576594572
0.06224216257500156 -0.02781101282441033 -0.0761798576594572
-0.4000944665159859 -0.38268754786675685 -0.0761798576594572
-0.6109159636800405 -0.235077449964357 -0.0761798576594572
-0.3298158654357824 -0.29974091599642205 -0.0761798576594572
-0.5998216013110436 -0.3057208559967325 -0.0761798576594572
-0.4000944665159859 -0.0728179296688521 -0.0761798576594572
-0.4777621561372428 -0.037231564236382596 -0.0761798576594572
-0.2558462966041911 0.2736680914735373 -0.0761798576594572
-0.5110523962825118 0.203260735704332 -0.0761798576594572
-0.5221467586515087 0.23597873278737033 -0.0761798576594572
-0.23613967614862266 0.38041288169438986 -0.0761798576594572
-0.5147505170721774 0.5468783884972903 -0.0761798576594572
-0.6072178428903748 0.4160779305479162 -0.0761798576594572
-0.3465611280443072 0.47150682416323386 -0.0761798576594572
0.5955512374591473 0.17945542431553632 -0.07560761459722654
-0.3190934610572353 0.2886465536274251 -0.07560761459722654
-0.6037700784404352 0.47150682416323386 -0.07560761459722654
-0.5630692906392791 0.2593190966881034 -0.07560761459722654
-0.5924253597317122 0.3560353272433637 -0.07560761459722654
-0.32611774464611676 0.3560353272433637 -0.07560761459722654
-0.09219193384449893 0.6052185686917066 -0.07560761459722654
0.039609949463778764 0.44421083009483114 -0.07560761459722654
0.26566741815972483 0.3584530541812882 -0.07560761459722654
0.36002314608328356 0.3772941570052329 -0.07560761459722654
0.23128276315793989 0.22655818137539796 -0.07560761459722654
-0.03392328403286163 0.19829652713948095 -0.07560761459722654
-0.03566862537266515 -0.3570439056405452 -0.07560761459722654
0.22845015999989798 -0.07590088916661979 -0.07560761459722654
0.09553240272027054 -0.235077449964357 -0.07560761459722654
0.34704038160892536 -0.21623634714041237 -0.07560761459722654
-0.2761537722751018 -0.0654932184722996 -0.07560761459722654
-0.6331905248773692 -0.2872946293929051 -0.07560761459722654
-0.5665313611657746 -0.22188724737994012 -0.07560761459722654
-0.6009374752823933 -0.2992974276231933 -0.07560761459722654
-0.32611774464611676 -0.2374951769022815 -0.07560761459722654
-0.3182994738083903 -0.18796753986621756 -0.07560761459722654
0.7131471867475488 0.07917698069789034 -0.07510690191777471
-0.21950886215254395 -0.190943203789817 -0.07510690191777471
-0.049731498626983686 0.19150829381376971 -0.07510690191777471
-0.22169769186557622 -0.23733781006016813 -0.07510690191777471
-0.1912686670314607 0.45283024121968063 -0.07510690191777471
-0.48284081331453993 -0.2116870147956785 -0.07510690191777471
-0.5591351195864434 -0.2322877650359825 -0.07474925000388054
-0.5850291181523808 0.373603189253845 -0.07474925000388054
-0.2970835622761884 0.373603189253845 -0.07474925000388054
0.10662676508926745 0.3584530541812882 -0.07474925000388054
-0.41488694967464856 -0.22188724737994012 -0.07474925000388054
0.28416517514633116 -0.21623634714041237 -0.07474925000388054
-0.5887272389420466 -0.24449800137632927 -0.07417700694164987
-0.3309603515602438 -0.21682289627919873 -0.07417700694164987
0.3063538998843252 -0.2374951769022815 -0.07417700694164987
0.1288226428655394 -0.2208715159444807 -0.07417700694164987
-0.007399818098470239 -0.1785469884542452 -0.07417700694164987
-0.36310610558105133 0.38671470841720507 -0.07417700694164987
-0.5776328765730495 0.35814547353533915 -0.07417700694164987
-0.10056814166790033 0.5845605941451796 -0.07417700694164987
0.09183428193060479 0.3746189206893046 -0.07417700694164987
0.23238433105273387 0.3621869401623432 -0.07417700694164987
0.6158515600917801 0.06640165433359074 -0.07417700694164987
-0.07218488578125935 -0.2719656683634012 -0.07367629426219804
-0.30786319096095854 -0.2270875062079613 -0.07367629426219804
-0.48708256501332486 -0.2455709571180118 -0.07367629426219804
-0.23039578641148237 0.39355301301086165 -0.07367629426219804
-0.23816398598126365 0.39356731908741727 -0.07367629426219804
-0.2376775793783676 -0.33684372554380276 -0.07367629426219804
-0.3026629321329374 0.4469146785638712 -0.07367629426219804
-0.430187298551041 0.3552699521476302 -0.07367629426219804
0.003859064150918071 0.3771510962396752 -0.07367629426219804
-0.05183449188068136 -0.25813169233397487 -0.07367629426219804
-0.2448449237328066 -0.33290240145268907 -0.07367629426219804
-0.4159384463014974 -0.05763202940490581 -0.07367629426219804
-0.049710039512150035 -0.171815979434757 -0.07367629426219804
0.3205669869424793 -0.10977767845067506 -0.07367629426219804
0.08982427817451964 -0.05116568280169933 -0.07367629426219804
0.19453760552445332 -0.20215201477126007 -0.07367629426219804
0.6916523067225093 0.1455071046487022 -0.07367629426219804
0.15011008478052001 0.37239432578488285 -0.07367629426219804
-0.6220174790873154 -0.21623634714041237 -0.07331864234830389
-0.40379258730565154 0.35814547353533915 -0.07331864234830389
0.2804670543566655 0.3584530541812882 -0.07331864234830389
0.06224216257500156 0.38671470841720507 -0.07331864234830389
-0.3852948303190453 -0.24449800137632927 -0.07331864234830389
0.1473132468138677 -0.23330349647144188 -0.07331864234830389
0.2375488246893657 -0.24449800137632927 -0.07331864234830389
-0.6090990919574583 0.38671470841720507 -0.07274639928607322
-0.2546231270586731 -0.19852542436437332 -0.07274639928607322
0.2878632959359968 -0.23664396534721338 -0.07274639928607322
0.09923052350993618 -0.20681579572844 -0.07274639928607322
-0.026527042453530245 -0.2993188867380269 -0.07274639928607322
0.08443804035127352 0.3779665426033539 -0.07274639928607322
0.27307081277733425 0.3588464712865718 -0.07274639928607322
0.6176612787760845 0.04756055150964611 -0.07274639928607322
-0.07218488578125935 0.4436886583005456 -0.07224568660662138
-0.4340642452976537 0.20486301627857778 -0.07224568660662138
-0.4314891515176157 -0.22879708235637544 -0.07224568660662138
-0.3065756440709395 -0.1925597904406186 -0.07224568660662138
0.3463966081639158 0.3557706648270819 -0.07224568660662138
-0.24014537758423732 -0.335477495232727 -0.07224568660662138
-0.04744252637806098 0.5003335684231036 -0.07224568660662138
-0.36743369373917073 -0.04025014638964933 -0.07224568660662138
-0.30927949253997944 -0.2762861034832427 -0.07224568660662138
-0.22962325827747096 -0.31519863171492785 -0.07224568660662138
0.07623350544654132 0.5057913366291286 -0.07224568660662138
0.01721378661572613 0.1673810957024694 -0.07224568660662138
-0.06715629987190737 0.041358867322721246 -0.07224568660662138
-0.37067402007905187 0.22548522563371542 -0.07224568660662138
-0.2933210641420218 0.3188967525045935 -0.07224568660662138
-0.2268121142342628 -0.178804497832249 -0.07224568660662138
0.1249671552337603 -0.08306108048278091 -0.07224568660662138
0.008401243457373905 -0.15700203716126065 -0.07224568660662138
0.04729946561250334 -0.3068939542743054 -0.07224568660662138
0.1930354674860978 -0.20251681972343213 -0.07224568660662138
0.6209588294221887 0.17075017673135234 -0.07224568660662138
0.14797132633543308 0.38853158013978756 -0.07224568660662138
0.3137501414636565 -0.23664396534721338 -0.07188803469272721
0.09553240272027054 -0.2175238940304313 -0.07188803469272721
0.054845920995670275 0.3779665426033539 -0.07188803469272721
0.27307081277733425 0.3588464712865718 -0.07188803469272721
0.31005202067399085 0.3490325027693158 -0.07131579163049655
0.09183428193060479 0.38671470841720507 -0.07131579163049655
-0.1016124852564713 0.5939811455571518 -0.07131579163049655
-0.2547733408625087 -0.02781101282441033 -0.07131579163049655
0.04375155862667325 -0.20681579572844 -0.07131579163049655
0.2545730557907279 -0.20681579572844 -0.07131579163049655
0.2034216790655843 0.37358888317728933 -0.07081507895104472
0.14109010351210932 0.3632813550188595 -0.07081507895104472
-0.28633254574452977 0.38437566490033725 -0.07081507895104472
-0.4340642452976537 0.20486301627857778 -0.07081507895104472
-0.4519325349158062 -0.19718780620640905 -0.07081507895104472
-0.6274537881785068 -0.23682994434243834 -0.07081507895104472
0.16986677650403373 -0.22997733367222614 -0.07081507895104472
0.11393717020926424 -0.378882131502923 -0.07081507895104472
-0.04970288647387212 0.48108474241731963 -0.07081507895104472
-0.0367487341526255 -0.306057048795793 -0.07081507895104472
0.08222059848512968 0.5179228895484187 -0.07081507895104472
0.042149278052427366 0.173654310272173 -0.07081507895104472
0.01840119096985484 0.3093975176715644 -0.07081507895104472
0.021698741615959034 0.4953693598582525 -0.07081507895104472
-0.22763471363621934 -0.29656496700104185 -0.07081507895104472
0.21475924473602942 -0.25004875907996665 -0.07081507895104472
0.040833119009296856 -0.2852989317133756 -0.07081507895104472
0.09279994209811908 -0.05148041648592617 -0.07081507895104472
-0.3304095676128467 0.25655802391284044 -0.07081507895104472
-0.44342041936512505 0.39323112628835677 -0.07081507895104472
-0.40297714094197284 0.20321066443638677 -0.07081507895104472
-0.29876452627149097 -0.24068543197421743 -0.07081507895104472
-0.2657461015807816 -0.2094338077381453 -0.07081507895104472
-0.293549961366914 -0.036466189140649086 -0.07081507895104472
0.7197565941163129 0.14752426144306527 -0.07081507895104472
0.24717681421139664 0.38671470841720507 -0.07045742703715056
0.08073276652332996 0.3490325027693158 -0.07045742703715056
0.14361512602420207 -0.20681579572844 -0.07045742703715056
0.29156141672566244 -0.24449800137632927 -0.07045742703715056
-0.2386646986607154 0.5091890298111231 -0.0698851839749199
-0.022828921663864604 0.19829652713948095 -0.0698851839749199
0.7331542348107885 0.17945542431553632 -0.0698851839749199
0.301704425003701 0.2608283877647368 -0.06938447129546806
0.20880791688883055 0.3767791382492253 -0.06938447129546806
-0.30380026521912085 0.4335599560990629 -0.06938447129546806
-0.6331619127242577 -0.2154924311595125 -0.06938447129546806
-0.48708256501332486 -0.2455709571180118 -0.06938447129546806
0.22098238803778794 -0.2525237103241143 -0.06938447129546806
0.3598657792411702 -0.2178100155615467 -0.06938447129546806
-0.5420035929109128 0.22411184228436176 -0.06938447129546806
-0.044624229296575016 0.39943281047528173 -0.06938447129546806
-0.04496757513391343 0.3959778929870641 -0.06938447129546806
0.026949071711925343 -0.04185242696389522 -0.06938447129546806
-0.008980639557882475 -0.2667725625736579 -0.06938447129546806
0.17132599631272197 -0.22748092331324493 -0.06938447129546806
-0.04891605226330496 0.4788386883980643 -0.06938447129546806
0.008730283218156583 0.3635460174351412 -0.06938447129546806
0.14237049736385032 0.3682026453540431 -0.06938447129546806
-0.11558236901317742 -0.3284102934141783 -0.06938447129546806
-0.28940119916574175 0.4071723978919514 -0.06938447129546806
-0.2806172681605011 0.23519905161508098 -0.06938447129546806
-0.3724050553422996 -0.3572656498271596 -0.06938447129546806
-0.3094082472289813 -0.23029206735645297 -0.06938447129546806
-0.23817113901954146 -0.3286892619070158 -0.06938447129546806
0.6941057988518234 0.15216658328541152 -0.06938447129546806
0.6842489121049001 0.14210941146670766 -0.06845457631934322
-0.01440264257251799 4.5064141150666533E-4 -0.06845457631934322
-0.26177616533655645 0.2548198356113148 -0.06845457631934322
0.03614072589900537 -0.21585008307340664 -0.06795386363989141
0.03890895171254621 -0.23831777630423806 -0.06795386363989141
0.20635442475951646 0.3733885981055085 -0.06795386363989141
-0.21390088014268338 0.4436886583005456 -0.06795386363989141
-0.5824039531043977 0.2628383915208221 -0.06795386363989141
-0.4616463608971717 -0.1956427499383863 -0.06795386363989141
-0.49219698738201134 -0.3786603873163085 -0.06795386363989141
-0.09041082731330603 0.5630871732349738 -0.06795386363989141
0.35459399003037023 -0.1516873297207934 -0.06795386363989141
-0.02322949180742605 -0.3039039842741501 -0.06795386363989141
-0.3325626321344896 -0.11692356369028054 -0.06795386363989141
-0.06715629987190737 0.1484756155340238 -0.06795386363989141
-0.23255600397140308 -0.0169240885654719 -0.06795386363989141
0.1465836369095237 0.20154400651764004 -0.06795386363989141
-0.42409290993828436 0.3634601809758066 -0.06795386363989141
0.10826481085490272 -0.37235140755521545 -0.06795386363989141
-0.6295853935853161 -0.2224737965187266 -0.06795386363989141
0.6253794070779206 0.14172314739970196 -0.06795386363989141
0.610644148225481 0.10408385998148 -0.06702396866376657
-0.023959101711770178 0.19817492548875698 -0.06702396866376657
-0.2146662552384169 0.5769569144557894 -0.06702396866376657
0.01606214745298701 0.3566504885352617 -0.06652325598431473
-0.2125489559081635 -0.2789255746077816 -0.06652325598431473
-0.2918904564864451 0.3835101472687135 -0.06652325598431473
-0.30786319096095854 -0.21965549943724055 -0.06652325598431473
-0.5414098907338485 -0.3656561637271167 -0.06652325598431473
0.20249893712773745 -0.26132910044418867 -0.06652325598431473
0.15350777796251475 0.19787449788108585 -0.06652325598431473
-0.6200146283695082 -0.1419591976628721 -0.06652325598431473
-0.23312824703363375 0.4996111115570374 -0.06652325598431473
-0.23661177667496297 0.49179999375758876 -0.06652325598431473
0.006255331974008934 0.38002661762738416 -0.06652325598431473
-0.43211861888606945 -0.22572842893516348 -0.06652325598431473
-0.06715629987190737 0.416263909543141 -0.06652325598431473
0.33421498397668054 0.3719222252585425 -0.06652325598431473
0.14604715903868243 -0.2270875062079613 -0.06652325598431473
-0.48349173979782734 0.3647763400189371 -0.06652325598431473
0.6259373440635955 0.07261764459707133 -0.06652325598431473
0.6162306711205079 0.14721668079711633 -0.06652325598431473
0.746287213088982 0.12292496280542463 -0.06559336100818991
-0.1016124852564713 0.5901614231167621 -0.06559336100818991
-0.2706387797628538 0.19829652713948095 -0.06559336100818991
0.13538913200463623 0.5307625932572191 -0.06509264832873808
-0.5620893243952091 0.49966833586326054 -0.06509264832873808
-0.46241888903118317 0.3385032304242717 -0.06509264832873808
-0.6272606561450039 -0.21270274623113802 -0.06509264832873808
0.17195546368117565 -0.39655013604929473 -0.06509264832873808
0.03737104848280137 -0.2158643891499624 -0.06509264832873808
-0.10671260154860206 0.5805835048626764 -0.06509264832873808
0.27860726440441574 -0.3824801097566982 -0.06509264832873808
-0.2400881532780142 -0.33762340671609203 -0.06509264832873808
0.3244940049570373 -0.10552877371361241 -0.06509264832873808
-0.024016326017993212 0.4844037521782575 -0.06509264832873808
-0.2290581682535181 0.29399702625928176 -0.06509264832873808
-0.29185469129505576 0.3741468201629643 -0.06509264832873808
0.2063329656446829 0.3684100834641017 -0.06509264832873808
-0.42840619201984803 -0.22519910410260013 -0.06509264832873808
0.05749254515848703 -0.3674658824114212 -0.06509264832873808
0.7185477306473507 0.06953468509930365 -0.06509264832873808
0.7302143360785783 0.1386115757488227 -0.06509264832873808
0.6332334431070366 0.12292496280542463 -0.06416275335261325
0.008379784342540254 0.1547345240271717 -0.06416275335261325
-0.2761537722751018 -0.0654932184722996 -0.06416275335261325
0.3183853102677248 0.45635668909067706 -0.0636620406731614
-0.29902203564949476 0.43649270179299504 -0.0636620406731614
-0.2903167880653108 0.35691515095154325 -0.0636620406731614
-0.4405162858243044 -0.05513561904592451 -0.0636620406731614
0.17444472100187913 -0.21797453544193796 -0.0636620406731614
0.040260875947066205 -0.23506314388780117 -0.0636620406731614
-0.06769993078102655 0.5351474057215616 -0.0636620406731614
0.17418721162387532 -0.4002053386092931 -0.0636620406731614
-0.38749796610863335 -0.3740395245887959 -0.0636620406731614
0.3244940049570373 -0.3563071426979232 -0.0636620406731614
0.366439421418545 -0.22140799381532197 -0.0636620406731614
-0.22169769186557622 -0.24894719118517267 -0.0636620406731614
-0.4776906257544639 0.37773049234018363 -0.0636620406731614
-0.25641138662814394 -0.2502705032665811 -0.0636620406731614
-0.05614777396224505 0.388874925977126 -0.0636620406731614
0.20606830322840117 0.37412536104813054 -0.0636620406731614
0.6227041707619922 0.045586312944950344 -0.0636620406731614
0.7285405251215537 0.06581510519480425 -0.06330438875926725
-0.1864046010025 0.6128222483810964 -0.06330438875926725
-0.00513230496438128 -0.15970588563030055 -0.06330438875926725
0.20588947727145407 0.3566504885352617 -0.062231433017584756
0.28102499134234044 0.4912778219633034 -0.062231433017584756
-0.478978172644483 0.37989786293838246 -0.062231433017584756
-0.4318468034315099 -0.2144409345326636 -0.062231433017584756
0.1746736182267715 -0.2132892953699244 -0.062231433017584756
0.0392451445116068 -0.24185853025179033 -0.062231433017584756
-0.49219698738201134 -0.04909845473939104 -0.062231433017584756
0.13425895195673065 0.5334807478028147 -0.062231433017584756
-0.013551431017449878 -0.2446839803715542 -0.062231433017584756
-0.03694186618612836 0.19394032682825008 -0.062231433017584756
-0.25374330335049344 -0.23170836893547392 -0.062231433017584756
-0.14068953336854775 -0.32995534968220114 -0.062231433017584756
-0.4621470735766235 -0.22272415285845248 -0.062231433017584756
-0.2908675720127078 0.1925597904406186 -0.062231433017584756
-0.052206449871131336 0.48476855713042943 -0.062231433017584756
-0.02254280013274923 -0.2427812721896373 -0.062231433017584756
0.06427362544592045 -0.13026398007853288 -0.062231433017584756
0.7033046060771814 0.15343267106059694 -0.062231433017584756
0.5955512374591473 0.14176606562936925 -0.06187378110369059
-0.19582515241447238 0.5957980172797342 -0.06187378110369059
-0.26694065897318814 0.19829652713948095 -0.06187378110369059
0.014073602811735413 0.35458326047295335 -0.0608008253620081
0.17199122887256524 -0.06465631299378721 -0.0608008253620081
0.2113257863626455 -0.2542547455873621 -0.0608008253620081
-0.542296867480306 -0.06797532275472505 -0.0608008253620081
-0.44316290998712127 -0.2525237103241143 -0.0608008253620081
-0.42292696469898944 0.352272829109197 -0.0608008253620081
-0.6114667476274375 0.3041400345373203 -0.0608008253620081
-0.04923793898580972 0.2835035191056268 -0.0608008253620081
-0.2359107789237304 -0.33525575104611266 -0.0608008253620081
0.17137606758066717 -0.40605652392060165 -0.0608008253620081
-0.246232613158716 -0.22037080326502895 -0.0608008253620081
0.05005338534948845 0.1755498654158121 -0.0608008253620081
-0.0520204708759063 0.48605610402044847 -0.0608008253620081
-0.018315354510520236 -0.2723376263538511 -0.0608008253620081
-0.05540385798134519 0.4952406051692508 -0.0608008253620081
0.1681572003556198 -0.0636763467497172 -0.0608008253620081
0.6481761400695347 0.1529605705342566 -0.0608008253620081
0.6616524641850668 0.14278895010310658 -0.06044317344811393
0.039702938961391286 0.09466330856950764 -0.06044317344811393
-0.22408680665038927 0.5396395137600724 -0.06044317344811393
0.15023883946952193 0.3499194795157735 -0.05937021770643143
0.03729951810002251 0.38399655387160947 -0.05937021770643143
0.2271411539950454 -0.24086425793116456 -0.05937021770643143
-0.4616463608971717 -0.25564958805154936 -0.05937021770643143
-0.3497370770396874 -0.10183780596222458 -0.05937021770643143
-0.29440117292198215 0.3510997308316242 -0.05937021770643143
-0.6246569502118544 0.3567220189180405 -0.05937021770643143
-0.03981023453555954 0.19180872142144081 -0.05937021770643143
-0.02885177989384234 -0.335663474227952 -0.05937021770643143
0.17137606758066717 -0.40605652392060165 -0.05937021770643143
-0.22487364086095643 -0.3305919700889327 -0.05937021770643143
-0.3115470056740684 0.3764787106415542 -0.05937021770643143
-0.15088976595280937 0.49890296076752705 -0.05937021770643143
-0.02438828400844309 -0.2343621461365686 -0.05937021770643143
-0.47811980805113696 -0.20675141838393904 -0.05937021770643143
-0.01735684738128387 -0.21534221735567693 -0.05937021770643143
0.6205868714317389 0.1718732037409801 -0.05937021770643143
0.5955512374591473 0.1323455142173969 -0.059012565792537275
0.01498203867302656 -0.037231564236382596 -0.059012565792537275
-0.1581429467665831 0.6334802229276235 -0.059012565792537275
0.01680606343388687 0.35233720645369804 -0.057939610050854774
-0.21666910595622424 -0.2719656683634012 -0.057939610050854774
-0.4680697892707109 0.5386094762480572 -0.057939610050854774
-0.4922327525734008 -0.2137542428579868 -0.057939610050854774
-0.4926190166404064 -0.3785960099718076 -0.057939610050854774
0.36408607182512137 -0.21409758869532522 -0.057939610050854774
0.08353675752826019 0.5124436622275599 -0.057939610050854774
-0.028243771640222202 -0.333209982098638 -0.057939610050854774
-0.26839272574359846 -0.14188051424181533 -0.057939610050854774
-0.5920963199709295 -0.3439323864771851 -0.057939610050854774
-0.22169769186557622 0.20816771996296 -0.057939610050854774
-0.375387872304177 -0.36303815171741144 -0.057939610050854774
0.06624786401061622 0.23731635094533438 -0.057939610050854774
-0.07066844166634807 0.45089176784637414 -0.057939610050854774
0.20249893712773745 -0.2534392992236834 -0.057939610050854774
0.7193774830875851 0.04483524392577257 -0.057939610050854774
0.6377327041838251 0.15711648577370685 -0.057939610050854774
-0.002106569772836629 -0.13303935893035163 -0.057581958136960605
-0.25081055765656135 0.4997684783991508 -0.057581958136960605
0.34626785347491396 -0.15497057429034186 -0.056509002395278105
0.18237028741377387 -0.2547912234582034 -0.056509002395278105
-0.3065112667264386 -0.20941234862331162 -0.056509002395278105
-0.2901951864145868 0.3330454622182467 -0.056509002395278105
-0.328614155005098 0.47896744308706624 -0.056509002395278105
0.13538913200463623 0.5307625932572191 -0.056509002395278105
0.17567504358567504 0.3369653271945268 -0.056509002395278105
-0.6197285068383928 0.41265162521280996 -0.056509002395278105
-0.012149435514984763 -0.17842538680352119 -0.056509002395278105
-6.258908493148299E-4 -0.18042823752132853 -0.056509002395278105
-0.04793608601923494 0.380663238034116 -0.056509002395278105
-0.3071264280183365 -0.2706352032437149 -0.056509002395278105
-0.29871445500354576 -0.1929389014693464 -0.056509002395278105
0.3442793088336624 0.35339585611882474 -0.056509002395278105
-0.2161111689705494 0.5160201813665016 -0.056509002395278105
0.6270603710732233 0.050285859093519646 -0.056509002395278105
0.6677969240657686 0.14904785859625447 -0.056509002395278105
0.7368666616770099 0.06640165433359074 -0.05615135048138395
-0.3182994738083903 0.14176606562936925 -0.05615135048138395
0.012585770849935696 0.32734449071077376 -0.05507839473970145
0.009552882620113128 0.38509096872812576 -0.05507839473970145
-0.2867974932325922 0.3850408974601805 -0.05507839473970145
-0.2919262216778345 0.35230859430058636 -0.05507839473970145
-0.48763334896072186 -0.23937642596936484 -0.05507839473970145
-0.07511763147519158 -0.27261659484668854 -0.05507839473970145
0.3655524446720873 -0.2053351168049182 -0.05507839473970145
-0.22846446607645382 0.5085667154809473 -0.05507839473970145
-0.035725849678888186 -0.3336320113570332 -0.05507839473970145
-0.23990217428278923 0.4897399187335585 -0.05507839473970145
-0.23817113901954146 0.4926368992361012 -0.05507839473970145
-0.06715629987190737 0.024978409666368537 -0.05507839473970145
-0.23703380593335807 0.18925508675623648 -0.05507839473970145
0.04718501700005727 0.4791677281588469 -0.05507839473970145
0.33710481144094556 -0.2186183088869475 -0.05507839473970145
-0.27400786079173683 -0.13520672952855026 -0.05507839473970145
0.6268457799248868 0.05700256203645202 -0.05507839473970145
0.6652146772474526 0.1475457205578989 -0.05507839473970145
0.6607082631323862 0.1424670633806018 -0.054148499763576614
0.01829389539568659 -0.027288841030124796 -0.054148499763576614
-0.1298812925306661 0.6162914719458698 -0.054148499763576614
0.016033535299875445 0.350684854611507 -0.05364778708412479
-0.0591305909241223 0.5044537184711644 -0.05364778708412479
-0.4299727074027045 0.2061004919006516 -0.05364778708412479
-0.3039433259846785 -0.19170857888555048 -0.05364778708412479
-0.216747789377281 -0.2775164260670386 -0.05364778708412479
0.23020265437797943 -0.24721615592192497 -0.05364778708412479
-0.22522413973657276 0.5184379083044263 -0.05364778708412479
-0.6360660462650782 -0.24512746874478306 -0.05364778708412479
-0.06269280398650821 0.5377725707695449 -0.05364778708412479
-0.09660535846195296 0.5845319819920679 -0.05364778708412479
0.10930200140519587 0.21093594577650082 -0.05364778708412479
-0.23008105272725543 0.24145796010822887 -0.05364778708412479
-0.26092495378148833 -0.09370480144027127 -0.05364778708412479
0.3442149314891616 0.35318126497048824 -0.05364778708412479
-0.20977357705634472 0.5370071956738114 -0.05364778708412479
0.6268100147334972 0.05696679684506264 -0.05364778708412479
0.7056722617471607 0.151773166180128 -0.05364778708412479
0.7071028694027375 0.16323233350129698 -0.05364778708412479
0.6103580266943657 0.17003487290356406 -0.05271789210799996
-0.25907231686751653 0.2642403870232872 -0.05271789210799996
0.20271352827607395 0.35305966331976424 -0.05221717942854812
-0.07099748142713075 0.522565211390765 -0.05221717942854812
-0.5809733454488211 0.2611073562575742 -0.05221717942854812
-0.4616463608971717 -0.1956427499383863 -0.05221717942854812
-0.32234809347367227 -0.2921229302304763 -0.05221717942854812
0.233113940957078 -0.23751663601711515 -0.05221717942854812
0.33644673191938024 0.4055486582028719 -0.05221717942854812
-0.41237623323911154 0.5370572669417564 -0.05221717942854812
0.22624702421030998 -0.06155189438118588 -0.05221717942854812
-0.49402101214287164 -0.04620862727512611 -0.05221717942854812
-0.4381629362308808 -0.04355485007403144 -0.05221717942854812
-0.06715629987190737 0.2555923637453263 -0.05221717942854812
-0.22169769186557622 -0.05962057404615731 -0.05221717942854812
-0.2625916117002351 -0.07670202945374269 -0.05221717942854812
0.002578670299176945 -0.17940535304759123 -0.05221717942854812
-0.4849151944151261 0.3734172102586201 -0.05221717942854812
0.6267742495421078 0.056931031653673254 -0.05221717942854812
0.7079254688046939 0.15258145950552882 -0.05221717942854812
0.6394995046384622 0.16305350754434997 -0.05221717942854812
0.023129349271535714 0.05698110292161837 -0.05185952751465397
-0.1016124852564713 0.6222427997930688 -0.05185952751465397
0.15719159267562458 0.3938391345419769 -0.05078657177297147
0.03706346783685235 0.28291696996684046 -0.05078657177297147
-0.5824039531043977 0.2628383915208221 -0.05078657177297147
-0.6123108061442278 0.38117110375184565 -0.05078657177297147
-0.3065112667264386 -0.2102063358721567 -0.05078657177297147
0.22675488992803966 -0.06474214945312182 -0.05078657177297147
0.362634005054711 -0.25574257754916185 -0.05078657177297147
-0.5636129215483983 0.5021575931839638 -0.05078657177297147
0.0032295967824642825 -0.12309663572409384 -0.05078657177297147
0.11191286037662325 -0.3811711037518456 -0.05078657177297147
