0.18025696793620635 0.05637217395616067 -0.2654493578920784
0.18031595668240463 -0.04348734639371652 -0.2654493578920784
0.09934968904344939 -0.12491709703851503 -0.2654493578920784
0.5932118991788543 0.3497906245099472 -0.2650280097049481
0.10486092333111358 0.5579956176985055 -0.2650280097049481
-0.023962071402099255 0.13741428426879926 -0.2650280097049481
0.3648243278267556 0.028495777895621074 -0.2650280097049481
0.3809619633938454 0.48262485398464033 -0.2643538526055397
0.4563327271077106 0.3372007406784943 -0.2643538526055397
-0.06987216987181498 0.3484591642386156 -0.2643538526055397
0.10486092333111358 0.20401257872661188 -0.2643538526055397
0.38873162396452804 0.2922934508941488 -0.2643538526055397
0.370310281223192 0.02938903605233735 -0.2643538526055397
0.5873214515227729 0.10360530573346532 -0.2643538526055397
0.16023450208377538 -0.0462766713925189 -0.2643538526055397
0.09206879236983818 -0.12986372475542457 -0.26376396514355727
0.1388047332863291 -0.06424295809175422 -0.26376396514355727
0.20057437751962862 0.019537915437231233 -0.26376396514355727
0.28046199379953035 0.3349760222504466 -0.26376396514355727
0.17799854165318804 0.3256220924961542 -0.26376396514355727
0.1570406828253278 0.16295641137263708 -0.26376396514355727
0.25298166503489333 0.34120354845623196 -0.26376396514355727
0.35717264474846966 0.05350700628367472 -0.26376396514355727
0.36181590177064543 0.004748594068958332 -0.26376396514355727
0.4222962205513262 -0.14758562950612425 -0.26376396514355727
0.6822174902282555 0.06714183361921064 -0.26376396514355727
0.5849787556023286 0.09171485989264884 -0.26376396514355727
0.5064057456662735 0.13260248797177143 -0.26376396514355727
0.42936644313137234 0.31775130836056054 -0.26376396514355727
0.5148832711913348 0.3599872506385001 -0.26376396514355727
0.5771079714667349 0.36250691279753927 -0.26376396514355727
0.4475096960692025 0.6559590712062964 -0.26376396514355727
0.37990016596227727 0.511756867642828 -0.26376396514355727
0.3388777064632728 0.45986362491586247 -0.26376396514355727
0.35323725268067285 0.39318106082062376 -0.26376396514355727
0.14729068577513307 0.4620714894164252 -0.26376396514355727
0.11628788616608682 0.516332708955063 -0.26376396514355727
0.08616149078627154 0.6628354736202624 -0.26376396514355727
-0.11465305520002142 0.4047175741842509 -0.26376396514355727
0.011262637041992358 0.35788893666659133 -0.26376396514355727
0.10586373201648365 0.30528782898524676 -0.26376396514355727
0.0087598288104385 0.1392260814734595 -0.26376396514355727
-0.055765432566693036 0.08818396208449698 -0.26376396514355727
0.10773451796734206 -0.10863620308780086 -0.263342616956427
0.5957652691928639 0.10011654274402669 -0.263342616956427
0.12705754582913678 0.4961838386464929 -0.263342616956427
0.3648243278267556 0.5124394517059793 -0.26266845985701853
0.47855463049696173 0.2817007574696934 -0.26266845985701853
0.11466148216376394 -0.1562906830522359 -0.26266845985701853
0.29354064152805426 0.11286653888658899 -0.26266845985701853
0.3157372640260776 0.007824435835009356 -0.26266845985701853
0.32683557527508933 0.44378497809497075 -0.26266845985701853
0.03826262887330097 0.162467647475566 -0.26266845985701853
0.08485531140616766 -0.2067513419429586 -0.2620785723950361
0.14769518003477816 -0.07369801141095778 -0.2620785723950361
0.1730519139362786 -0.023582858033681868 -0.2620785723950361
0.2341305471426844 0.09834688035807944 -0.2620785723950361
0.3430153456608922 0.12727664688644474 -0.2620785723950361
0.3622456769215183 0.25661368640795645 -0.2620785723950361
0.27760525309078704 0.33318107897327137 -0.2620785723950361
0.13657158789453863 0.2083945998727668 -0.2620785723950361
0.3657091590197291 0.050153074714117694 -0.2620785723950361
0.3688945513144342 -0.06784127160984689 -0.2620785723950361
0.41814172742622163 -0.20048168091846 -0.2620785723950361
0.6553186219618582 0.07978227923311913 -0.2620785723950361
0.48150406780687366 0.13587214990390248 -0.2620785723950361
0.46293103971817073 0.18570078651392974 -0.2620785723950361
0.4791108101039737 0.3176164769406788 -0.2620785723950361
0.556697865282144 0.3441529857661441 -0.2620785723950361
0.4374141935055608 0.6587568231688414 -0.2620785723950361
0.41097038128126423 0.5273720314578764 -0.2620785723950361
0.33587770737090517 0.4928804688593915 -0.2620785723950361
0.31079063630916814 0.41684397500986065 -0.2620785723950361
0.174366520280125 0.5022596795049116 -0.2620785723950361
0.126627770678264 0.5566304495722033 -0.2620785723950361
0.06797610302972851 0.6345545833000777 -0.2620785723950361
-0.06827947372446244 0.3625574745799949 -0.2620785723950361
0.01186937843145999 0.3153074888752048 -0.2620785723950361
0.09327384818503079 0.14167832792255772 -0.2620785723950361
0.06788340642855989 0.15374574000196906 -0.2620785723950361
-0.10931878715095207 0.06594520476776067 -0.2620785723950361
0.4793888999074796 0.14851259551781099 -0.2616572242079058
0.11241990980823079 0.5601529204166124 -0.2616572242079058
0.1381558570781485 -0.12188339009117699 -0.2616572242079058
-0.003273875414002365 0.10420362015919044 -0.2609830671084974
0.3514675902947257 0.04100139208964795 -0.2609830671084974
0.3601389359858669 -0.06522048588589648 -0.2609830671084974
0.2047541515359611 0.4481922801323537 -0.2609830671084974
-0.03217836105113973 0.32647321583415734 -0.2609830671084974
0.20798167864937905 0.3261024294294827 -0.2609830671084974
0.4711220484759835 0.15335809966980926 -0.2609830671084974
0.10094238519080193 -0.12358563676718332 -0.260393179646515
0.19311651460742268 -0.016891848822052996 -0.260393179646515
0.20879066716866923 0.021703645119080933 -0.260393179646515
0.28891423843336383 0.3208355770903542 -0.260393179646515
0.1814873046426268 0.33575972987850883 -0.260393179646515
0.16521483765565528 0.17616146355730022 -0.260393179646515
0.2474451498560013 0.1020715983323112 -0.260393179646515
0.35707994814730104 0.0545350958602726 -0.260393179646515
0.355242870051413 -0.051551950695390085 -0.260393179646515
0.424310264885809 -0.13041990436243645 -0.260393179646515
0.6897006340316891 0.04914183906500497 -0.260393179646515
0.5983439200981013 0.11558002121170803 -0.260393179646515
0.43672318247866726 0.16836652209538988 -0.260393179646515
0.41796476118762704 0.2862513178907005 -0.260393179646515
0.4874619311728958 0.32397883456634613 -0.260393179646515
0.6267175070194545 0.35971758779873664 -0.260393179646515
0.4226585799922583 0.5761641515275632 -0.260393179646515
0.36895354006063247 0.4974984449903394 -0.260393179646515
0.29984401040752334 0.41567262704963837 -0.260393179646515
0.2178243723007424 0.34600691778951737 -0.260393179646515
0.14324574317868233 0.5193411350111732 -0.260393179646515
0.12741990527006888 0.6123411068745693 -0.260393179646515
-0.11217552785969538 0.355756914839712 -0.260393179646515
0.04277105447559497 0.31628501666934705 -0.260393179646515
0.05935531912104295 0.26857154795871385 -0.260393179646515
0.11718957128654561 0.11945642453330658 -0.260393179646515
-0.0724761016682801 0.11613620081872003 -0.260393179646515
-0.10967271962814151 0.0938553086832706 -0.260393179646515
0.3909647693563184 -0.049428355832253495 -0.25997183145938474
0.3712372472348785 0.4261979047641528 -0.25997183145938474
0.3764535377915514 0.13741428426879926 -0.25929767435997625
0.220976056740477 0.43807149667748413 -0.25929767435997625
0.18693112322035005 0.01818117427467171 -0.25929767435997625
0.28529064402404336 0.08033845884013113 -0.25929767435997625
0.0479704911047827 0.3012597403162813 -0.25929767435997625
0.5120265304825913 0.344987255176662 -0.25929767435997625
0.6843073772364217 0.04360532388611309 -0.2587077868979939
0.5548523602225134 0.08792272620847627 -0.2587077868979939
0.47828496765719825 0.13966428358807506 -0.2587077868979939
0.46417823035207634 0.18630752790339739 -0.2587077868979939
0.4951894569248652 0.33281871953233955 -0.2587077868979939
0.5545237086365516 0.33965298712759256 -0.2587077868979939
0.6035602106547742 0.3864479167902818 -0.2587077868979939
0.43514734025879986 0.6043017834641234 -0.2587077868979939
0.37406028008865144 0.5386136010905124 -0.2587077868979939
0.36034961007943206 0.4577231761252407 -0.2587077868979939
0.15739461530251725 0.3777091553891999 -0.2587077868979939
0.17340584641346793 0.4452512697861842 -0.2587077868979939
0.09867553194404095 0.544133262341919 -0.2587077868979939
0.09030755694763357 0.6610152494518597 -0.2587077868979939
-0.11488901018481443 0.40289735001584825 -0.2587077868979939
-0.031436788241790484 0.37104342706879884 -0.2587077868979939
0.09458002756513456 0.3049338965080573 -0.2587077868979939
0.0747766627700113 0.16995079127899976 -0.2587077868979939
0.020127802899213572 0.14349855209096063 -0.2587077868979939
-0.12803507362327915 0.07890587500388815 -0.2587077868979939
-0.15943394052822799 0.04430476187674934 -0.2587077868979939
0.10679069802817028 -0.17171202670120425 -0.2587077868979939
0.17387775638305394 -0.018046342854789975 -0.2587077868979939
0.21800976550307977 0.03091431648974895 -0.2587077868979939
0.28063053307438246 0.342273772851543 -0.2587077868979939
0.1877822465583532 0.34152377307845105 -0.2587077868979939
0.1296361967343742 0.22961369457664785 -0.2587077868979939
0.2759198603422659 0.10366429447966362 -0.2587077868979939
0.130622151492259 0.206338420719571 -0.2587077868979939
0.3724844378687841 -0.035860944206658384 -0.2587077868979939
0.3892288148253418 -0.06609689011512745 -0.2587077868979939
0.42698161239221505 -0.1278075456022288 -0.2587077868979939
0.18617269648351553 0.09879350943643751 -0.2582864387108636
0.2188945966960534 0.364605226769448 -0.2582864387108636
0.4389984626891706 0.31334400632317777 -0.25761228161145516
0.396762520411231 0.2674676157084325 -0.25761228161145516
0.14290023766523552 0.25950413497167013 -0.25761228161145516
0.4045321809819137 -0.008203649203426505 -0.25761228161145516
0.1382148458243468 -0.03731038197038653 -0.25761228161145516
0.00481600977889902 0.3193692853991409 -0.25761228161145516
0.32950692278149524 0.35939736317651777 -0.25761228161145516
-0.11091148329830448 0.35802376808647296 -0.25702239414947275
-0.007074436061917463 0.3052962559489894 -0.25702239414947275
0.06207722840990452 0.2658496386698522 -0.25702239414947275
0.10944519160709104 0.1555322563154015 -0.25702239414947275
-0.048037906814723634 0.10837496721178015 -0.25702239414947275
-0.09404912884935063 0.0548131856637786 -0.25702239414947275
0.08356598595354905 -0.14499855163714429 -0.25702239414947275
0.13692552037172806 -0.11499013374972557 -0.25702239414947275
0.1606895581258761 -0.03152105787921646 -0.25702239414947275
0.28432997015738637 0.09219519682597727 -0.25702239414947275
0.34940298417778726 0.13691709340798555 -0.25702239414947275
0.39838049744981135 0.25585525967112194 -0.25702239414947275
0.24095638777419498 0.32680186742011896 -0.25702239414947275
0.1313721512653509 0.24549009426771692 -0.25702239414947275
0.38547881595988204 0.006248593615142117 -0.25702239414947275
0.4022484738076674 -0.0683805972893736 -0.25702239414947275
0.4227091417747139 -0.20379347766930403 -0.25702239414947275
0.6175236895762716 0.053759815195952895 -0.25702239414947275
0.6002905487226431 0.11515024606083513 -0.25702239414947275
0.4197091426823464 0.14402102384300214 -0.25702239414947275
0.4293158813489167 0.3058608625197439 -0.25702239414947275
0.4879085602512539 0.30934962550918266 -0.25702239414947275
0.6169253751505467 0.39113330863117063 -0.25702239414947275
0.43326812734419895 0.6606950248296406 -0.25702239414947275
0.39903780062173466 0.5438467455746706 -0.25702239414947275
0.3518552306268855 0.5036417015586988 -0.25702239414947275
0.30449569439344176 0.430832734822586 -0.25702239414947275
0.15305472897507533 0.3684394952723335 -0.25702239414947275
0.10557721524923501 0.5480686544097159 -0.25702239414947275
0.08429070483541314 0.5946444830150974 -0.25702239414947275
0.473759688127419 0.1506446173446902 -0.25660104596234246
0.12080473873212347 0.18181595622858854 -0.25660104596234246
0.3321277085054457 0.01818117427467171 -0.25592688886293397
0.1681811288930525 -0.06602947440518665 -0.25592688886293397
0.15430191960898093 0.44075969811137544 -0.25592688886293397
0.46657991501871915 0.11521766177077594 -0.25592688886293397
0.29795637052917967 0.34829905192750604 -0.25592688886293397
0.07877104358400641 0.1365463070033109 -0.25592688886293397
0.3920097128604015 -0.1472569779201626 -0.2553370014009516
0.3674366865869634 -0.0016980331941350059 -0.2553370014009516
0.31443108464597386 0.05550419669067221 -0.2553370014009516
0.20363336535819448 0.31160805179220097 -0.2553370014009516
0.16376539989192712 0.2885855868474023 -0.2553370014009516
0.11807440247951924 0.19894797351730586 -0.2553370014009516
0.23251257010410414 0.3170350164424391 -0.2553370014009516
0.1698328137866032 0.05679352214329093 -0.2553370014009516
0.17263056574914823 -0.03393959647334422 -0.2553370014009516
0.10891429289130686 -0.05344801753747643 -0.2553370014009516
-0.1663271968696794 0.04051262819257677 -0.2553370014009516
-0.04630195228374684 0.07916711087990898 -0.2553370014009516
0.028891845191523515 0.14118956402548666 -0.2553370014009516
0.11164462914391107 0.1351895658407514 -0.2553370014009516
-0.021779487792764386 0.33364456197911474 -0.2553370014009516
-0.05322891648016872 0.3390378187743825 -0.2553370014009516
-0.08391991843073851 0.3945799368018963 -0.2553370014009516
0.12441990617770131 0.5942315617917098 -0.2553370014009516
0.14691147240671582 0.568369210065653 -0.2553370014009516
0.17391146423802428 0.3836838726827073 -0.2553370014009516
0.3104282768682361 0.3985406097609209 -0.2553370014009516
0.35014455698713665 0.5002456351704289 -0.2553370014009516
0.41455184087187175 0.5156332709644267 -0.2553370014009516
0.42419228739341264 0.6487034554239127 -0.2553370014009516
0.6575517673536485 0.384863647606672 -0.2553370014009516
0.5414113530530574 0.32175411613829813 -0.2553370014009516
0.4782091249835149 0.2921670464380097 -0.2553370014009516
0.4174844242542984 0.13207158925598728 -0.2553370014009516
0.5611388751744971 0.09139463527042974 -0.2553370014009516
0.6261276195574721 0.05099577108837821 -0.2553370014009516
0.3691810680816827 0.012425558038472104 -0.2549156532138213
0.11284125799536104 0.14868113479266307 -0.2542414961144129
0.3379423134878436 0.3704956744255295 -0.2542414961144129
0.5054366448358738 0.33876815593461906 -0.2542414961144129
-0.006130616122745673 0.3221080486154876 -0.2542414961144129
0.19049572888347227 2.991572128624924E-4 -0.2542414961144129
0.24914739653200776 -0.07346205642616488 -0.2542414961144129
0.5205967526088214 0.13285529688404962 -0.2542414961144129
0.11489743714855682 0.5770658366480219 -0.25365160865243047
0.1769788790403328 0.49368103041493905 -0.25365160865243047
0.14325417014242497 0.41292543686954897 -0.25365160865243047
0.04082442585105311 0.2896979460614263 -0.25365160865243047
-0.003122190066635457 0.2955715397900224 -0.25365160865243047
-0.11125698881175128 0.40274566466848133 -0.25365160865243047
-0.09544800483062314 0.06390587954205006 -0.25365160865243047
-0.029169934995029515 0.0888328382926776 -0.25365160865243047
0.07267834879810253 0.1448468662897775 -0.25365160865243047
0.36902095577057314 0.41678498626366234 -0.25365160865243047
0.38285803023593185 0.4625265454585259 -0.25365160865243047
0.3789310651318776 0.5720602201849142 -0.25365160865243047
0.4224057710799801 0.6454759283104947 -0.25365160865243047
0.633610763360906 0.4068580229748729 -0.25365160865243047
0.5024113648522783 0.3125097369126598 -0.25365160865243047
0.47960800096478745 0.28996760890118967 -0.25365160865243047
0.4468102580785662 0.11884125618009643 -0.25365160865243047
0.5945686403414139 0.10537496811941259 -0.25365160865243047
0.657349520223826 0.08434969358161142 -0.25365160865243047
0.4260715003080136 -0.12308844590636961 -0.25365160865243047
0.3616389355320507 -0.05300138845911823 -0.25365160865243047
0.32718108078853614 0.07512216828345822 -0.25365160865243047
0.24032436549349953 0.3327934386411116 -0.25365160865243047
0.1855406742028202 0.3470265804023725 -0.25365160865243047
0.1341446223366682 0.29750131448707906 -0.25365160865243047
0.22691706617901397 0.04688341278198665 -0.25365160865243047
0.1440800125892003 0.0014367973181143002 -0.25365160865243047
0.12693114137299782 -0.1201053007414872 -0.25365160865243047
0.16438056824513728 0.43655464320381526 -0.25323026046530017
0.35611084731690146 0.0108160079636344 -0.25323026046530017
0.3343187190785232 0.09017272552775195 -0.25255610336589174
0.6138073985657825 0.10199575565862774 -0.25255610336589174
0.3788636494219366 0.48148721387938864 -0.25255610336589174
0.3005181675069318 0.35939736317651777 -0.25255610336589174
0.15556596417037183 0.17071764497957695 -0.25255610336589174
0.18708280856771697 0.018257016948355163 -0.25255610336589174
0.12534687218938792 -0.14593394461257356 -0.25196621590390933
0.15308000986630313 -0.10181036245629026 -0.25196621590390933
0.20450976958742545 0.0505828498649906 -0.25196621590390933
0.35133275887484394 0.19551819927406539 -0.25196621590390933
0.3945799368018963 0.1932260651360766 -0.25196621590390933
0.39624847562293225 0.18894516755483298 -0.25196621590390933
0.35749286937068875 0.1436081026196144 -0.25196621590390933
0.3504395007181278 0.06401543007070398 -0.25196621590390933
0.37399286437871054 -0.08503227764476239 -0.25196621590390933
0.43812205845993973 -0.1418047323786968 -0.25196621590390933
0.6105461635973941 0.07081598981098676 -0.25196621590390933
0.5226613587257596 0.12009687377774468 -0.25196621590390933
0.4777203610864436 0.1603019177937163 -0.25196621590390933
0.06366992455725705 0.12186653616369182 -0.25196621590390933
-0.019133421177586266 0.1429592264114338 -0.25196621590390933
-0.10031878987384923 0.0569789153456283 -0.25196621590390933
-0.1588861878849585 0.3983130817398707 -0.25196621590390933
-0.0404115046276655 0.3390462457381249 -0.25196621590390933
0.0969901391955198 0.3088187267933985 -0.25196621590390933
0.15265023471543024 0.4205012772741515 -0.25196621590390933
0.17962494565551104 0.4775349678841066 -0.25196621590390933
0.10871204576148431 0.5066585545785517 -0.25196621590390933
0.4238130740249953 0.6365939085257886 -0.25196621590390933
0.4125040886824186 0.5354534896870352 -0.25196621590390933
0.3231192842646002 0.46985800391459287 -0.25196621590390933
0.29997041486366244 0.41256307742861686 -0.25196621590390933
0.5063973187025309 0.3133861411418908 -0.25196621590390933
0.5586529208704285 0.37593949300325263 -0.25196621590390933
0.6918747906772814 0.3919001623317478 -0.25196621590390933
0.18617269648351553 0.08192272802374101 -0.25154486771677903
0.11595923458012518 -0.00687218893209492 -0.2508707106173706
0.2047541515359611 -0.13109406146184502 -0.2508707106173706
0.29354064152805426 0.12163900814264146 -0.2508707106173706
0.3712372472348785 0.3261024294294827 -0.2508707106173706
0.13597327346881363 0.5799310043205079 -0.2508707106173706
0.08014463867405111 0.622284924090844 -0.2502808231553882
0.11279069621290541 0.5600855047066716 -0.2502808231553882
0.18186651801104406 0.5053439482347052 -0.2502808231553882
0.20746763386108005 0.33621478592060955 -0.2502808231553882
0.07517273006591374 0.3027428859349798 -0.2502808231553882
-0.05014464775037505 0.33267546114871505 -0.2502808231553882
-0.16511371409074413 0.3999226318147084 -0.2502808231553882
0.4366557667687263 -0.13713619446529327 -0.2502808231553882
0.37593106603951 -0.01304072639168226 -0.2502808231553882
0.3379086056328731 0.06671205846833773 -0.2502808231553882
0.34347882866673546 0.11633844794854258 -0.2502808231553882
0.3214086106248512 0.13185248819867953 -0.2502808231553882
0.29748446055959377 0.08609407507633085 -0.2502808231553882
0.2342653785625661 0.08003508814539731 -0.2502808231553882
0.19649572706820753 0.05225138868602646 -0.2502808231553882
0.17452663259123458 -0.05004352418546366 -0.2502808231553882
0.12360249069466848 -0.14065866530970236 -0.2502808231553882
-0.1482176517868198 0.03717555055050492 -0.2502808231553882
-0.08053227900621103 0.09580193730781258 -0.2502808231553882
-0.011186794368309024 0.09265867983182063 -0.2502808231553882
0.1010266548282279 0.17093674603688466 -0.2502808231553882
0.33769793153930805 0.37860241354591606 -0.2502808231553882
0.3660378106056909 0.4882456388009583 -0.2502808231553882
0.41556307652098445 0.5765686457872082 -0.2502808231553882
0.6232287440300158 0.36740297873199307 -0.2502808231553882
0.6041500981167566 0.34757433304564184 -0.2502808231553882
0.46770070119648555 0.3238271492189792 -0.2502808231553882
0.4554563228784795 0.14175417059624118 -0.2502808231553882
0.5266557395397549 0.13593113865010076 -0.2502808231553882
0.5542034840143328 0.08493958104359388 -0.2502808231553882
0.6869113090328868 0.05727385907661947 -0.2502808231553882
0.3081782775489604 0.3684142143811058 -0.24985947496825792
0.3017906390320653 0.35939736317651777 -0.24918531786884948
0.3086754684097741 0.0758637410928076 -0.24918531786884948
0.33972040283753335 0.4037906081725644 -0.24918531786884948
0.15649293018205845 0.25950413497167013 -0.24918531786884948
0.10486092333111358 0.09168957900142102 -0.24918531786884948
0.27134401903003097 -0.14901821334236723 -0.24918531786884948
0.13852664348282312 0.5869843729730689 -0.24859543040686707
0.12563338895663645 0.4845462017179545 -0.24859543040686707
0.16938618470824512 0.4398158781722037 -0.24859543040686707
0.041852515427651 0.30563333449869357 -0.24859543040686707
-0.010832861891119693 0.3648411817542409 -0.24859543040686707
-0.1263918156934711 0.39752937411180844 -0.24859543040686707
-0.11491429107604224 0.09070362424353613 -0.24859543040686707
-0.02092836445476122 0.07503789864603225 -0.24859543040686707
0.06086374563096938 0.1452092257307096 -0.24859543040686707
0.38089454768390474 0.1762457331947262 -0.24859543040686707
0.49568664778567895 0.11366710044213651 -0.24859543040686707
0.594930999782346 0.09672890331949921 -0.24859543040686707
0.6650180572295971 0.051417119275508474 -0.24859543040686707
0.6465292987783203 0.4033608330216914 -0.24859543040686707
0.520284954950345 0.30168951546715406 -0.24859543040686707
0.4692765434163529 0.2768552533176953 -0.24859543040686707
0.342804671567327 0.38023724451198143 -0.24859543040686707
0.3593130935390915 0.5133158559352101 -0.24859543040686707
0.40133836172346593 0.5895293160233358 -0.24859543040686707
0.4226585799922583 -0.18621483130222863 -0.24859543040686707
0.361824328734388 -0.08305194116525005 -0.24859543040686707
0.3532962414268711 -0.06318116066018586 -0.24859543040686707
0.336585572325284 0.02453510493659642 -0.24859543040686707
0.27708278133874553 0.08848733277923079 -0.24859543040686707
0.20166145584242479 0.13612495881618067 -0.24859543040686707
0.12329911999993468 0.18907999897471459 -0.24859543040686707
0.31892265632078254 0.10195362083991463 -0.24859543040686707
0.15109124642304816 0.04845925500185389 -0.24859543040686707
0.1100182251415882 -0.07829913361442052 -0.24859543040686707
0.1293749608583534 -0.1511418082055038 -0.24859543040686707
0.18483280924844128 0.3704956744255295 -0.2481740822197368
0.3466810748889257 0.04862779427670609 -0.24749992512032834
0.1936558402869494 -0.08456036767517648 -0.24749992512032834
0.11595923458012518 0.22025976482235557 -0.24749992512032834
0.3601389359858669 0.27060244622068186 -0.24749992512032834
-0.0692570015186047 0.1026109240118379 -0.24749992512032834
0.14605192210496998 0.5317961874227445 -0.24691003765834593
0.13499574567467137 0.464616432466692 -0.24691003765834593
0.1865350559244476 0.3774816273681494 -0.24691003765834593
0.07583846020157965 0.2749254786206386 -0.24691003765834593
-0.050271052206514136 0.37847600908977685 -0.24691003765834593
-0.09759688058498754 0.3544844433145787 -0.24691003765834593
-0.08071767220854839 0.057366555677788096 -0.24691003765834593
0.0030042125742388934 0.09152946669031148 -0.24691003765834593
0.10505474349719347 0.13773450889101838 -0.24691003765834593
0.3329366970247359 0.38401252426866883 -0.24691003765834593
0.35415579172861694 0.5128186650743964 -0.24691003765834593
0.39556589155978106 0.6022961660933833 -0.24691003765834593
0.6297764948580203 0.3995181375550633 -0.24691003765834593
0.6045630193401442 0.3411698406012616 -0.24691003765834593
0.4726220480221673 0.2924282823140305 -0.24691003765834593
0.47407991274963807 0.15810248025689627 -0.24691003765834593
0.49023440224421316 0.11881597528886861 -0.24691003765834593
0.602195042528472 0.09367834244467588 -0.24691003765834593
0.41603498649057025 -0.1824985402917395 -0.24691003765834593
0.4073720677631717 -0.08043958240504229 -0.24691003765834593
0.3881670173937734 0.008102525638515353 -0.24691003765834593
0.31288895028107694 0.02647330659739576 -0.24691003765834593
0.14065023834595983 0.14917832565347677 -0.24691003765834593
0.15410809944290102 0.24736088021857544 -0.24691003765834593
0.21372044095809348 0.3688692704232065 -0.24691003765834593
0.3472625353871654 0.13919237361848916 -0.24691003765834593
0.20189741082721768 0.06703228309055684 -0.24691003765834593
0.15840585095162996 -0.06441992433034895 -0.24691003765834593
0.12034968269002275 -0.13435529643023342 -0.24691003765834593
0.5899253833192383 0.1025266543744118 -0.2458145323718072
0.1936558402869494 -0.11999575021283329 -0.2458145323718072
0.1054676647205811 0.1782007887830107 -0.2458145323718072
0.41563049223092513 0.27060244622068186 -0.2458145323718072
-0.03645925863238349 0.12631597301978767 -0.2458145323718072
0.4010855528111878 -0.1116277752164259 -0.2452246449098248
0.3918496005492919 -0.02602667751903756 -0.2452246449098248
0.34347882866673546 0.07637778588110647 -0.2452246449098248
0.226596841556795 0.35366702783154585 -0.2452246449098248
0.35273163485611647 0.2510940251565497 -0.2452246449098248
0.3521923091765898 0.13552664439045567 -0.2452246449098248
0.1543777622826644 0.1360238352512694 -0.2452246449098248
0.3419872560842943 0.18175696748239026 -0.2452246449098248
0.21038336331602164 0.05544520794447405 -0.2452246449098248
0.17547045253040636 -0.013992973294596697 -0.2452246449098248
0.10834125935680969 -0.06132722863681263 -0.2452246449098248
0.0987513746177244 0.6359955941000633 -0.2452246449098248
0.13658001485828125 0.5734338152749591 -0.2452246449098248
0.20068392804828256 0.46949564447366077 -0.2452246449098248
0.19786089519450958 0.3937456673913784 -0.2452246449098248
0.035161506216022126 0.2973580561034548 -0.2452246449098248
-0.0011502805508657767 0.3650181479928358 -0.2452246449098248
-0.10130474463173401 0.35341421891926766 -0.2452246449098248
-0.13491990300098805 0.08075138006351885 -0.2452246449098248
-0.011742973975321019 0.1107008092047394 -0.2452246449098248
0.09099856797452718 0.17185528508482864 -0.2452246449098248
0.46363890467254965 0.1304451852536644 -0.2452246449098248
0.51949282035854 0.13899012648866663 -0.2452246449098248
0.5747652755462906 0.12044237929119149 -0.2452246449098248
0.667992775430737 0.07508003346474523 -0.2452246449098248
0.5679478618785226 0.33471478637442575 -0.2452246449098248
0.5414619148355131 0.31769231961436223 -0.2452246449098248
0.4572681200831397 0.3328608543510525 -0.2452246449098248
0.34851815298481365 0.3896838708674425 -0.2452246449098248
0.3506754557029207 0.5065995658323534 -0.2452246449098248
0.37375690939391765 0.5685124684492773 -0.2452246449098248
0.43969790067980685 0.31500411818047114 -0.24412913962328608
0.3523692754151845 -0.07346205642616488 -0.24412913962328608
0.07156598958407853 0.3172204096447763 -0.24412913962328608
0.22541706663283018 0.33604624664575733 -0.24412913962328608
0.42238891715249505 -0.17935528281574756 -0.24353925216130368
0.4174170085443577 -0.10085811555337582 -0.24353925216130368
0.3390462457381249 -0.05150138891293445 -0.24353925216130368
0.3095518726390051 0.02312780199158126 -0.24353925216130368
0.2849198576193687 0.3324479331276648 -0.24353925216130368
0.23779627637071785 0.12870080375894508 -0.24353925216130368
0.13293113955773295 0.22727942561994607 -0.24353925216130368
0.26579907688739657 0.08757722069502946 -0.24353925216130368
0.2416473988010887 0.10971485444685451 -0.24353925216130368
0.21270920530898077 0.01054634512387105 -0.24353925216130368
0.15820360382180743 -0.06043397048009647 -0.24353925216130368
0.12106597460814417 -0.15869236771887849 -0.24353925216130368
-0.03450420304409898 0.08533564833949632 -0.24353925216130368
-0.008245784022139735 0.09358564584350726 -0.24353925216130368
0.09580193730781247 0.17201539739593819 -0.24353925216130368
0.46493665708891085 0.12222046864088126 -0.24353925216130368
0.5013579943844526 0.13900698041615178 -0.24353925216130368
0.6509113199244754 0.08417272734301669 -0.24353925216130368
0.6395601997631855 0.3601052281308967 -0.24353925216130368
0.5415967462553947 0.32697040669497107 -0.24353925216130368
0.46667261161988777 0.32830186696630276 -0.24353925216130368
0.36167264338702115 0.4333271160903972 -0.24353925216130368
0.37039455086061795 0.45602935641297676 -0.24353925216130368
0.4190434125466804 0.5564703372610937 -0.24353925216130368
0.10672328231822935 0.6062821199436359 -0.24353925216130368
0.11928788525845438 0.5150939452849 -0.24353925216130368
0.20027943378863747 0.46926811645261024 -0.24353925216130368
0.20756875742599132 0.335970403972074 -0.24353925216130368
0.0647738568075384 0.31434681500854783 -0.24353925216130368
-0.044186784384352897 0.37176814595066277 -0.24353925216130368
-0.15399854891424725 0.38950690462884763 -0.24353925216130368
0.3795040986663746 0.1639507930942645 -0.24244374687476494
0.39343386973290195 0.31500411818047114 -0.24244374687476494
0.22695077403398445 0.015332860529671049 -0.24244374687476494
0.015113759472363212 0.3384142234574296 -0.24244374687476494
-0.1001839584539675 0.35462770169820296 -0.24185385941278256
-0.012063198597540006 0.3153243428026901 -0.24185385941278256
0.0902738490926631 0.31357153434422813 -0.24185385941278256
0.20241145561551668 0.4108692577163532 -0.24185385941278256
0.16778506159715006 0.4726557558771379 -0.24185385941278256
0.14756877557863907 0.5354282087958073 -0.24185385941278256
0.42148723203203603 0.6332315499924889 -0.24185385941278256
0.41249566171867597 0.5363130399887811 -0.24185385941278256
0.3739338756325125 0.4832484493015932 -0.24185385941278256
0.30710805315364953 0.34821478229008007 -0.24185385941278256
0.06401543007070386 0.14861371908272225 -0.24185385941278256
-0.06429351987420998 0.09533845430196922 -0.24185385941278256
-0.09513620717214667 0.09020643338272241 -0.24185385941278256
0.1316670949963422 -0.14138338419156643 -0.24185385941278256
0.1697485441491771 -0.05459408460647077 -0.24185385941278256
0.19094235796183034 0.003644661818676988 -0.24185385941278256
0.2851136777854486 0.3347063594106831 -0.24185385941278256
0.2813721058837318 0.11809125640700453 -0.24185385941278256
0.2619142466020552 0.3518973654455986 -0.24185385941278256
0.4022484738076674 0.24183279200342608 -0.24185385941278256
0.2583917757576461 0.3581754534338399 -0.24185385941278256
0.27796761253171903 0.34254343569130646 -0.24185385941278256
0.3829928616558135 -0.01459128772032168 -0.24185385941278256
0.36880185471326554 -0.09956879010075723 -0.24185385941278256
0.6655236750541534 0.046310379247489486 -0.24185385941278256
0.5485574183067868 0.09421766812420271 -0.24185385941278256
0.4470967748458148 0.1560294471762152 -0.24185385941278256
0.38389454677627227 0.277394578997222 -0.24185385941278256
0.5229563024567511 0.35691983583619163 -0.24185385941278256
0.5823495429146358 0.33630748252177817 -0.24185385941278256
0.662203451339567 0.395591172451009 -0.24185385941278256
0.3379423134878436 -0.10889743896382169 -0.24075835412624383
0.23804908528299604 0.0579901509947409 -0.24075835412624383
0.3561024203531588 0.49258552512840037 -0.24075835412624383
0.1679620278357448 0.48148721387938864 -0.24075835412624383
0.10906597823867377 0.5324113557759547 -0.24016846666426142
0.16826539853047848 0.5113608003469255 -0.24016846666426142
0.14810810125816576 0.4339085765886369 -0.24016846666426142
0.08057441382492402 0.33477377512062406 -0.24016846666426142
0.0028103924081588757 0.3256220924961542 -0.24016846666426142
-0.14190585594360808 0.38542825417742665 -0.24016846666426142
-0.03890307811773906 0.11419799915792068 -0.24016846666426142
-0.01744802842906511 0.10098452000951502 -0.24016846666426142
0.1031081148726515 0.1309592300419634 -0.24016846666426142
0.3450968057053158 0.38432432192714533 -0.24016846666426142
0.3741866845447904 0.5348467482975676 -0.24016846666426142
0.6654141245254998 0.3836164569727664 -0.24016846666426142
0.5894281924584243 0.3821164574265826 -0.24016846666426142
0.4639338484035408 0.3265743393990686 -0.24016846666426142
0.45093947031244286 0.17084404943571604 -0.24016846666426142
0.5314001201268418 0.14191428290735073 -0.24016846666426142
0.6029281883740786 0.10162496925395301 -0.24016846666426142
0.4150406047689428 -0.1270322649379091 -0.24016846666426142
0.3763861220816107 -8.721907473596594E-4 -0.24016846666426142
0.3082456932589012 0.021147465512068937 -0.24016846666426142
0.18811089814431486 0.3408411890153001 -0.24016846666426142
0.2846249138883776 0.11852945852161997 -0.24016846666426142
0.2877176095819139 0.3594057901402604 -0.24016846666426142
0.3368046733825918 0.0962148585312002 -0.24016846666426142
0.35652376854028905 0.3147091744494798 -0.24016846666426142
0.30320636894082303 0.1429760803389191 -0.24016846666426142
0.20040583824477654 0.015240163928502422 -0.24016846666426142
0.15831315435046123 -0.013023872464196968 -0.24016846666426142
0.13566147581033716 -0.13208001621972978 -0.24016846666426142
0.12059406463855828 0.2249620105907296 -0.23907296137772266
0.24914739653200776 0.4148889194215759 -0.23907296137772266
0.3577119704279965 0.11521766177077594 -0.23907296137772266
0.054408691404133395 0.2985883928098752 -0.23907296137772266
0.12393114228063012 0.5159534955866458 -0.23848307391574028
0.14572327051900835 0.46625126343275763 -0.23848307391574028
0.14643113547338726 0.2733664903282565 -0.23848307391574028
0.015981736737851547 0.35545354414497815 -0.23848307391574028
-0.07047048429753996 0.3429479299509515 -0.23848307391574028
0.4093945390613971 -0.11382721275324595 -0.23848307391574028
0.3780630878663891 -0.011161513477081206 -0.23848307391574028
0.31187771463196423 0.029001395720177434 -0.23848307391574028
0.2141080812902534 0.13412776840918306 -0.23848307391574028
0.19325134602730432 0.36136084572854493 -0.23848307391574028
0.16165023199253306 0.20445078084122742 -0.23848307391574028
0.28349570074686836 0.3727878085635182 -0.23848307391574028
0.1062429453849008 0.18845640365776178 -0.23848307391574028
0.21624010311713263 0.11111373042812703 -0.23848307391574028
0.16471764679484158 0.06935812508351596 -0.23848307391574028
0.15105753856807783 -0.09583564516278281 -0.23848307391574028
-0.09327384818503079 0.06688059774318993 -0.23848307391574028
0.001023876094726567 0.14558843909912686 -0.23848307391574028
0.051198018218200636 0.18312213560869242 -0.23848307391574028
0.37292263998339975 0.42725127523197853 -0.23848307391574028
0.3671333158922296 0.5322933782835582 -0.23848307391574028
0.6637034508857508 0.38777095009787094 -0.23848307391574028
0.51949282035854 0.32990299007739793 -0.23848307391574028
0.47867260798935807 0.2966249102578481 -0.23848307391574028
0.47204901448767 0.16539180389425012 -0.23848307391574028
0.5391444998062964 0.1452345066219374 -0.23848307391574028
0.6205658234873525 0.06757160877008354 -0.23848307391574028
0.1355772061729112 0.2884591823912632 -0.23738756862920155
0.4045321809819137 0.10545923775683869 -0.23738756862920155
0.08266430083309026 0.3126277144050562 -0.23738756862920155
0.44892542597796004 0.13519799280449404 -0.23738756862920155
0.4088467864181275 -0.07836654932436132 -0.23679768116721914
0.3132091749032959 0.0581586902695931 -0.23679768116721914
0.40041139571177947 0.18265865260284905 -0.23679768116721914
0.12195923276486044 0.26877379508853644 -0.23679768116721914
0.3215518690084756 0.3140013094951011 -0.23679768116721914
0.3262962495955625 0.1301502415226732 -0.23679768116721914
0.3463018615205084 0.12601260232505385 -0.23679768116721914
0.3525378146900366 0.3389282682457286 -0.23679768116721914
0.18121764180286346 0.06849857478177016 -0.23679768116721914
0.12608844499873717 -0.03923172970370058 -0.23679768116721914
0.10056317182238465 -0.17000978002519793 -0.23679768116721914
-0.04521487396095079 0.08163621125649237 -0.23679768116721914
0.09010530981781102 0.16489461303343642 -0.23679768116721914
-0.08538621012195195 0.3768580320511967 -0.23679768116721914
0.03432723680550413 0.3333327643206383 -0.23679768116721914
0.0654817217619173 0.27280188375750186 -0.23679768116721914
0.1648103433960102 0.3908889266826351 -0.23679768116721914
0.1523215831294686 0.5507568558436071 -0.23679768116721914
0.395591172451009 0.5619394367300449 -0.23679768116721914
0.3475153442994436 0.5102737220241296 -0.23679768116721914
0.36344230577296827 0.4027203837772534 -0.23679768116721914
0.41995352463088187 0.14408001258920042 -0.23679768116721914
0.5466697784284433 0.08183003142257239 -0.23679768116721914
0.45512767129251797 0.34076534634161654 -0.23679768116721914
0.5434338243512826 0.3212484983137419 -0.23679768116721914
0.6545601952250236 0.38214173831781034 -0.23679768116721914
0.6044787497027181 0.09746204916510581 -0.2357021758806804
0.16645360132581835 -0.029068811430118243 -0.2357021758806804
0.15744517708497288 0.19063898726709666 -0.2357021758806804
0.5266220316847845 0.3220406329055468 -0.2357021758806804
0.008599716499329066 0.3261024294294827 -0.2357021758806804
0.15424293086278276 0.4994872084335943 -0.23511228841869802
0.17562213787777328 0.44032992296050244 -0.23511228841869802
0.08463621034885994 0.2785574999937016 -0.23511228841869802
-0.0719620568799811 0.3402007397708619 -0.23511228841869802
-0.03268397887569609 0.09540587001191003 -0.23511228841869802
-0.008616570426814359 0.11027946101760903 -0.23511228841869802
0.3499928716397697 0.4390153166166559 -0.23511228841869802
0.39115858952239835 0.4695377792923737 -0.23511228841869802
0.4125040886824186 0.5781950497895312 -0.23511228841869802
0.5551304500260194 0.3543833197496674 -0.23511228841869802
0.4841501344220518 0.28694232891759414 -0.23511228841869802
0.4712484529321225 0.1258103551952313 -0.23511228841869802
0.5425237122670814 0.1282626016443295 -0.23511228841869802
0.39109960077620004 -0.0985575544516445 -0.23511228841869802
0.3453833224725643 -0.03641712381367038 -0.23511228841869802
0.3369479317662161 0.023650273743622795 -0.23511228841869802
0.2851473856404191 0.12166428903386928 -0.23511228841869802
0.19904909708221702 0.3229086101710351 -0.23511228841869802
0.4061754389117217 0.2627316620850882 -0.23511228841869802
0.3509282646151989 0.13915023879977606 -0.23511228841869802
0.40217263113398405 0.2895715416052872 -0.23511228841869802
0.38338892895171595 0.23354908664444468 -0.23511228841869802
0.14226821538454007 0.037386224644070105 -0.23511228841869802
0.1466333826032098 -0.07491992115363556 -0.23511228841869802
-0.0018412915777593873 0.13215585889341336 -0.2340167831321593
0.4045321809819137 0.03752948302769437 -0.2340167831321593
0.2033974103734016 0.3261024294294827 -0.2340167831321593
0.19330190780975995 0.42279341141214016 -0.2340167831321593
0.11164462914391107 -0.12921484854724397 -0.23342689567017688
0.12327383910870686 -0.034183978421879875 -0.23342689567017688
0.3176838926506196 0.3197232178763302 -0.23342689567017688
0.17199011650471024 0.17417270011404523 -0.23342689567017688
0.13715304839277842 0.14156877739390392 -0.23342689567017688
0.21639178846449955 0.3115827709009732 -0.23342689567017688
0.13765023925359215 0.3164788368354271 -0.23342689567017688
0.1836108995057635 0.3137569275465654 -0.23342689567017688
0.13556877920916854 0.30548164915132664 -0.23342689567017688
0.3159563650833854 0.050448018445108864 -0.23342689567017688
0.3816866822757096 -0.01958847721968687 -0.23342689567017688
0.41695352553851434 -0.15915585072472185 -0.23342689567017688
0.5022091177224557 0.13513900405829576 -0.23342689567017688
0.4503327289229752 0.15115023516924658 -0.23342689567017688
0.5241613582719437 0.31133838895243765 -0.23342689567017688
0.6141444771154869 0.35758556597185753 -0.23342689567017688
0.3805911769891709 0.5190967530626377 -0.23342689567017688
0.37335241513427253 0.42211925431273156 -0.23342689567017688
0.04921768173868831 0.1798693276040467 -0.23342689567017688
-0.03493397819497188 0.11672608828070237 -0.23342689567017688
-0.047860940576128906 0.3393159085778884 -0.23342689567017688
0.08856317545291413 0.2872962613947836 -0.23342689567017688
0.16963056665678067 0.39519510515510653 -0.23342689567017688
0.141543496502676 0.5315180976192383 -0.23342689567017688
0.059801948199401024 0.2963552474180847 -0.2330055474830466
0.3005181675069318 0.3261024294294827 -0.23233139038363815
0.16035247957617182 0.17035528553864485 -0.23233139038363815
0.29354064152805426 0.026431171778682767 -0.23233139038363815
0.4378271147289486 0.3072934463559869 -0.23233139038363815
0.13576259937524846 0.4708692395637053 -0.23174150292165577
0.1756052839502881 0.39697319450479646 -0.23174150292165577
0.08432441269038347 0.26476256034705614 -0.23174150292165577
-0.025748587715531682 0.3603580370431749 -0.23174150292165577
-0.0440182451095007 0.07803789773839981 -0.23174150292165577
0.060939588304652834 0.1169873241567232 -0.23174150292165577
0.33793388652410095 0.3788299415669663 -0.23174150292165577
0.387172635672146 0.5142343949831542 -0.23174150292165577
0.5514731477617285 0.34078220026910183 -0.23174150292165577
0.45220351487383376 0.2787681740872667 -0.23174150292165577
0.4560040755217488 0.17290865555265433 -0.23174150292165577
0.48854900949569213 0.11012777567024212 -0.23174150292165577
0.39702375628725184 -0.0658693620940771 -0.23174150292165577
0.37408556097987916 -0.00674578447595583 -0.23174150292165577
0.3054985030788118 0.08493115407985123 -0.23174150292165577
0.3441192779111736 0.27663615226038746 -0.23174150292165577
0.2856614304287181 0.09629070120488366 -0.23174150292165577
0.16501259052583273 0.25757436027461345 -0.23174150292165577
0.31130468109746706 0.37137207865476035 -0.23174150292165577
0.38867263521832973 0.20948167819556296 -0.23174150292165577
0.3356080445311418 0.13207158925598728 -0.23174150292165577
0.13706877875535234 0.21332437366219117 -0.23174150292165577
0.15485809921599292 0.055942398805287764 -0.23174150292165577
0.1532654030686405 -0.0074873572853050765 -0.23174150292165577
0.47590013691804095 0.3201529930272031 -0.23132015473452547
0.40374847335385117 0.3039058069314594 -0.230645997635117
0.23804908528299604 -0.1379199020933555 -0.230645997635117
0.23857998399878022 0.4481922801323537 -0.230645997635117
0.37794511037399275 -0.02447611619039814 -0.230645997635117
0.3806838735903395 -0.06741149645897399 -0.2300561101731346
0.3297681586575161 0.011515445954270656 -0.2300561101731346
0.26678503164528133 0.34855186083978423 -0.2300561101731346
0.4035546531877713 0.20707156656517772 -0.2300561101731346
0.23618672629588017 0.12240586184321864 -0.2300561101731346
0.16729629770007887 0.3353046738364081 -0.2300561101731346
0.13687495858927243 0.3047147954507496 -0.2300561101731346
0.1541249533703862 0.14411372044417078 -0.2300561101731346
0.3380518640164975 0.11472047090996222 -0.2300561101731346
0.13822327278808932 0.2337260528830394 -0.2300561101731346
0.1748384302497109 -0.0062485936151419974 -0.2300561101731346
0.10902384341996078 -0.11532721229942973 -0.2300561101731346
0.01768398341385788 0.1118805841287042 -0.2300561101731346
0.15103225767685 0.1737766328181428 -0.2300561101731346
0.3454423112187626 0.4841838422770224 -0.2300561101731346
0.3952456669375622 0.5713944900492484 -0.2300561101731346
0.5127091145457425 0.31684962324010174 -0.2300561101731346
0.38819229828500107 0.2719928952382118 -0.2300561101731346
0.48136080942324944 0.11675979613567283 -0.2300561101731346
0.59723998784782 0.07932722319101841 -0.2300561101731346
0.17150977957138172 0.49657147897865267 -0.2300561101731346
0.21271763227272342 0.3498074784374325 -0.2300561101731346
-0.010259828356622406 0.3150209721079563 -0.2300561101731346
-0.07675699924952374 0.37309117925825197 -0.2300561101731346
0.0644957670040324 0.15961933373056522 -0.22896060488659586
0.3632737664981162 -0.06283565514673906 -0.22896060488659586
0.3636445529027908 0.2779760394954618 -0.22896060488659586
0.5909366189683507 0.3559675889332772 -0.22837071742461348
0.4944141762605456 0.33968669498256315 -0.22837071742461348
0.3153074888752048 0.4256585790846261 -0.22837071742461348
0.3547035443718863 0.45291137982821267 -0.22837071742461348
0.146330011908476 0.48379620194486256 -0.22837071742461348
0.2034648260833424 0.4204422885279532 -0.22837071742461348
0.06343396957246404 0.3149367024705302 -0.22837071742461348
-0.07218115793728881 0.36018107080458 -0.22837071742461348
-0.017389039682866828 0.13351260005597287 -0.22837071742461348
0.4442231802095862 0.12268395164672463 -0.22837071742461348
0.5025630501996452 0.13610810488869549 -0.22837071742461348
0.3715996066758106 -0.06273453158182779 -0.22837071742461348
0.3334760227042626 0.07756598776881392 -0.22837071742461348
0.23987773641514146 0.336526583579086 -0.22837071742461348
0.3514675902947257 0.28546761026263817 -0.22837071742461348
0.35025410751579045 0.11899294152746334 -0.22837071742461348
0.16870360064509404 0.12179069349000836 -0.22837071742461348
0.27076255853179126 0.3472372544959377 -0.22837071742461348
0.37684960508745385 0.1436670913658127 -0.22837071742461348
0.14938899974704184 0.14777944967220424 -0.22837071742461348
0.14262214786172953 -0.014515445046638228 -0.22837071742461348
0.19621763726470154 0.34829905192750604 -0.22794936923748318
0.32387771100143475 0.34580467065969483 -0.22727521213807475
0.2132485309885076 0.4481922801323537 -0.22727521213807475
0.1936558402869494 0.03045926044764823 -0.22727521213807475
0.3512737701286458 0.03752948302769437 -0.22727521213807475
0.1429592264114337 0.5188776520053298 -0.22668532467609234
0.15402382980547494 0.4099170108134388 -0.22668532467609234
0.11258002211934034 0.2972316516473157 -0.22668532467609234
-0.07366430355598742 0.35873163304085187 -0.22668532467609234
0.015240163928502302 0.1381727110056338 -0.22668532467609234
0.36909679844425675 0.42390577062616414 -0.22668532467609234
0.3839198276675 0.522400122849739 -0.22668532467609234
0.5041726002744829 0.3124086133477485 -0.22668532467609234
0.43168385816058896 0.1942120198939615 -0.22668532467609234
0.5469731491231771 0.11178788752753546 -0.22668532467609234
0.3494956807789559 -0.0355407195844394 -0.22668532467609234
0.40120353030358435 0.19347044708461214 -0.22668532467609234
0.2860153629059075 0.12608001803499466 -0.22668532467609234
0.17066708319712118 0.141737316668756 -0.22668532467609234
0.16349573705216378 0.28475974530825926 -0.22668532467609234
0.18582719097006872 0.30062771803558586 -0.22668532467609234
0.3771782566734156 0.30513614363787983 -0.22668532467609234
0.31301535473721603 0.116220470456146 -0.22668532467609234
0.17744236204617617 -0.03904633650136333 -0.22668532467609234
0.3823355584838902 0.1604283222498554 -0.22626397648896207
0.13702664393663935 -0.04016712267912984 -0.2255898193895536
0.3301389450621907 0.42598723067058764 -0.2255898193895536
0.39893667705682334 0.29687771917012623 -0.2255898193895536
0.4015153279620608 0.14851259551781099 -0.2255898193895536
0.14579911319269181 0.5236136056286743 -0.22499993192757123
0.20871482449498577 0.421942288074137 -0.22499993192757123
0.11225979749712124 0.3053636716589302 -0.22499993192757123
0.13272889242791042 0.18060247344965327 -0.22499993192757123
0.0011671344783508288 0.09879350943643751 -0.22499993192757123
0.17502382345204828 -0.010242974429137113 -0.22499993192757123
0.16497888267086228 0.06784969857358954 -0.22499993192757123
0.13511372316706782 0.23909402878707922 -0.22499993192757123
0.20387774730673014 0.3157372640260777 -0.22499993192757123
0.3197653526950432 0.32325411568448204 -0.22499993192757123
0.26217548247807604 0.12262496290052635 -0.22499993192757123
0.2777485114744113 0.33074568645165847 -0.22499993192757123
0.339492874816483 0.15198450457976445 -0.22499993192757123
