0.5475752010217385 0.27508273093721475 -0.041602659966738745
0.6644885809235045 0.3976619969106414 -0.041602659966738745
0.6758500692525162 0.3750776957858404 -0.040314958586815886
0.4694513488413412 0.4854535148356904 -0.040314958586815886
0.3219798246544825 0.4778758874846058 -0.040314958586815886
0.5717542707785979 0.5059477775669243 -0.03962158092070357
0.5758650097991208 0.5129013650185078 -0.03962158092070357
0.6579014930954377 0.3564852689388003 -0.03962158092070357
0.5963889887160453 0.3125944626738909 -0.03962158092070357
0.6016883751641894 0.3065917931644042 -0.03962158092070357
0.46758913453806816 0.43719442927427343 -0.03962158092070357
0.5071611884826209 0.32452055853102263 -0.03962158092070357
0.3261202798606961 0.33485188575609615 -0.03962158092070357
0.3159870605402262 0.4142139123402653 -0.03833387954078072
0.5136195061726956 0.3881231013039821 -0.03833387954078072
0.6013020647502126 0.2967953572817602 -0.03833387954078072
0.6477187467988169 0.462799875944278 -0.03833387954078072
0.49033192198655207 0.5387445411740368 -0.0376405018746684
0.4744832896182705 0.5427364154517975 -0.0376405018746684
0.6443509124205571 0.44230561321304424 -0.0376405018746684
0.4928974193511676 0.25988785465412484 -0.0376405018746684
0.4712046037970824 0.39452198662267557 -0.0376405018746684
0.46403309765043504 0.47967866941649784 -0.0376405018746684
0.3391755907740679 0.4642163474621932 -0.0376405018746684
0.3378383624179941 0.3477586157410153 -0.0376405018746684
0.348080541085996 0.4403047233765486 -0.03635280049474551
0.4133075686767042 0.5055416563624872 -0.03635280049474551
0.633098383439077 0.37589984358994494 -0.03635280049474551
0.4978104953853348 0.5552073080465889 -0.03635280049474551
0.49374928334096274 0.5423501050378206 -0.03565942282863319
0.6573368855673175 0.42399053743244897 -0.03565942282863319
0.6788811201929501 0.3903320044403113 -0.03565942282863319
0.5626809287477568 0.2860876250379402 -0.03565942282863319
0.4746318705467232 0.35378109604096214 -0.03565942282863319
0.4667075543625825 0.449001660388643 -0.03565942282863319
0.33911615840268683 0.46426587443834416 -0.03565942282863319
0.35684681586470174 0.47366609451178104 -0.03565942282863319
0.6248471892123405 0.4403047233765486 -0.03437172144871034
0.6489569212025889 0.4663955344128319 -0.03437172144871034
0.4524437852311292 0.3865481434623841 -0.03437172144871034
0.3439896128559334 0.3620322902676988 -0.03437172144871034
0.5437715292533511 0.30984076279990197 -0.03437172144871034
0.47779169162514934 0.5515225010209636 -0.03367834378259802
0.6626065558297711 0.41841379991785993 -0.03367834378259802
0.6531469033849531 0.3817836483566695 -0.03367834378259802
0.6003016198319648 0.3093851146193138 -0.03367834378259802
0.4664698248770583 0.3309788762210973 -0.03367834378259802
0.46269586929436124 0.437788752988084 -0.03367834378259802
0.49543320053009265 0.33249440169131417 -0.03367834378259802
0.3603830419618745 0.3298100395839366 -0.03367834378259802
0.6358619887082964 0.4288540864904653 -0.03239064240267517
0.6307408993742951 0.441453749223249 -0.03239064240267517
0.6256198100402943 0.35091843681944146 -0.03239064240267517
0.4133075686767042 0.5055416563624872 -0.03239064240267517
0.3439301804845523 0.427259317858407 -0.03239064240267517
0.4901734356628692 0.5388336897311082 -0.03169726473656285
0.5907330080396148 0.4851860691644756 -0.03169726473656285
0.6579113984906679 0.42245520117177165 -0.03169726473656285
0.5979936627433339 0.3124755979311288 -0.03169726473656285
0.500019398521664 0.473378838050106 -0.03169726473656285
0.4685697686658556 0.3567428092147848 -0.03169726473656285
0.4967803342813965 0.4439400034260232 -0.03169726473656285
0.32987442465293276 0.34761003481256264 -0.03169726473656285
0.5046254073036959 0.5532955667671651 -0.031201994975054048
0.3219798246544825 0.4770834558661917 -0.030409563356639996
0.5142435460721967 0.4663955344128319 -0.030409563356639996
0.6220439623622008 0.2967953572817602 -0.030409563356639996
0.6359313264749074 0.42879465411908424 -0.030409563356639996
0.4964534562388007 0.540676093243921 -0.02971618569052768
0.5262786012768603 0.5201521143269965 -0.02971618569052768
0.6729378830548447 0.4027830862446423 -0.02971618569052768
0.6647758373851796 0.40484340845251887 -0.02971618569052768
0.5416517746740932 0.2885342576597936 -0.02971618569052768
0.46184400530456615 0.47732118535171597 -0.02971618569052768
0.4600214125822138 0.3647562739559971 -0.02971618569052768
0.47972324369503366 0.413015359517414 -0.02971618569052768
0.3295673574007973 0.4641371043003518 -0.02971618569052768
0.35551949290385815 0.4731708247502723 -0.02971618569052768
0.2958890136181992 0.4533501288946903 -0.028428484310604824
0.5437715292533511 0.427259317858407 -0.028428484310604824
0.5698623402896342 0.26819848125224244 -0.028428484310604824
0.6220439623622008 0.5055416563624872 -0.028428484310604824
0.5418895041596175 0.5222916796967144 -0.027735106644492507
0.5026542336528909 0.5485409770566805 -0.027735106644492507
0.5044570155847828 0.26655418564403327 -0.027735106644492507
0.5465351345225702 0.27330966519101324 -0.027735106644492507
0.468985795265523 0.4357284307802074 -0.027735106644492507
0.5080922956342574 0.32415405890750604 -0.027735106644492507
0.4890145044209386 0.43566899840882634 -0.027735106644492507
0.3389081451028531 0.33783340972037895 -0.027735106644492507
0.5274969648901721 0.25913504461663156 -0.027239836882983707
0.3741713521222793 0.4533501288946903 -0.026447405264569616
0.5437715292533511 0.4924962508443454 -0.026447405264569616
0.6568416158058088 0.34691665714645026 -0.026447405264569616
0.5554301794392681 0.5316324673987702 -0.026447405264569616
0.5955569355167105 0.4871473374200505 -0.0257540275984573
0.6711846280991036 0.4034665585155245 -0.0257540275984573
0.5877911056562527 0.3045611871422182 -0.0257540275984573
0.617378521208788 0.33767492339669625 -0.0257540275984573
0.46542975837788975 0.3618539931535556 -0.0257540275984573
0.4546229721817679 0.4644045499715666 -0.0257540275984573
0.4895791119490586 0.44600032563389974 -0.0257540275984573
0.3352530542629182 0.45875847469036624 -0.0257540275984573
0.3156403717071699 0.3359414792314155 -0.024466326218534444
0.5307261237352093 0.30733469780666745 -0.024466326218534444
0.5261696419293284 0.25431111713953597 -0.024466326218534444
0.6712935874466355 0.4440885843544758 -0.024466326218534444
0.5218905111898924 0.5303645768093079 -0.02377294855242213
0.626392430868248 0.47828200868904297 -0.02377294855242213
0.6625471234583901 0.43964106189612684 -0.02377294855242213
0.515838314704255 0.2576096137511845 -0.02377294855242213
0.46560805549203294 0.4401561424480961 -0.02377294855242213
0.4665985950150506 0.32279701976097197 -0.02377294855242213
0.4785345962674125 0.34940291134922447 -0.02377294855242213
0.36012550168588986 0.47272508196491436 -0.02377294855242213
0.31557103394055874 0.3620322902676988 -0.022485247172499275
0.5148675859716977 0.3489868847495571 -0.022485247172499275
0.5698623402896342 0.25765914072733537 -0.022485247172499275
0.6611801789166257 0.4794409399309736 -0.022485247172499275
0.5895047390310731 0.49222880517313067 -0.02179186950638696
0.6631414471722007 0.38340813317441824 -0.02179186950638696
0.5837497044023408 0.30628472591226885 -0.02179186950638696
0.49047059751977445 0.3292751482415071 -0.02179186950638696
0.4677674316522113 0.36536050306503787 -0.02179186950638696
0.3293890602866541 0.3379522744631411 -0.02179186950638696
0.5385513859670482 0.2600463409778077 -0.021296599744878155
0.2958890136181992 0.4533501288946903 -0.020504168126464103
0.5437715292533511 0.4403047233765486 -0.020504168126464103
0.6089985568440591 0.29428929228852574 -0.020504168126464103
0.5599569450594584 0.5316324673987702 -0.020504168126464103
0.6249165269789518 0.475409444072292 -0.019810790460351786
0.6711450065181828 0.39542337758862167 -0.019810790460351786
0.5729330128109889 0.2995292463652889 -0.019810790460351786
0.4630128419417268 0.3302458769740643 -0.019810790460351786
0.46792591797589417 0.35919934723186847 -0.019810790460351786
0.3298050868863215 0.3467680762179976 -0.019810790460351786
0.5553410308821963 0.27008050634597597 -0.019315520698842986
0.6638348248383129 0.34806568299315066 -0.01852308908042893
0.5539146539690509 0.544677872916912 -0.01852308908042893
0.2958890136181992 0.4011685068221237 -0.01852308908042893
0.348080541085996 0.3881231013039821 -0.01852308908042893
0.5168288542272725 0.5401907288776423 -0.017829711414316614
0.6759887447857388 0.40775559465019073 -0.017829711414316614
0.5572131505806998 0.2865135570328377 -0.017829711414316614
0.6303743997507789 0.32266824962297974 -0.017829711414316614
0.46559815009680283 0.3220144935377881 -0.017829711414316614
0.32925038475343166 0.46443426615725714 -0.017829711414316614
0.3569062482360828 0.4765485645237622 -0.017829711414316614
0.3055863955485414 0.3881231013039821 -0.016542010034393723
0.3741713521222793 0.3239559510029026 -0.016542010034393723
0.4524437852311292 0.3750776957858404 -0.016542010034393723
0.6416665503131793 0.4362435113321765 -0.016542010034393723
0.5601649583592919 0.26756453595751123 -0.016542010034393723
0.4937195671552722 0.5402600666442536 -0.015848632368281407
0.6686686577106388 0.3974836997964982 -0.015848632368281407
0.5818775847038375 0.2952996426020037 -0.015848632368281407
0.46766837769990965 0.47193265034650034 -0.015848632368281407
0.4678466748140527 0.43492609376656316 -0.015848632368281407
0.33691716066158783 0.3377046395823868 -0.015848632368281407
0.320038367189368 0.3957106340502967 -0.015848632368281407
0.3153630206407251 0.3489868847495571 -0.014560930988358553
0.348080541085996 0.427259317858407 -0.014560930988358553
0.4133075686767042 0.5055416563624872 -0.014560930988358553
0.6651225262182358 0.3489868847495571 -0.014560930988358553
0.5437715292533511 0.5431029150753142 -0.014560930988358553
0.5026839498385813 0.5474216673956706 -0.013867553322246236
0.6702138993665462 0.40104964207936156 -0.013867553322246236
0.6016487535832687 0.30813703482031174 -0.013867553322246236
0.45924879175426003 0.46751484407384175 -0.013867553322246236
0.461269492381216 0.3572975113476746 -0.013867553322246236
0.3293197225200428 0.3862014546293279 -0.013867553322246236
0.37356712301323863 0.3228960737132738 -0.013372283560737434
0.3434150999325831 0.427259317858407 -0.013372283560737434
0.4133075686767042 0.4950023158375799 -0.013372283560737434
0.6350893678803426 0.3750776957858404 -0.013372283560737434
0.5829077458077759 0.5185870618806288 -0.013372283560737434
0.6261844175684145 0.4747061610109496 -0.011886474276211065
0.6588722218279948 0.361655885248952 -0.011886474276211065
0.6034416301199304 0.31949852314932337 -0.011886474276211065
0.49125312374295843 0.3289779863846018 -0.011886474276211065
0.4685499578753953 0.3708679028130156 -0.011886474276211065
0.32610046907023577 0.41689827444764294 -0.011886474276211065
0.32150436568343416 0.4235844162280118 -0.011886474276211065
0.31531349366457423 0.4663955344128319 -0.011391204514702264
0.5156501121948817 0.4663955344128319 -0.011391204514702264
0.6089985568440591 0.28374995176361867 -0.011391204514702264
0.6563562514395301 0.4551529108265823 -0.011391204514702264
0.5206127152051998 0.5308202249898959 -0.009905395230175893
0.6309390072788987 0.4768259155902072 -0.009905395230175893
0.6875681518098145 0.4006732370606149 -0.009905395230175893
0.5550141528396006 0.29409118438392223 -0.009905395230175893
0.5056753791980945 0.4782027655272016 -0.009905395230175893
0.46157655963335137 0.44319709878375996 -0.009905395230175893
0.3376897814895416 0.3415182167460044 -0.009905395230175893
0.648134773398484 0.3320783750916469 -0.009410125468667091
0.3089344191363409 0.3620322902676988 -0.009410125468667091
0.31935489491848584 0.47678629400928646 -0.008617693850253037
0.5134808306394731 0.4855822849736827 -0.008617693850253037
0.6218161382719068 0.3108213969276894 -0.008617693850253037
0.7003263008662809 0.4142139123402653 -0.008617693850253037
0.6333559237150617 0.4533501288946903 -0.008617693850253037
0.5835515964977374 0.5065123850950444 -0.007924316184140722
0.6602094501840686 0.43920522450599914 -0.007924316184140722
0.585839742795908 0.30681961725469825 -0.007924316184140722
0.5018023696630958 0.3385168819912611 -0.007924316184140722
0.46885702512753064 0.43816515800683065 -0.007924316184140722
0.338393064550884 0.3373381399588702 -0.007924316184140722
0.32140531173113235 0.370947145974857 -0.007924316184140722
0.6449848577152882 0.32682851561965365 -0.00742904642263192
0.31223291574798945 0.36717319039216 -0.00742904642263192
0.6240547575939266 0.4403047233765486 -0.00663661480421783
0.6051354527042907 0.29771655903816663 -0.00663661480421783
0.5307261237352093 0.4950023158375799 -0.00663661480421783
0.3089344191363409 0.358674361284669 -0.00663661480421783
0.5151647478286029 0.3189735372021241 -0.00663661480421783
0.5977064062816587 0.4825413286380187 -0.0059432371381055145
0.6508983786677034 0.35697063330507883 -0.0059432371381055145
0.5850473111774938 0.29677554649129995 -0.0059432371381055145
0.45987283165376114 0.46775257355936595 -0.0059432371381055145
0.466172663020153 0.3778016794741388 -0.0059432371381055145
0.3291810469868204 0.4553213025454953 -0.0059432371381055145
0.6051354527042907 0.28374995176361867 -0.005447967376596748
0.6512351621055292 0.4794409399309736 -0.005447967376596748
0.6320979385208293 0.4507251991586937 -0.004655535758182659
0.6742354898299977 0.4533501288946903 -0.004655535758182659
0.5437715292533511 0.4142139123402653 -0.004655535758182659
0.5162741520943828 0.3228960737132738 -0.004655535758182659
0.6023619420398414 0.4889104977710218 -0.003962158092070343
0.6558312654923308 0.44803093165608576 -0.003962158092070343
0.5594517699027195 0.28333392516395123 -0.003962158092070343
0.49900904820818603 0.47085296226641105 -0.003962158092070343
0.5092611322714182 0.4811347625153336 -0.003962158092070343
0.32589245577040205 0.4294880317851965 -0.003962158092070343
0.3208109880173218 0.4358076739420488 -0.003962158092070343
0.6235099608562669 0.4533501288946903 -0.0034668883305615417
0.2958890136181992 0.3750776957858404 -0.0026744567121474868
0.5164326384180654 0.3489868847495571 -0.0026744567121474868
0.5981323382765564 0.28833614975519 -0.0026744567121474868
0.6742354898299977 0.4663955344128319 -0.0026744567121474868
0.3288343581537643 0.4648304819664642 -0.0019810790460351715
0.35596523568921606 0.47449814771111587 -0.0019810790460351715
0.5022778286341442 0.3377343557680773 -0.0019810790460351715
0.5868599985046162 0.2982019234044453 -0.0019810790460351715
0.6493531370117959 0.4555392212405592 -0.0019810790460351715
0.5954380707739484 0.4938532899908795 -0.0019810790460351715
0.5395023039091452 0.28540415276705805 -0.0019810790460351715
0.4566040512278031 0.39029238285939055 -0.00148580928452637
0.6742354898299977 0.4663955344128319 -6.933776661123154E-4
0.5208207285050335 0.48259085561416953 -6.933776661123154E-4
0.3149965210172085 0.44796159388947465 -6.933776661123154E-4
0.329101803824979 0.4571637060583081 0.0
0.33818505125105036 0.33714003205426674 0.0
0.46718301333363094 0.4189685020507497 0.0
0.4638151789553711 0.4791140618883778 0.0
0.6311866421596533 0.3368329648021312 0.0
0.5913570479391158 0.4967555707933211 0.0
0.6478277061463488 0.442523531908108 0.0
0.6093749618628059 0.4737453376736224 0.0
0.45621774081382627 0.3881231013039821 4.952697615088017E-4
0.6949971982324464 0.3950964995460259 0.0012877013799228562
0.5102219556087452 0.4883161740572112 0.0012877013799228562
0.4524437852311292 0.4533501288946903 0.0012877013799228562
0.3257339694467192 0.4343218646575223 0.0019810790460351715
0.3290720876392885 0.3635379103426854 0.0019810790460351715
0.46613304143923234 0.39238242125295764 0.0019810790460351715
0.4668957568719559 0.472596311826922 0.0019810790460351715
0.5721802027734955 0.29429919768375595 0.0019810790460351715
0.6340294905907138 0.4631861863582549 0.0019810790460351715
0.6119899862035725 0.47660799689514327 0.0019810790460351715
0.624698608283888 0.46070983755071093 0.0019810790460351715
0.6105735146856573 0.5055416563624872 0.003268780425958063
0.6106626632427288 0.2967953572817602 0.003268780425958063
0.5437715292533511 0.4011685068221237 0.003268780425958063
0.2958890136181992 0.3228960737132738 0.003268780425958063
0.6145554835681879 0.3222918446042331 0.003962158092070379
0.5902575490685664 0.29597320947765565 0.003962158092070379
0.6155163069055151 0.3120892875171519 0.003962158092070379
0.5026542336528909 0.3355056418412876 0.003962158092070379
0.46675708133873334 0.31907259115442593 0.003962158092070379
0.32051382616041646 0.3580800375708586 0.003962158092070379
0.31931527333756526 0.44379142249757053 0.003962158092070379
0.6742354898299977 0.4533501288946903 0.005249859471993234
0.4133075686767042 0.30733469780666745 0.005249859471993234
0.348080541085996 0.3620322902676988 0.005249859471993234
0.3118763215197031 0.45050728046362976 0.005249859471993234
0.5884250509509839 0.49843948798245086 0.00594323713810555
0.647619692846515 0.35891209077019326 0.00594323713810555
0.6202609912207692 0.31296096229740733 0.00594323713810555
0.5030405440668677 0.33731832916840987 0.00594323713810555
0.5137284655202274 0.4656031027944178 0.00594323713810555
0.3384624023174952 0.34481671335765307 0.00594323713810555
0.32203925702586356 0.4715067183516027 0.00594323713810555
0.6409929834375274 0.4778560766941455 0.007230938518028406
0.6276405106672502 0.30984076279990197 0.007230938518028406
0.34062177847767355 0.4171360039331672 0.007230938518028406
0.344029234436854 0.3790497592731409 0.007230938518028406
0.3939722371874009 0.4663955344128319 0.007230938518028406
0.6584661006235576 0.3655685163648716 0.007924316184140722
0.6522950393951581 0.4505270912540902 0.007924316184140722
0.492808270794096 0.3283638518803309 0.007924316184140722
0.5070720399255493 0.46780210053551696 0.007924316184140722
0.3549647907709683 0.3360108169980266 0.007924316184140722
0.3549647907709683 0.46628657506529997 0.007924316184140722
0.639408120200699 0.3228861683180435 0.008419585945649522
0.6574359395196194 0.46513754921859957 0.009212017564063578
0.5437715292533511 0.427259317858407 0.009212017564063578
0.3285570070873193 0.3813577163617719 0.009212017564063578
0.314738980741224 0.34207291887889435 0.009212017564063578
0.6452721141769633 0.45208223830522776 0.009905395230175893
0.582967178179157 0.4993904059245478 0.009905395230175893
0.46314161207971916 0.42461457733195007 0.009905395230175893
0.508746051719449 0.4639290910005181 0.009905395230175893
0.32325762063917524 0.35644564735787954 0.009905395230175893
0.3218015275403393 0.43630294370355754 0.009905395230175893
0.6611801789166257 0.3327915635482194 0.011193096610098749
0.3741713521222793 0.4648304819664642 0.011193096610098749
0.3117673621721712 0.43172665110721625 0.011193096610098749
0.2958890136181992 0.3359414792314155 0.011193096610098749
0.6168139136806681 0.48255123403324873 0.011886474276211065
0.5896037929833747 0.5095137198497877 0.011886474276211065
0.46766837769990965 0.3293940129842692 0.011886474276211065
0.4696296459554844 0.47676648321882614 0.011886474276211065
0.35700530218838444 0.33125622728754217 0.011886474276211065
0.3589269488630386 0.47270527117445393 0.011886474276211065
0.6742354898299977 0.4663955344128319 0.013174175656133956
0.5437715292533511 0.3881231013039821 0.013174175656133956
0.31080653883484405 0.427259317858407 0.013174175656133956
0.6352379488087951 0.33478254798948487 0.01386755332224627
0.6427561437884988 0.4550439514790503 0.01386755332224627
0.6763849605949457 0.37505788499538006 0.01386755332224627
0.49327382436991424 0.32818555476618777 0.01386755332224627
0.4578125094458846 0.464315401414495 0.01386755332224627
0.33804637571782775 0.3407852174989714 0.01386755332224627
0.32333686380101656 0.4488927010411111 0.01386755332224627
0.6773755001179635 0.4403047233765486 0.015155254702169128
0.5208108231098033 0.3359414792314155 0.015155254702169128
0.3145804944175411 0.4663955344128319 0.015155254702169128
0.6088202597299159 0.31677453946102513 0.015848632368281445
0.6256693370164451 0.3367141000593691 0.015848632368281445
0.6589019380136855 0.44924929526939744 0.015848632368281445
0.46542975837788975 0.4787178460791707 0.015848632368281445
0.3330738673122795 0.3369221133592028 0.015848632368281445
0.3547567774711346 0.4664846829699035 0.015848632368281445
0.6742354898299977 0.4663955344128319 0.0171363337482043
0.45047261158032426 0.3159424862616903 0.0171363337482043
0.348080541085996 0.428834275700005 0.0171363337482043
0.5036943001520592 0.4670393851027934 0.017829711414316614
0.6567029402725862 0.3601799813596558 0.017829711414316614
0.6386553101632058 0.3489868847495571 0.017829711414316614
0.642884913926491 0.470288354738291 0.017829711414316614
0.33771949767523207 0.33670419466413903 0.017829711414316614
0.32793296718781817 0.4509431178537576 0.017829711414316614
0.6717195194415329 0.4533501288946903 0.018324981175825417
0.45063109790400696 0.31588305389030924 0.01911741279423947
0.348080541085996 0.4403047233765486 0.01911741279423947
0.4981968057993117 0.46876292387284396 0.019810790460351786
0.6302753457984769 0.33184064560612264 0.019810790460351786
0.6775736080225668 0.40357551786305634 0.019810790460351786
0.6907675944691611 0.3971370109634421 0.019810790460351786
0.3359860535099512 0.3368230594069011 0.019810790460351786
0.3285471016920892 0.4582532995336274 0.019810790460351786
0.6786632014978864 0.43835336051620405 0.02030606022186059
0.5078149445678125 0.4383137389352833 0.021098491840274642
0.5437715292533511 0.427259317858407 0.021098491840274642
0.348080541085996 0.3620322902676988 0.021098491840274642
0.6481050572127937 0.4487044985317378 0.02179186950638696
0.6765533523138587 0.3955323369361536 0.02179186950638696
0.4684608093183237 0.4732005409359628 0.02179186950638696
0.46588540655847793 0.32338143807955244 0.02179186950638696
0.36654419779504394 0.3241738696979665 0.02179186950638696
0.3367982959188257 0.45729247619630026 0.02179186950638696
0.5129459392970436 0.44818941797976863 0.02307957088630985
0.5184533390450214 0.32446112615964157 0.02307957088630985
0.3135503333136028 0.4311620435790963 0.02307957088630985
0.6661031603460233 0.3677080817345895 0.023772948552422166
0.6292947116706896 0.3389230031956983 0.023772948552422166
0.6275711729006389 0.45914478510434314 0.023772948552422166
0.4707687664069546 0.329156283498745 0.023772948552422166
0.3339554474877652 0.3423106483644186 0.023772948552422166
0.3176016399627448 0.44335558510744283 0.023772948552422166
0.3516068617879386 0.31869618613567924 0.02506064993234502
0.31135133557250383 0.4533501288946903 0.02506064993234502
0.6482536381412461 0.35176039541400633 0.025754027598457338
0.6824272516853531 0.3978601048152449 0.025754027598457338
0.6582878035094144 0.4258626571309521 0.025754027598457338
0.45867427883090994 0.4659795078131646 0.025754027598457338
0.3284183315540969 0.3445789838721289 0.025754027598457338
0.36282967458372795 0.4741811750637501 0.025754027598457338
0.348080541085996 0.3750776957858404 0.027041728978380194
0.4133075686767042 0.2967953572817602 0.027041728978380194
0.6572279262197855 0.36367658587590795 0.027735106644492507
0.6918076609683298 0.38992588323587396 0.027735106644492507
0.4699763347885405 0.48135268121039754 0.027735106644492507
0.33746195739924745 0.33645655978338457 0.027735106644492507
0.3338563935354635 0.4600758922559797 0.027735106644492507
0.5437715292533511 0.3489868847495571 0.029022808024415363
0.2958890136181992 0.4011685068221237 0.029022808024415363
0.6642112298570597 0.4332619873678935 0.02971618569052768
0.6455395598481779 0.35985310331705994 0.02971618569052768
0.5052296364127365 0.33874470608155516 0.02971618569052768
0.36334475513569703 0.3389725301718493 0.02971618569052768
0.3360752020670228 0.45621278811621113 0.02971618569052768
0.6807433344962232 0.40808247269278636 0.03169726473656285
0.5048235152082993 0.46780210053551696 0.03169726473656285
0.4687381603847685 0.32452055853102263 0.03169726473656285
0.32122701461698916 0.34794681825038853 0.03169726473656285
0.35560864146092974 0.4777669281370739 0.03169726473656285
0.5173340293840115 0.48583982524966723 0.032162818312381124
0.6690351573341553 0.37576116805672255 0.033678343782598055
0.6903218516838033 0.38900468147946776 0.033678343782598055
0.4583672115787744 0.4835318681610362 0.033678343782598055
0.3276258999356828 0.34736239993180823 0.033678343782598055
0.3626216612838942 0.47436937757312353 0.033678343782598055
0.4915800017855541 0.35149294974279155 0.03529292320511673
0.31109379529651926 0.3414092573984725 0.03529292320511673
0.5051404878556649 0.46780210053551696 0.03565942282863323
0.46905513303213414 0.3244016937882605 0.03565942282863323
0.32112796066468735 0.351463233557101 0.03565942282863323
0.3667621164901077 0.46814878936857307 0.03565942282863323
0.5013665322729679 0.45906554194250176 0.0376405018746684
0.5162246251182318 0.33747681549209263 0.0376405018746684
0.3202067589082811 0.34225121599303754 0.0376405018746684
0.2958890136181992 0.30984076279990197 0.03843293349308246
0.4133075686767042 0.5055416563624872 0.03843293349308246
0.4969685367907699 0.4749438904964737 0.03962158092070357
0.495512443691934 0.3313651866350742 0.03962158092070357
0.3536969001815058 0.3274030285430038 0.03962158092070357
0.5228414291319893 0.45146810380095687 0.041602659966738745
0.2958890136181992 0.4794409399309736 0.041602659966738745
0.5055961360362531 0.4673959793310798 0.041602659966738745
0.5016835049203336 0.34323185012082486 0.041602659966738745
0.32050392076518625 0.3306519981785015 0.041602659966738745
0.3242679709526532 0.4733095002834947 0.041602659966738745
0.4722842918771715 0.3285520543897042 0.04358373901277395
0.3629782555121806 0.33853669278172155 0.04358373901277395
0.31708655941077557 0.45826320492885747 0.04358373901277395
0.49169886652831624 0.45146810380095687 0.04470304867378382
0.4980383194756288 0.4751717145867678 0.045564818058809124
0.5130152770636548 0.34323185012082486 0.045564818058809124
0.3200185563989077 0.34215216204073573 0.045564818058809124
0.3554105335563261 0.47812352236536027 0.045564818058809124
0.4959185648963712 0.3271454882670192 0.0475458971048443
0.36312683644063326 0.3385168819912611 0.0475458971048443
0.33560964849120456 0.44750594570888647 0.0475458971048443
0.5203353641387548 0.4794409399309736 0.047843058961749584
0.5032188411810109 0.4724873524793901 0.04952697615087947
0.46938201107472993 0.32402528876951386 0.04952697615087947
0.3319941792321904 0.3438757008107863 0.04952697615087947
0.3355601215150537 0.4472186892472114 0.04952697615087947
0.2958890136181992 0.3228960737132738 0.050983069249715345
0.31363948187067436 0.3359414792314155 0.050983069249715345
0.506943269787557 0.33874470608155516 0.05150805519691464
0.3584911114729109 0.32864120294677573 0.05150805519691464
0.31921621938526346 0.45832263730023853 0.05150805519691464
0.5129063177161228 0.4835021519753457 0.05348913424294984
0.35456857496176125 0.3348320749656357 0.05348913424294984
0.3277348592832147 0.45894667719973964 0.05348913424294984
0.4915800017855541 0.4403047233765486 0.05411317414245091
0.34010669792570447 0.4403047233765486 0.05411317414245091
0.5176311912409168 0.4552321539884237 0.055470213288985014
0.3290522768488282 0.3410922847511069 0.055470213288985014
0.35500441235188895 0.4675445602595323 0.055470213288985014
0.46104166829092186 0.49051517179831017 0.05725318443041667
0.4133075686767042 0.5055416563624872 0.05725318443041667
0.5130648040398057 0.46338429426285854 0.057451292335020186
0.49909819676525763 0.33651599215476563 0.057451292335020186
0.32090013657439337 0.3294930669365709 0.057451292335020186
0.49912791295094816 0.4755976465816653 0.05943237138105536
0.5141048705389741 0.34323185012082486 0.05943237138105536
0.31964215138016105 0.34426201122476313 0.05943237138105536
0.3693969516213345 0.460600878203179 0.05943237138105536
0.4524437852311292 0.3489868847495571 0.060393194718382434
0.5437715292533511 0.4924962508443454 0.060393194718382434
0.5041598537278776 0.32946335075088035 0.06141345042709053
0.3271999679407852 0.34657987370862436 0.06141345042709053
0.36015521787158034 0.47378495925454317 0.06141345042709053
0.2958890136181992 0.3489868847495571 0.06339452947312574
0.4133075686767042 0.4950023158375799 0.06339452947312574
0.4975925766902709 0.4678318167212075 0.06339452947312574
0.3273683596596983 0.34524264535255056 0.06339452947312574
0.35965994811007157 0.4684063296445576 0.06339452947312574
0.4588723867355134 0.46956526088648826 0.06537560851916091
0.5154222881045876 0.3208555622958575 0.06537560851916091
0.31848322013823044 0.3478675750885472 0.06537560851916091
0.2958890136181992 0.4533501288946903 0.06666330989908377
0.4915800017855541 0.3620322902676988 0.06666330989908377
0.313223455271007 0.3359414792314155 0.06666330989908377
0.46643020329613766 0.3280369738377351 0.06735668756519608
0.36221554007945705 0.3283539464851007 0.06735668756519608
0.3202959074653527 0.45025964558287546 0.06735668756519608
0.4524437852311292 0.3430733637971421 0.06864438894511897
0.3741713521222793 0.4533501288946903 0.06864438894511897
0.49805813026608925 0.4680101138353506 0.06933776661123128
0.32696223845526096 0.33570374974589123 0.06933776661123128
0.32696223845526096 0.4649097251283056 0.06933776661123128
0.3826206542536193 0.4794409399309736 0.07062546799115411
0.2958890136181992 0.3228960737132738 0.07062546799115411
0.31381777898481755 0.47437928296835374 0.07062546799115411
0.45178012375070736 0.46549414344688594 0.07131884565726643
0.3271603463598646 0.34505444284317716 0.07131884565726643
0.3299833840004647 0.46373098309591465 0.07131884565726643
0.4412308778305701 0.4924962508443454 0.07181411541877526
0.47270031847683897 0.3124954087215891 0.07260654703718931
0.5253375887299936 0.45492508673628834 0.07260654703718931
0.2958890136181992 0.3881231013039821 0.07260654703718931
0.5146991942527847 0.48399742173685445 0.07329992470330163
0.32686318450295926 0.3356046957935894 0.07329992470330163
0.3271009139884835 0.45191384658631484 0.07329992470330163
0.3131838336900864 0.427259317858407 0.07379519446481039
0.2958890136181992 0.3489868847495571 0.07458762608322446
0.386652150112301 0.3441035249010804 0.07458762608322446
0.348080541085996 0.4403047233765486 0.07458762608322446
0.4514829618938022 0.4924962508443454 0.07458762608322446
0.5123912371641537 0.4808078844727379 0.07528100374933677
0.44860049188182094 0.33687258638305195 0.07528100374933677
0.3783316181189532 0.3312958488684629 0.07528100374933677
0.3162545062114409 0.44884317406496027 0.07528100374933677
0.3409783727059599 0.37379989980114764 0.07577627351084561
0.44253839000095335 0.49563626113231124 0.07656870512925966
0.3797778058225589 0.4533501288946903 0.07656870512925966
0.42321296390688007 0.3067007525119361 0.07656870512925966
0.3848988951565598 0.30984076279990197 0.07656870512925966
0.3570746399549957 0.31622974272336535 0.07656870512925966
0.46092280354815973 0.4824521800809471 0.07726208279537197
0.3271009139884835 0.3586050235180579 0.07726208279537197
0.32714053556940415 0.4456734475913039 0.07726208279537197
0.43098869916256827 0.4794409399309736 0.07775735255688074
0.3100042018211999 0.3750776957858404 0.07775735255688074
0.4463618725598012 0.3431526069589835 0.07775735255688074
0.3183148284193175 0.3881231013039821 0.07854978417529486
0.4361097884965692 0.33926969202875457 0.07854978417529486
0.5437715292533511 0.4142139123402653 0.07854978417529486
0.3951410738245617 0.4924962508443454 0.07854978417529486
0.4595954805873162 0.47404249953052774 0.07924316184140719
0.5147784374146261 0.33891309780046824 0.07924316184140719
0.36817858800802283 0.3279478252806635 0.07924316184140719
0.3361049182527133 0.4671186282646348 0.07924316184140719
0.4361097884965692 0.4634239158437791 0.07973843160291595
0.348080541085996 0.3881231013039821 0.07973843160291595
0.30579440884837505 0.3914711248917815 0.08053086322133
0.348080541085996 0.3750776957858404 0.08053086322133
0.387216757640421 0.4870284726772884 0.08053086322133
0.5437715292533511 0.30984076279990197 0.08053086322133
0.387216757640421 0.31525901399080813 0.08053086322133
0.45891200831643414 0.4820361534812797 0.08122424088744232
0.3268235629220385 0.3574659030665876 0.08122424088744232
0.385077192270703 0.3215885615428905 0.08122424088744232
0.319077543852041 0.4463668252574163 0.08122424088744232
0.3439202750893221 0.427259317858407 0.08171951064895115
0.4297109031778755 0.31553636505725313 0.08171951064895115
0.3407703594061262 0.38498309101601624 0.0825119422673652
0.4393983797129875 0.4533501288946903 0.0825119422673652
0.5437715292533511 0.3228960737132738 0.0825119422673652
0.3884450266489628 0.30984076279990197 0.0825119422673652
0.45829787381216314 0.3282846087184894 0.08320531993347753
0.3271207247789438 0.3721655095881687 0.08320531993347753
0.36721776467069583 0.32551109805404016 0.08320531993347753
0.36731681862299764 0.4767961994045167 0.08320531993347753
0.3285570070873193 0.4080923780880166 0.0837005896949863
0.43098869916256827 0.4895147268800624 0.0837005896949863
0.49481906602582176 0.35082928826236986 0.08449302131340035
0.4002621631585626 0.45708446289646654 0.08449302131340035
0.30979618852136626 0.4003661698084794 0.08449302131340035
0.503337705923773 0.47076381370933945 0.08518639897951266
0.5051107716699744 0.3356641281649705 0.08518639897951266
0.38786060833038244 0.3361494925312492 0.08518639897951266
0.32670469817927644 0.46228479539230893 0.08518639897951266
0.43098869916256827 0.45859998836668353 0.0856816687410215
0.2958890136181992 0.4663955344128319 0.08647410035943555
0.5437715292533511 0.3228960737132738 0.08647410035943555
0.526427182205313 0.45146810380095687 0.08647410035943555
0.5138275194725292 0.46542480568027467 0.08716747802554786
0.4994646963887742 0.3337424814903163 0.08716747802554786
0.3722298946571649 0.3288789324323 0.08716747802554786
0.3746864326742485 0.4748547419394021 0.08716747802554786
0.30969713456906445 0.427259317858407 0.08845517940547076
0.521533916961606 0.4881279715478378 0.08845517940547076
0.5008712625114591 0.4764594159666906 0.08914855707158308
0.5096672534758554 0.3366249515022975 0.08914855707158308
0.32676413055065745 0.4593726091946373 0.08914855707158308
0.3777670105908332 0.47666742926652433 0.08914855707158308
0.30878583820788824 0.4403047233765486 0.0904362584515059
0.5230989694079738 0.48564171734506373 0.0904362584515059
0.37897546880891464 0.47119965109946715 0.0911296361176182
0.4018668371858512 0.3314840513778363 0.0911296361176182
0.32264348613490434 0.43575814696589793 0.0911296361176182
0.37553829666404365 0.3247681934117771 0.0911296361176182
0.5437715292533511 0.3750776957858404 0.09241733749754111
0.4460647107028959 0.47366609451178104 0.09311071516365342
0.38612716416510157 0.3323061991819409 0.09311071516365342
0.3225939591587535 0.36923351260003656 0.09311071516365342
0.3087264058365072 0.4403047233765486 0.09439841654357624
0.5437715292533511 0.4794409399309736 0.09439841654357624
0.5100535638898323 0.47730137456125565 0.09509179420968855
0.32653630646036347 0.37274992790674905 0.09509179420968855
0.5020599099390802 0.3470652380749029 0.09509179420968855
0.5228612399224496 0.4403047233765486 0.09637949558961145
0.3124508344430534 0.4663955344128319 0.09637949558961145
0.4397747847317343 0.47341845963102663 0.09707287325572377
0.38643423141723704 0.33184064560612264 0.09707287325572377
0.33482712226802075 0.4591645958948036 0.09707287325572377
0.43203867105696686 0.31235673318836665 0.09836057463564665
0.2958890136181992 0.4533501288946903 0.09836057463564665
0.3263084823700695 0.3396659078379615 0.09905395230175897
0.32650659027467294 0.4596202440753916 0.09905395230175897
0.5180769340262747 0.3198154957966891 0.09905395230175897
0.3095386482453816 0.4217519181104292 0.10034165368168178
0.5275167756806323 0.45492508673628834 0.10034165368168178
0.4256595965287337 0.32638277283429573 0.10103503134779411
0.39668631548046906 0.47244773089846936 0.10103503134779411
0.4273336083226334 0.4797381017878789 0.10103503134779411
0.42314362614026896 0.3189537264116638 0.10103503134779411
0.2958890136181992 0.30984076279990197 0.102322732727717
0.31161878124371856 0.425684360016809 0.102322732727717
0.33549078374844243 0.46770304658321515 0.10301611039382931
0.3318753144894283 0.3403493801088437 0.10301611039382931
0.31892896292358835 0.3290770403369035 0.10301611039382931
0.5437715292533511 0.4011685068221237 0.10430381177375213
0.3094395942930799 0.4011685068221237 0.10430381177375213
0.3260212259083943 0.3348221695704056 0.10499718943986444
0.521533916961606 0.46592998083701365 0.10499718943986444
0.2958890136181992 0.4011685068221237 0.10628489081978734
0.5129459392970436 0.3620322902676988 0.10628489081978734
0.5078149445678125 0.447535661894577 0.10628489081978734
0.3262193338129979 0.34417286266769154 0.10697826848589966
0.5029910170907168 0.4549448975267486 0.10697826848589966
0.5180670286310445 0.4403047233765486 0.10747353824740842
0.42796755361736455 0.4876921341577101 0.10826596986582254
0.31213386179568764 0.3489868847495571 0.10826596986582254
0.3259221719560926 0.4675742764452228 0.10895934753193486
0.5218409842137416 0.4539939795846517 0.10895934753193486
0.32615990144161683 0.4605018242508772 0.11094042657797
0.5169972459461855 0.4509926448299084 0.11094042657797
0.5437715292533511 0.3620322902676988 0.1113069262014865
0.4245006652868031 0.3153877841288005 0.1113069262014865
0.32889379052514534 0.4647611441998529 0.1129215056240052
0.322059067816324 0.33107793017339915 0.1129215056240052
0.4133075686767042 0.2967953572817602 0.11433797714192036
0.5029613009050262 0.46892141019652683 0.11490258467004034
0.5111926843413024 0.342112540459815 0.11490258467004034
0.5076069312679788 0.46760399263091335 0.11688366371607554
0.32539718600889317 0.3392201650526036 0.11688366371607554
0.51950331093942 0.48260076100939975 0.11688366371607554
0.5437715292533511 0.30984076279990197 0.11737893347758431
0.5086767139528378 0.4746071070586478 0.11886474276211076
0.511499751593438 0.46018485160351164 0.11886474276211076
0.31676958676341 0.3281063116043462 0.11886474276211076
0.3611259466041377 0.48472051558865736 0.11936001252361952
0.3354511621675217 0.3419639595313623 0.12084582180814589
0.512014832145407 0.3361891141121698 0.12084582180814589
0.5198103781915555 0.4827196257521619 0.12084582180814589
0.5437715292533511 0.4663955344128319 0.12134109156965472
0.3316673011895946 0.3400324074614781 0.1228269008541811
0.3437617887656394 0.3339901163710708 0.1228269008541811
0.35500441235188895 0.3322368614153296 0.1228269008541811
0.32474342992370164 0.33615939792647925 0.1228269008541811
0.5437715292533511 0.3881231013039821 0.12332217061568987
0.50823097116748 0.334455669946889 0.12480797990021623
0.3646720780965406 0.4697633687910917 0.12480797990021623
0.379163671318288 0.3310085924067878 0.12480797990021623
0.31388711675142883 0.31922117208287853 0.12480797990021623
0.4002621631585626 0.30984076279990197 0.12530324966172507
0.529240314450683 0.3620322902676988 0.12609568128013912
0.5083894574911626 0.4679110598830488 0.12678905894625145
0.37508264848345546 0.3318802671870433 0.12678905894625145
0.4407058918833708 0.47817304934151106 0.12678905894625145
0.322623675344444 0.39334324459028464 0.12678905894625145
0.3292999117295825 0.4743495667826632 0.12678905894625145
0.4393983797129875 0.31280247597372446 0.12807676032617432
0.40892938398496653 0.4924962508443454 0.12807676032617432
0.31700731624893425 0.32601627321077914 0.12877013799228665
0.413178798538712 0.32868082452769654 0.12877013799228665
0.36074954158539096 0.32585778688709643 0.12877013799228665
0.43098869916256827 0.3124062601645175 0.1292654077537954
0.5437715292533511 0.48101589777257164 0.13005783937220947
0.42586760982856725 0.2967953572817602 0.13005783937220947
0.425402056252749 0.4763207404334682 0.1307512170383218
0.5024561257482872 0.3245700855071735 0.1307512170383218
0.4410624861116571 0.31903296957350513 0.1307512170383218
0.34758527132448724 0.4759344300194913 0.1307512170383218
0.5437715292533511 0.3750776957858404 0.13124648679983061
0.32954754661033697 0.34353891737296033 0.132732296084357
0.447193925759136 0.32797754146635405 0.132732296084357
0.31578895263562257 0.32176685865703364 0.132732296084357
0.36793095312726853 0.3290671349416734 0.132732296084357
0.504635312698926 0.49687443553608324 0.13322756584586576
0.4412308778305701 0.3060668072172049 0.13322756584586576
0.4685598632706254 0.4777966443227644 0.13471337513039214
0.5130350878541152 0.3335542789809431 0.13471337513039214
0.4820411061788948 0.3166358639278025 0.13471337513039214
0.38937613380059927 0.47447833692065544 0.13471337513039214
0.5307261237352093 0.3228960737132738 0.13520864489190096
0.3114206733391151 0.476816010194977 0.13669445417642734
0.32445617346202643 0.4736958106974716 0.13669445417642734
0.47514695109869237 0.3247186664356261 0.13669445417642734
0.5338661340231752 0.3359414792314155 0.1371897239379361
0.5183740958831801 0.4820064372955892 0.13867553322246254
0.39675565324708034 0.32349039742708435 0.13867553322246254
0.4704815099452795 0.31994426593468134 0.13867553322246254
0.5104497796990393 0.3244710315548718 0.13867553322246254
0.3462282321779531 0.43294501472052793 0.13867553322246254
0.5062796083071353 0.30310509404338226 0.1391708029839713
0.34361320783718674 0.4198401768310053 0.14065661226849768
0.31482812929829557 0.4751320930058471 0.14065661226849768
0.3170667486203153 0.3921347863722032 0.14065661226849768
0.3256448208896476 0.4153926543726563 0.14065661226849768
0.3648899967916045 0.33227648299625034 0.14065661226849768
0.50823097116748 0.3245106531357924 0.14065661226849768
0.5357283483264481 0.427259317858407 0.14194431364842056
0.35957079955300003 0.4206623246351099 0.14263769131453288
0.3102716474924147 0.32690775878149503 0.14263769131453288
0.39676555864231056 0.4788268054267027 0.14263769131453288
0.4336136288985649 0.33918054347168297 0.14263769131453288
0.43212781961403846 0.46303760542980227 0.14263769131453288
0.47929731170013606 0.3185872267881472 0.14263769131453288
0.33612472904317375 0.4051603810998846 0.14461877036056803
0.5298643543501839 0.3193796584065613 0.14461877036056803
0.32455522741432824 0.46681156101249927 0.14461877036056803
0.4016786346764778 0.47675657782359593 0.14461877036056803
0.3289532228965264 0.40826076980692955 0.14659984940660323
0.3691493167405801 0.40448681422423255 0.14659984940660323
0.30639863795741584 0.47722213139941416 0.14659984940660323
0.4042045104601726 0.4792824536072907 0.14659984940660323
0.32108833908376677 0.379901623262936 0.14659984940660323
0.35797603092094166 0.3738494267772986 0.14659984940660323
0.3539742512479507 0.4217915396913498 0.14858092845263843
0.5174627995220037 0.30962284410483804 0.14858092845263843
0.4245501922629539 0.4576886920055074 0.14858092845263843
0.4155065664178033 0.3414785951650838 0.14858092845263843
0.3576986798544968 0.3728093602781301 0.14858092845263843
0.46695518924333695 0.3195282393350139 0.14858092845263843
0.3687035739552223 0.39610684985950384 0.15056200749867357
0.31276780709041896 0.3257092059586438 0.15056200749867357
0.4035804705606715 0.3346933994324133 0.15056200749867357
0.4019956073238434 0.4642064420669631 0.15056200749867357
0.3186218956714529 0.39531441824108976 0.15056200749867357
0.33744214660878713 0.4086173640352159 0.15254308654470877
0.32800230495442945 0.3919366784675997 0.15254308654470877
0.3601750286620408 0.45824339413839715 0.15254308654470877
0.3739039064510645 0.41857228624154275 0.15254308654470877
0.440606837931069 0.4407504661619065 0.15254308654470877
0.40116355412450855 0.34179556781244935 0.15254308654470877
0.37692505199626825 0.4046948275240662 0.15452416559074392
0.3352332434724579 0.41323327821247796 0.15452416559074392
0.38090702087879896 0.32423330206934753 0.15452416559074392
0.44453927983744884 0.38261570155600416 0.15452416559074392
0.3629683501169504 0.476310835038238 0.15452416559074392
0.372853934556666 0.38713256178096445 0.15650524463677912
0.3316970173752851 0.4029613833587855 0.15650524463677912
0.4013814728195725 0.36713356881123926 0.15650524463677912
0.40505637444996767 0.44989314595935886 0.15650524463677912
0.4825958083117846 0.32707615050040795 0.15650524463677912
0.5013665322729679 0.3766031266512874 0.15650524463677912
0.5247927919923339 0.31466469027699756 0.15848632368281432
0.4219549787126478 0.37980256931063433 0.15848632368281432
0.4856862916235995 0.33581270909342315 0.15848632368281432
0.48961873352997937 0.41636338310521354 0.15848632368281432
0.348813540333029 0.42661546716844556 0.15848632368281432
0.3089344191363409 0.4011685068221237 0.15977402506273714
0.5251691970110807 0.3087313585341223 0.16046740272884946
0.4170319972832504 0.4244759017987275 0.16046740272884946
0.4791487307716834 0.418532664660622 0.16046740272884946
0.5146199510909433 0.44113677657588335 0.16046740272884946
0.33620397220501513 0.40544763756155966 0.16046740272884946
0.377420321757777 0.40759710832650786 0.16046740272884946
0.37464681109332776 0.4244659964034974 0.16175510410877236
0.4631019904987984 0.44829837732730055 0.16244848177488466
0.46708395938132913 0.3431922285399042 0.16244848177488466
0.5166802732988199 0.4715958669086743 0.16244848177488466
0.33119184221854614 0.41575915399617275 0.16244848177488466
0.3469216098440654 0.4327964337920753 0.16373618315480748
0.528675706922563 0.48322480090890085 0.1644295608209198
0.48368540178710395 0.4621758360447771 0.1644295608209198
0.5178788261216711 0.396235619997496 0.1644295608209198
0.347803190019551 0.42192030982934214 0.1644295608209198
0.35773830143541746 0.36941180971417975 0.16621253196235147
0.47197722462503605 0.3101973570281883 0.166410639866955
0.478782231148167 0.3699764172422998 0.166410639866955
0.3328064216410648 0.4091027284014946 0.166410639866955
0.5169576243652648 0.3098011412189812 0.1683917189129902
0.5176906236122979 0.4224353903813114 0.1683917189129902
0.331350328542229 0.39822660443876146 0.1683917189129902
0.387216757640421 0.4142139123402653 0.16868888076989544
0.5130053716684246 0.3821897695611067 0.17037279795902535
0.3533006843722987 0.38456706441634886 0.17037279795902535
0.3741713521222793 0.3750776957858404 0.1711652295774394
0.3349261762203224 0.41339176453616067 0.17235387700506055
0.5023867879816761 0.3931748528713717 0.17235387700506055
0.3219798246544825 0.4297752882468717 0.1736415783849834
0.3372242279137232 0.38625098160547877 0.1743349560510957
0.4956214030394659 0.391728665167766 0.1756226574310186
0.3716950033147353 0.427259317858407 0.1756226574310186
0.3776877674289918 0.4082904859926201 0.1763160350971309
0.3219798246544825 0.4297752882468717 0.1776037364770538
0.4986524539798998 0.39520545889355774 0.1776037364770538
0.3461390836208815 0.3805553793481276 0.17829711414316612
0.4986524539798998 0.39520545889355774 0.17958481552308894
0.38258103267269866 0.4142139123402653 0.17958481552308894
0.3431674650518288 0.42055336528757786 0.18027819318920124
0.3846512602758055 0.39468047294635844 0.18156589456912414
0.3681686826127928 0.39468047294635844 0.18225927223523647
0.5000887362882753 0.3805355685576673 0.1835469736151593
0.352131847735138 0.4340643243815378 0.1835469736151593
0.34716924472481986 0.3750975065763007 0.18424035128127159
0.33257859755077074 0.427259317858407 0.1855280526611945
0.4975727658998106 0.3750776957858404 0.1855280526611945
0.3628792015598788 0.42574379238819 0.18622143032730681
0.3089344191363409 0.4157888701818633 0.1875091317072297
0.359848150619445 0.4163237615242928 0.18820250937334201
0.37886650946138273 0.39734502426327584 0.18820250937334201
0.387216757640421 0.427259317858407 0.18949021075326483
0.365821103943241 0.37788092263598017 0.19018358841937713
0.3830366808532867 0.4142139123402653 0.19147128979930003
0.34863524321888584 0.4226037821002243 0.19216466746541236
0.5046254073036959 0.4142139123402653 0.19345236884533518
