-0.005222031092846041 0.08435074470831336 -0.29311008859995713
0.5541172691863638 0.36526298658386647 -0.29311008859995713
-0.2907507372025869 -0.545077021082107 -0.2925595732739041
0.41335050031460013 0.1166738588522849 -0.29153718766837694
-0.057009794265121747 -0.06977781757722361 -0.29153718766837694
-0.27034234761533465 -0.5524775199651916 -0.2909866723423239
0.6784157653044833 0.5102844524755544 -0.28996428673679686
-0.29587839423953805 -0.5077284884617369 -0.28996428673679686
0.502329506014088 -0.4115927835235594 -0.28791951552574263
0.5126870586485432 0.2616874602393151 -0.28791951552574263
0.6666661953455798 0.5293244182523318 -0.2878408704791637
0.6769293739241402 -0.5417346066024993 -0.28626796954758355
0.42981877306824406 0.07523578380980646 -0.2858747443146885
-0.0984478693076003 0.10630844171317186 -0.2858747443146885
0.6152323348829096 0.5724297682822854 -0.28524558394205646
0.2226598558744831 0.16846162202456072 -0.28524558394205646
0.6434029905675097 -0.5384787016741284 -0.2846950686160034
0.07764625448745312 0.1166738588522849 -0.2836726830104763
-0.13987807984542092 -0.2873021519100975 -0.2836726830104763
-0.29314941112324655 -0.5242124902246966 -0.2831221676844233
0.6369855547666627 0.4365232632891043 -0.28209978207889624
-0.21238881279126484 -0.5566142494152473 -0.28209978207889624
-0.19167370752235455 0.35490543394941126 -0.28052688114731605
0.5644748218208188 -0.37016257298573874 -0.28052688114731605
0.6773147346523773 0.5648955728200163 -0.279976365821263
0.502329506014088 0.5122741721540034 -0.2789539802157359
-0.1709507377487863 -0.33908991508237335 -0.2789539802157359
0.6604846946844701 -0.5146964395886369 -0.27840346488968293
0.6765597422052189 0.5102844524755544 -0.27738107928415584
0.09836135975636343 0.1270314114867401 -0.27738107928415584
0.6686873730426603 -0.5465004964251872 -0.2768305639581028
0.6894260718255443 0.529473843840832 -0.27580817835257565
-0.057009794265121747 -0.45178040232543165 -0.27580817835257565
-0.2559581685960344 -0.5462724257901079 -0.2752576630265226
0.5437597165519086 -0.5151761743727689 -0.27423527742099557
-0.005222031092846041 0.06487823117535126 -0.27423527742099557
0.015493074176064265 0.17881917465901592 -0.27266237648941544
0.6307725960869213 -0.5558042054354835 -0.27266237648941544
-0.3016430761537793 0.5465240899391606 -0.2721118611633624
0.06728083734834009 0.3756284037229796 -0.27108947555783525
0.6195263544261234 -0.5151761743727689 -0.27108947555783525
0.666021305963632 0.5707388997808368 -0.27053896023178226
0.5126870586485432 0.2720450128737701 -0.26951657462625517
0.502329506014088 -0.39087767825464903 -0.26951657462625517
0.6765833357191927 -0.5298670690737272 -0.2689660593002021
0.2226598558744831 0.1270314114867401 -0.26794367369467503
-0.057009794265121747 -0.0387051596738581 -0.26794367369467503
-0.29229218011553537 -0.5254786754746187 -0.267393158368622
0.45053387833715425 -0.059420264942768405 -0.2663707727630949
0.13979157029418404 -0.12993341370550565 -0.2663707727630949
-0.2677627900875433 -0.5305748744929383 -0.2658202574370418
0.4712568481107226 -0.04906271230831331 -0.26479787183151476
-0.24899021746913444 0.5715961307885478 -0.2642473565054617
-0.3049618971194133 0.5413571103789198 -0.26322497089993463
0.5644748218208188 -0.21479141896425358 -0.26322497089993463
-0.2546212028041913 0.5679234071133082 -0.26267445557388164
-0.13987807984542092 0.5309995577444648 -0.26165206996835455
0.284805171681214 -0.21479141896425358 -0.26165206996835455
-0.24913964305763453 0.5699760428290204 -0.2611015546423015
0.6755058985810604 0.506918444481973 -0.26070832940940647
-0.13987807984542092 -0.38052012562019394 -0.26007916903677436
-0.1709507377487863 0.3756284037229796 -0.26007916903677436
0.6597297022373116 -0.47038782034602455 -0.2595286537107213
0.2744476190467589 -0.11120802811504422 -0.2585062681051943
0.08800380712190821 -0.12156558074949932 -0.2585062681051943
-0.24771616771455454 0.5782573662337896 -0.2579557527791412
-0.13987807984542092 0.36526298658386647 -0.25693336717361415
0.4919719533796328 0.02344802063753064 -0.25693336717361415
0.6130774606066449 0.5615059713124614 -0.2563828518475611
-0.2257112836817485 0.5620722156478302 -0.25536046624203396
0.06728083734834009 0.1477465167556505 -0.25536046624203396
0.6656516742447107 0.5613644102286192 -0.25480995091598097
0.6059128968632974 0.5724297682822854 -0.2537875653104539
-0.2476060646493439 -0.5190926976924033 -0.2537875653104539
0.6836377963973296 -0.4841035164694033 -0.2537875653104539
-0.2853950095305565 -0.509466543991133 -0.25323704998440083
0.45053387833715425 0.1891767272934709 -0.25221466437887374
0.647343107401118 -0.45303085856603786 -0.25221466437887374
0.6147683291080935 -0.5224665701906427 -0.2516641490528207
0.09836135975636343 0.16846162202456072 -0.2506417634472936
-0.24096842271807575 0.5285065097679102 -0.2506417634472936
0.6271627884489449 0.5505664453333217 -0.25009124812124056
0.06117798173380921 0.25132990760485985 -0.24906886251571347
-0.295249233866906 -0.4990539398240725 -0.24906886251571347
-0.27775857550773503 0.5129977065825301 -0.24851834718966043
0.5541172691863638 -0.32873236244791815 -0.24749596158413337
0.2537325137778486 0.1879341355575227 -0.24749596158413337
-0.25639858085687683 -0.5411919557811041 -0.24694544625808032
0.11907646502527372 0.3341903286805011 -0.24592306065255323
-0.150235632479876 -0.10085047548058901 -0.24592306065255323
0.6075959008600881 0.5512899797618483 -0.24537254532650019
-0.025937136361756347 0.09595088907871677 -0.24435015972097307
-0.150235632479876 0.5329892774229136 -0.24435015972097307
0.6711175049819516 -0.5143818594023208 -0.24379964439492002
-0.025937136361756347 0.10630844171317186 -0.24277725878939296
0.34695835199260283 -0.21479141896425358 -0.24277725878939296
-0.25661092248264017 -0.5412391428090515 -0.24222674346333992
0.2951627243156691 0.1166738588522849 -0.24120435785781283
0.6369855547666627 -0.35980502035128364 -0.24120435785781283
-0.2665909788935161 -0.5120303725096085 -0.24065384253175978
0.42981877306824406 -0.0076246372658347605 -0.23963145692623272
0.6258179581524439 -0.48220030634219135 -0.23963145692623272
-0.2923393671434828 -0.5151761743727689 -0.2386877163672846
0.5126870586485432 0.08759092062736835 -0.2380585559946526
0.5644748218208188 -0.2769367347709845 -0.2380585559946526
-0.24522311973800004 -0.5336970828421248 -0.23750804066859954
-0.057009794265121747 -0.06977781757722361 -0.23648565506307243
-0.19167370752235455 0.4086907813047938 -0.23648565506307243
0.6606498492822859 -0.49800009619991376 -0.23593513973701938
-0.295249233866906 0.5206420051100096 -0.23491275413149232
-0.025937136361756347 0.02344802063753064 -0.23491275413149232
0.672352232213242 -0.519674671037088 -0.23436223880543927
0.2226598558744831 0.013090468003075544 -0.23333985319991218
0.647343107401118 -0.4323157532971275 -0.23333985319991218
0.6630249296889719 -0.4667701482033903 -0.23278933787385914
0.18122178083200463 0.09470829734276845 -0.23176695226833208
0.2537325137778486 -0.21479141896425358 -0.23176695226833208
0.6488216342768034 -0.4763255213627396 -0.23121643694227903
0.34695835199260283 -0.14228068601840962 -0.23019405133675194
0.10871891239081852 0.3361879128636078 -0.23019405133675194
0.6053781105465602 0.5543571365784297 -0.2296435360106989
0.33660079935814763 -0.21479141896425358 -0.22862115040517178
-0.005222031092846041 0.02344802063753064 -0.22862115040517178
-0.2661348376233578 0.5302288362879904 -0.22807063507911873
0.5851899270897293 0.5336577603188352 -0.22704824947359167
-0.22727632010867072 -0.49446106910385845 -0.22704824947359167
-0.27278034405928386 0.5165131401646117 -0.22649773414753863
-0.25167201355747854 0.5081846297318949 -0.2261045089146436
0.5644748218208188 -0.16300365579197787 -0.22547534854201154
-0.21919947382500676 0.5623867958341462 -0.2249248332159585
0.5541172691863638 0.3569030181325182 -0.2239024476104314
0.025850626810519473 -0.38052012562019394 -0.2239024476104314
-0.22325755822848353 0.5546009362228245 -0.22335193228437836
0.284805171681214 0.2824025655082253 -0.2223295466788513
-0.0984478693076003 -0.5048186217383136 -0.2223295466788513
0.6607284943288648 0.5236619748986433 -0.22177903135279825
0.05692328471388487 0.3859859563574346 -0.22075664574727114
-0.07773276403868999 -0.16300365579197787 -0.22075664574727114
0.6253460878729699 0.5515259149015854 -0.2202061304212181
0.4816144007451776 0.22024938519683654 -0.21918374481569103
-0.2897676741203493 -0.49215676923909357 -0.21918374481569103
0.6327701802700282 0.555198638576825 -0.21863322948963798
0.2226598558744831 0.07523578380980646 -0.2176108438841109
-0.036294688996211445 0.44813127216416565 -0.2176108438841109
0.6589747097901532 0.5188960850759556 -0.21706032855805785
0.2640900664123037 -0.21479141896425358 -0.21603794295253076
0.08800380712190821 -0.15064851897441586 -0.21603794295253076
0.650433857731673 0.552666268076981 -0.2154874276264777
0.6369855547666627 -0.4386781375653692 -0.21446504202095065
0.09836135975636343 0.1270314114867401 -0.21446504202095065
0.6451174525829322 0.48171270705340125 -0.2139145266948976
0.6034119843820851 0.4767108820909765 -0.2128921410893705
0.05692328471388487 -0.35980502035128364 -0.2128921410893705
-0.24015837873831203 0.5646360441663058 -0.21234162576331744
0.6023030892253209 0.5096081050749748 -0.21194840053042244
-0.025937136361756347 0.03380557327198585 -0.21131924015779038
-0.21533800203797754 0.5592409939709859 -0.21076872483173734
-0.26629212771651584 -0.5426940761707632 -0.21076872483173734
0.24337496114339338 -0.16300365579197787 -0.20974633922621025
-0.21205063909097507 0.5550334839790091 -0.2091958239001572
-0.28276040047015977 -0.5221913125276162 -0.2091958239001572
0.1294340176597288 -0.18496135279683648 -0.20817343829463011
-0.22281714596764107 0.5682065292809927 -0.20762292296857707
-0.27799451064747205 -0.5246843605041708 -0.20762292296857707
0.5541172691863638 0.47920393006753104 -0.20660053736305
-0.1934982726029875 -0.5048186217383136 -0.20660053736305
-0.2683683569462016 -0.4949879909159378 -0.20605002203699696
-0.21100465997147433 0.5206420051100096 -0.20502763643146985
0.11907646502527372 0.1373889641211953 -0.20502763643146985
-0.2582939264794309 0.561686854919593 -0.2044771211054168
0.08800380712190821 0.36526298658386647 -0.20345473549988974
0.284805171681214 -0.26657918213652937 -0.20345473549988974
0.5770029777408547 -0.5194701939159825 -0.2029042201738367
0.5901052425009171 0.48956148270198624 -0.20251099494094163
0.3987461151648787 0.16846162202456072 -0.2018818345683096
-0.13987807984542092 -0.2956621203614459 -0.2018818345683096
-0.23094904378391032 0.5533898025055078 -0.20133131924225656
0.5721741718809037 0.48956148270198624 -0.20030893363672947
0.6226406982706522 -0.4012352308891042 -0.20030893363672947
0.6246461469584167 -0.45469026904885484 -0.19975841831067642
0.5437597165519086 0.5206420051100096 -0.1993651930777814
0.33660079935814763 0.1166738588522849 -0.19873603270514936
0.42981877306824406 0.43777371952971045 -0.19873603270514936
-0.19810687233251725 -0.5191713427389824 -0.19818551737909632
0.5535038378230476 -0.5151761743727689 -0.19779229214620128
0.3883885625304235 -0.14228068601840962 -0.1971631317735692
-0.036294688996211445 -0.04906271230831331 -0.1971631317735692
0.6314568079921589 -0.4326224689787857 -0.19661261644751615
0.530743961343083 0.5102844524755544 -0.1955902308419891
0.5779073957765133 -0.44671566132574364 -0.1955902308419891
0.5989370812317395 0.5625047634040148 -0.19503971551593602
0.5779073957765133 -0.4323157532971275 -0.19464649028304098
0.2537325137778486 -0.13192313338395442 -0.19401732991040896
-0.0984478693076003 -0.5048186217383136 -0.19401732991040896
-0.25302470835863744 -0.49767765150893983 -0.1934668145843559
0.13979157029418404 0.1477465167556505 -0.19244442897882882
-0.1709507377487863 0.013090468003075544 -0.19244442897882882
0.6438748608469838 -0.4371996106896839 -0.19189391365277578
0.5541172691863638 -0.37016257298573874 -0.19087152804724872
0.4919719533796328 0.24097235497040467 -0.19087152804724872
-0.2531112179098744 0.568576160999914 -0.19032101272119567
-0.13987807984542092 -0.38052012562019394 -0.18929862711566856
0.5126870586485432 0.42941375107836216 -0.18929862711566856
-0.2523404964534001 0.480304960719637 -0.1887481117896155
-0.12952052721096569 -0.48210593228629656 -0.18772572618408842
0.6680582126700284 0.46884637743307583 -0.18772572618408842
-0.259072512440563 -0.4868403640903527 -0.18717521085803537
-0.06737521140423477 0.042912669665834804 -0.1861528252525083
0.4919719533796328 -0.39087767825464903 -0.1861528252525083
0.5366187463225349 -0.4878391561819061 -0.18560230992645527
0.502329506014088 0.25132990760485985 -0.18457992432092818
0.3055202769501243 -0.32873236244791815 -0.18457992432092818
0.6373709154949 -0.4301058274882575 -0.18402940899487513
-0.20989576481471028 0.47920393006753104 -0.18300702338934807
0.34695835199260283 -0.19407631369534326 -0.18300702338934807
-0.265568593287989 -0.5140279566927152 -0.18245650806329503
0.6470363917194599 0.45066364266400966 -0.18206328283039996
0.6170568999635426 -0.39458972445317814 -0.1814341224577679
-0.1759525627112111 0.35490543394941126 -0.1814341224577679
0.618134337101675 0.5405470663991562 -0.18088360713171486
0.6184017302600435 0.4193471851162493 -0.17986122152618778
-0.1709507377487863 0.002732915368620448 -0.17986122152618778
0.6353969248257668 0.5501968136144001 -0.17931070620013473
0.2537325137778486 -0.1410380942824613 -0.17828832059460767
0.3055202769501243 0.35490543394941126 -0.17828832059460767
0.5946745197071573 -0.5117393858372662 -0.17773780526855462
-0.057009794265121747 -0.45303085856603786 -0.17671541966302753
0.6266280021322078 0.3652708510885244 -0.17671541966302753
-0.2657966639230681 -0.5103001814848703 -0.1761649043369745
-0.12952052721096569 -0.34033250681832156 -0.17514251873144743
-0.26110155464230145 0.5410346656879459 -0.17459200340539438
-0.24888797890858175 -0.4597864680671745 -0.17459200340539438
-0.20693871106333972 -0.4426733059315827 -0.17356961779986727
0.5230446112829982 0.47920393006753104 -0.17356961779986727
-0.24644211795997464 -0.5216801197248526 -0.17301910247381422
0.5388050786174312 0.5241181161688018 -0.17199671686828713
0.5644748218208188 -0.12156558074949932 -0.17199671686828713
0.6286334508199725 -0.520225186363141 -0.17144620154223408
0.33660079935814763 -0.33908991508237335 -0.17042381593670702
0.6059128968632974 -0.017982189900289856 -0.17042381593670702
0.6369855547666627 0.4054506053857387 -0.17042381593670702
-0.24150320903481304 0.47947918773055753 -0.16987330061065398
-0.24346147069463026 -0.37016257298573874 -0.1688509150051269
-0.005222031092846041 0.1166738588522849 -0.1688509150051269
0.6117955463474072 0.5318961112754653 -0.16830039967907384
0.6059128968632974 -0.33908991508237335 -0.16727801407354678
0.2744476190467589 0.1373889641211953 -0.16727801407354678
-0.1871437528394037 -0.47457173682402776 -0.16672749874749374
-0.1947408643389358 0.4617447297269916 -0.16633427351459867
-0.07773276403868999 -0.14228068601840962 -0.16570511314196662
0.5334021639174534 -0.4012352308891042 -0.16570511314196662
-0.2173513152304001 -0.5203274249236938 -0.16515459781591357
-0.12952052721096569 -0.4426733059315827 -0.16413221221038649
0.5126870586485432 0.42941375107836216 -0.16413221221038649
0.6368754517014523 -0.4969698460897288 -0.16358169688433344
0.2537325137778486 0.1891767272934709 -0.16255931127880638
0.4712568481107226 -0.463388411200493 -0.16255931127880638
-0.14313398477379177 -0.48685609309966854 -0.16200879595275333
0.5541172691863638 -0.2873021519100975 -0.16098641034722624
-0.2331039180601751 -0.4012352308891042 -0.16098641034722624
-0.25116082075471496 -0.4413206111304238 -0.1604358950211732
-0.005222031092846041 -0.39087767825464903 -0.15941350941564614
0.6234114197271262 0.42298058626819934 -0.15941350941564614
-0.24508942315881568 -0.44224075817539815 -0.15886299408959306
-0.07773276403868999 0.23060693783129152 -0.15784060848406598
0.2330174085089383 -0.21279383478114677 -0.15784060848406598
0.6195971349680446 0.4271880962601761 -0.15729009315801293
0.6369855547666627 0.3859859563574346 -0.15626770755248584
0.6488609568000929 -0.4526769558564323 -0.1557171922264328
-0.2476060646493439 -0.42195820066267237 -0.15532396699353776
-0.0984478693076003 0.2616874602393151 -0.15469480662090573
-0.1696609589848906 -0.49640360175435994 -0.1541442912948527
-0.17100578928139165 0.49344654800298915 -0.1541442912948527
0.5305788067452673 0.5185264533570343 -0.15312190568932557
0.5892244179792323 0.5444478607094747 -0.15257139036327252
0.6414525934123504 -0.4862741197549839 -0.15257139036327252
0.4919719533796328 -0.09049292284613392 -0.15154900475774546
0.5770973517967495 0.5514394053503485 -0.15099848943169242
0.6535324725668858 -0.48746165995832685 -0.15099848943169242
0.42981877306824406 0.1166738588522849 -0.14997610382616533
-0.036294688996211445 -0.04906271230831331 -0.14997610382616533
0.6228058528684679 -0.5167648043136648 -0.14942558850011228
-0.005222031092846041 0.04416312590644095 -0.14840320289458522
0.6162704494977526 -0.03334156749716984 -0.14840320289458522
-0.24735440050029112 0.4663218714378898 -0.14785268756853218
0.284805171681214 0.2824025655082253 -0.1468303019630051
-0.1605931851143312 -0.37016257298573874 -0.1468303019630051
-0.24809366393813373 -0.487768375639985 -0.14627978663695204
0.4712568481107226 0.1995342799279261 -0.14525740103142493
-0.2331039180601751 -0.35980502035128364 -0.14525740103142493
-0.1352852091252069 -0.4876189500514849 -0.14470688570537188
-0.2538190233290854 0.5504642067727689 -0.14368450009984482
0.35731590462705803 -0.34944746771682844 -0.14368450009984482
-0.21814563020084807 -0.41178939614000687 -0.14313398477379177
0.6429704428113253 -0.49894383675886184 -0.1427407595408967
0.5644748218208188 -0.23550652423316387 -0.14211159916826469
0.6168131003191476 -0.47102484522331456 -0.14156108384221164
-0.057009794265121747 0.4804543863081372 -0.14053869823668458
0.6369855547666627 -0.4012352308891042 -0.14053869823668458
0.6361597817775833 0.500988607969916 -0.13998818291063153
-0.25167201355747854 0.551714663013375 -0.13959495767773647
0.2640900664123037 -0.20443386632979849 -0.13896579730510444
0.6004234726120828 0.43255168843686453 -0.1384152819790514
-0.25407855198279616 -0.43581545786989334 -0.1384152819790514
0.20194475060557276 -0.21479141896425358 -0.13739289637352428
0.640933536104929 0.5132257772176092 -0.13684238104747123
-0.1332876249421001 -0.4742099696097643 -0.13684238104747123
0.2744476190467589 -0.19407631369534326 -0.13581999544194417
-0.2462297763342113 0.5217823582854051 -0.13526948011589113
0.5841911349981758 -0.39087767825464903 -0.13487625488299607
0.33660079935814763 -0.33908991508237335 -0.13424709451036404
0.6399583375273493 0.4974023938459131 -0.133696579184311
0.12407042548304067 0.22024938519683654 -0.13267419357878393
0.05692328471388487 -0.34944746771682844 -0.13267419357878393
0.582681150103859 -0.40755829263405635 -0.1321236782527309
0.16050667556309434 0.15685361314949936 -0.1311012926472038
0.005135521541609168 0.08559333644426155 -0.1311012926472038
-0.21378083011571322 -0.3962255414220215 -0.13055077732115075
0.4919719533796328 -0.0263500228562962 -0.12952839171562364
-0.2191129642737699 0.428470010519414 -0.1289778763895706
-0.1191629745765106 0.4999190353364412 -0.12795549078404353
0.5851899270897293 -0.3882194756802787 -0.12795549078404353
0.6054252975745077 0.5223879251440634 -0.12740497545799048
-0.12952052721096569 -0.4426733059315827 -0.1263825898524634
0.40485683528406735 0.40670106162634506 -0.1263825898524634
0.6133841762883031 -0.5162142889876117 -0.12583207452641035
0.41946122043378886 -0.4012352308891042 -0.12480968892088329
-0.21238881279126484 0.3859859563574346 -0.12480968892088329
0.5807936689859627 0.524637173476223 -0.12425917359483024
0.2226598558744831 0.06487823117535126 -0.12323678798930314
-0.24325699357352487 0.5284593227399629 -0.12268627266325009
-0.24087404866218093 -0.49151187985714573 -0.12268627266325009
0.4919719533796328 -0.17336120842643296 -0.12166388705772299
-0.21619523304568872 0.437726532501763 -0.12111337173166994
-0.19680922906396361 -0.504551228579945 -0.12111337173166994
0.41946122043378886 -0.39087767825464903 -0.1200909861261429
-0.213088753705818 -0.4069448612707401 -0.11954047080008985
0.5704990323887709 0.5293480117663056 -0.11954047080008985
0.5955553442288424 0.35490543394941126 -0.11851808519456274
-0.150235632479876 -0.08137796194762702 -0.11851808519456274
0.6004234726120828 -0.40534836682518627 -0.11796756986850969
-0.08809031667314508 0.23060693783129152 -0.11694518426298264
-0.21906577724582246 -0.3941964992202831 -0.11694518426298264
0.6308197831148687 0.485935946054694 -0.1163946689369296
-0.1709507377487863 0.36526298658386647 -0.1153722833314025
0.6369855547666627 -0.39212813449525524 -0.1153722833314025
0.5910017960319178 0.5131156741523988 -0.11482176800534945
-0.1407274463484741 -0.4629086764163611 -0.11482176800534945
0.1294340176597288 -0.23550652423316387 -0.11379938239982235
-0.2503429122702933 -0.4864078163341682 -0.1132488670737693
-0.13736143835489265 0.4979529091719661 -0.1132488670737693
0.5851899270897293 -0.059420264942768405 -0.11222648146824224
-0.20378504469552147 0.43515483947862954 -0.11167596614218919
0.6271234659256554 -0.46493771861809946 -0.11167596614218919
0.5955553442288424 0.3640203948479183 -0.11065358053666209
0.16050667556309434 -0.14029096633996077 -0.11065358053666209
0.60380520961498 0.4412498305885026 -0.11010306521060904
0.11907646502527372 0.3341903286805011 -0.109080679605082
-0.150235632479876 -0.32873236244791815 -0.109080679605082
0.5728033322535359 -0.48964012774856536 -0.10853016427902895
-0.22797626102322388 0.5220576159484318 -0.10853016427902895
-0.2122393872027647 -0.3974130816253645 -0.10750777867350185
0.5306181292685567 0.493304986919147 -0.1069572633474488
0.601736844889952 -0.4088716649119258 -0.1069572633474488
0.3158778295845795 -0.14228068601840962 -0.1059348777419217
-0.22158241873635068 -0.5088531126278166 -0.10538436241586865
-0.2057590353646546 0.5291828571684896 -0.10538436241586865
0.45053387833715425 0.10630844171317186 -0.1043619768103416
-0.036294688996211445 -0.0387051596738581 -0.1043619768103416
-0.21721761865121583 0.4531095036126166 -0.10381146148428855
0.2951627243156691 0.1270314114867401 -0.10278907587876145
0.16050667556309434 -0.14029096633996077 -0.10278907587876145
-0.23101195982117353 0.5289626510380684 -0.1022385605527084
0.04656573207942978 0.1166738588522849 -0.10121617494718135
-0.005222031092846041 0.04416312590644095 -0.10121617494718135
-0.21982076969298092 0.48728077635119493 -0.1006656596211283
0.5851899270897293 0.002732915368620448 -0.0996432740156012
-0.1813082903832415 0.40670106162634506 -0.0996432740156012
0.6241585476696269 0.4668566577546271 -0.09909275868954816
0.45053387833715425 0.002732915368620448 -0.09807037308402106
-0.23223095804314817 -0.5084677518995795 -0.09807037308402106
0.6402021371717442 0.49280165862104136 -0.097519857757968
0.42981877306824406 -0.0387051596738581 -0.09649747215244095
-0.22542816151406408 -0.5151761743727689 -0.09649747215244095
-0.18166219309284695 0.5311961703609122 -0.0959469568263879
0.2537325137778486 -0.13192313338395442 -0.0949245712208608
0.6066757538151137 -0.40714933839184553 -0.09437405589480775
0.6349486480602666 0.48992324991624964 -0.09437405589480775
0.284805171681214 -0.10921830843659536 -0.09335167028928071
-0.22645054711959117 -0.4573091490999358 -0.09280115496322766
-0.21801979812632166 0.5010357949978633 -0.09280115496322766
0.41946122043378886 -0.0677802333941168 -0.09177876935770056
-0.18388784791103283 -0.4930611872747522 -0.09122825403164751
0.6428367462321408 0.49162984742701415 -0.09122825403164751
0.5168080590892832 0.03380557327198585 -0.0902058684261204
-0.07773276403868999 -0.13192313338395442 -0.0902058684261204
-0.2208510198031659 0.48852336808714336 -0.08965535310006735
0.4816144007451776 0.43777371952971045 -0.0886329674945403
-0.1709507377487863 -0.33908991508237335 -0.0886329674945403
-0.2314602365866739 -0.4863763583155366 -0.08808245216848726
-0.06737521140423477 -0.4653859953835998 -0.08706006656296016
0.4233777437534235 -0.20709206890416884 -0.08706006656296016
-0.057009794265121747 0.43977130371281714 -0.08706006656296016
0.5885716640926265 0.4138105738370872 -0.08650955123690711
0.2226598558744831 0.17881917465901592 -0.08548716563138006
0.45053387833715425 0.04416312590644095 -0.08548716563138006
-0.21769735343534777 -0.5025300508828645 -0.08493665030532702
-0.16330643922130691 0.5281054200303572 -0.08493665030532702
-0.1605931851143312 0.03380557327198585 -0.08391426469979991
0.3987461151648787 0.17881917465901592 -0.08391426469979991
-0.1416711869074222 -0.43834782836973735 -0.08336374937374687
-0.19060413488887998 0.4261971686732806 -0.08336374937374687
0.15014912292863913 -0.20443386632979849 -0.08234136376821975
0.33409988687693537 -0.26657918213652937 -0.08234136376821975
-0.20797682567818254 -0.5100406528311596 -0.0817908484421667
-0.20005726948767666 0.43720747519434155 -0.0817908484421667
-0.1709507377487863 -0.3328454983840001 -0.08076846283663966
0.3623806456267461 -0.2512827205769126 -0.08076846283663966
-0.10880542194205539 0.48537756622398304 -0.08076846283663966
0.5836720776907544 0.4045697808640539 -0.08021794751058661
0.37864444125928454 -0.21479141896425358 -0.07982472227769155
0.5126870586485432 0.1270314114867401 -0.07919556190505951
0.44266937367925363 -0.16050274331076536 -0.07919556190505951
-0.21378869462037114 -0.41510821710564094 -0.07864504657900646
0.572944893337378 0.5158446572686901 -0.07864504657900646
0.43964153938596195 0.1919293039237363 -0.07825182134611146
0.3390938473347022 -0.16050274331076536 -0.07762266097347942
0.35424874781047666 0.316141290490619 -0.07762266097347942
-0.1191629745765106 -0.4115927835235594 -0.07762266097347942
0.5886345801298897 0.5100957043637647 -0.07707214564742637
0.39897418579995775 -0.19919610622763656 -0.0766789204145313
-0.14634270267421515 0.5206420051100096 -0.07604976004189926
0.37864444125928454 0.25596210084836335 -0.07604976004189926
0.34610898548954955 -0.31837480981346306 -0.07604976004189926
0.5868178795539146 -0.3877476054008046 -0.07549924471584621
0.43964153938596195 -0.22705218172592065 -0.0751060194829512
0.37536494281693994 -0.20443386632979849 -0.07447685911031911
0.6059128968632974 -0.028347607039403002 -0.07447685911031911
0.07764625448745312 -0.09885289129748222 -0.07447685911031911
-0.19607783013077892 -0.505416324092314 -0.07392634378426606
0.627084143402366 0.49140177679193486 -0.07392634378426606
0.37864444125928454 0.2515737072492548 -0.07353311855137105
0.4152458459371541 0.1891767272934709 -0.07290395817873901
0.5766805330498808 -0.36145656632944273 -0.07290395817873901
-0.1191629745765106 -0.42195820066267237 -0.07290395817873901
0.3353660721268574 0.21963595383352025 -0.07235344285268597
0.3745784923511499 -0.2976597045445527 -0.0719602176197909
0.390881610506978 -0.3001527525211072 -0.07133105724715887
-0.05951070674633414 -0.1862118090374426 -0.07133105724715887
0.20193688610091495 0.013090468003075544 -0.07133105724715887
-0.19214557780182862 -0.39120012294562295 -0.07078054192110582
0.3174507305161595 0.22767347759389464 -0.07078054192110582
0.39490823689182314 -0.2873021519100975 -0.07038731668821081
0.049255392672431786 -0.11120802811504422 -0.06975815631557877
-0.1709507377487863 -0.35980502035128364 -0.06975815631557877
0.10085440773291787 0.23310785031250403 -0.06975815631557877
0.33660079935814763 0.36726057076697316 -0.06975815631557877
0.5644748218208188 -0.2769367347709845 -0.06975815631557877
0.5926376130007611 -0.39280448189583467 -0.06920764098952573
0.6027120434675319 0.4221469487744619 -0.06920764098952573
-0.007817317629953241 -0.2048270915626935 -0.06881441575663065
0.3095154453163379 0.3209386383319385 -0.06881441575663065
0.017986122152618828 0.24883685962830532 -0.06818525538399861
0.26478214282219903 -0.17425776195743367 -0.06818525538399861
0.2973097340872762 -0.12968174955645276 -0.06818525538399861
-0.150235632479876 0.39634350899188986 -0.06818525538399861
0.34695835199260283 0.25132990760485985 -0.06818525538399861
0.2827210779468703 -0.15226074242928558 -0.06763474005794556
0.5490367991773599 0.5138156150669518 -0.06763474005794556
0.3339111387651457 -0.24586407686761907 -0.06724151482505056
0.39490823689182314 0.11548631864894204 -0.06724151482505056
0.005135521541609168 -0.25622162950207417 -0.06724151482505056
0.3664465945348807 -0.31286179204827463 -0.06661235445241846
0.11121196036737307 0.3315321261061307 -0.06661235445241846
0.3276588575621146 -0.2531151501622035 -0.06661235445241846
0.0542650821395145 -0.3105103051555624 -0.06661235445241846
0.3366322573767794 -0.20344293874290295 -0.06606183912636542
0.5988427071758446 0.41449478574232446 -0.06606183912636542
0.008588039086427496 0.2593595668605763 -0.06566861389347041
0.015493074176064265 -0.19407631369534326 -0.06566861389347041
-0.05951070674633414 -0.20692691430635293 -0.06503945352083837
0.03298373253523533 0.2886548467112562 -0.06503945352083837
0.284805171681214 -0.27818719101159073 -0.06503945352083837
0.3987461151648787 0.3238327760460459 -0.06503945352083837
0.37144055499264755 0.26760156774205623 -0.06448893819478532
0.5896333722214431 -0.48590448803606257 -0.06448893819478532
0.24777121924715995 0.2085076797425909 -0.06448893819478532
0.09109455745246317 -0.3081194957395606 -0.06448893819478532
0.39897418579995775 0.30703419409677013 -0.06409571296189026
0.4816144007451776 -0.4323157532971275 -0.06346655258925822
0.07771703502937423 -0.27059007951205866 -0.06346655258925822
0.11907646502527372 0.3134752234115907 -0.06346655258925822
0.3135813942244725 0.29854052906623735 -0.06346655258925822
0.12329183952190849 0.17843381393077873 -0.06291603726320517
0.6213981065347037 -0.4081324014740831 -0.06291603726320517
0.2831772192170286 -0.1469128792619131 -0.06291603726320517
-0.007479143929663463 0.05598347640726562 -0.06291603726320517
-0.22505066529048484 -0.4713472899142885 -0.06291603726320517
0.49657268860450476 -0.21479141896425358 -0.06252281203031015
0.38271039016741915 -0.31495375028727624 -0.06189365165767812
0.284805171681214 0.25132990760485985 -0.06189365165767812
0.007628569518163618 0.20989183256238134 -0.06189365165767812
0.05332134158056639 -0.23284832165879352 -0.06189365165767812
0.4301490822638759 0.2650770617468701 -0.061343136331625074
0.5650567951655036 -0.48057235387800595 -0.061343136331625074
0.24464901089797333 0.2009105682430588 -0.061343136331625074
0.10785381687844946 0.1437277548754631 -0.061343136331625074
0.09762996082317864 -0.3123034122175637 -0.061343136331625074
0.3867763390755537 0.34454788131495606 -0.060949911098730006
0.025850626810519473 0.3983332286703388 -0.06032075072609797
0.1294340176597288 0.16913010492048233 -0.06032075072609797
0.10871891239081852 -0.30801725717900785 -0.06032075072609797
0.5275902949752648 -0.4774265520148457 -0.06032075072609797
0.3456449797147334 0.28958285826088864 -0.059770235400044926
0.3354840396967258 -0.26116840293189375 -0.059770235400044926
-0.005402914699977725 -0.04075779538957013 -0.059770235400044926
0.4290637806210856 -0.06637248706035258 -0.059770235400044926
-0.22254188830461458 -0.4330471522303123 -0.059770235400044926
0.38996932796666145 -0.3142302158587494 -0.05937701016714991
0.007699350060084726 -0.1884846508835759 -0.05874784979451782
0.2951627243156691 -0.27656710305206317 -0.05874784979451782
0.024851834718966126 0.3134752234115907 -0.05874784979451782
0.43231182104479865 0.316141290490619 -0.05874784979451782
0.07027721362300023 0.22980475835618586 -0.05819733446846477
0.33752094640312214 -0.20365528036866629 -0.05819733446846477
0.201535796363362 0.0885425256909743 -0.05819733446846477
0.5284789840016075 -0.46256263821141347 -0.05819733446846477
0.5941318688857623 0.5182040086660604 -0.05819733446846477
0.10212059298283989 0.3031176707771355 -0.057804109235569764
0.29868602240240866 0.3134752234115907 -0.057174948862937724
0.34893234266173595 0.1373889641211953 -0.057174948862937724
0.2744476190467589 -0.19407631369534326 -0.057174948862937724
-0.12940255964109718 0.48829529745206424 -0.05662443353688468
0.5255848462875001 0.4497906826469826 -0.05662443353688468
0.47987634521578176 -0.22447262419812922 -0.05662443353688468
0.11895063295074727 -0.1461342933007809 -0.05662443353688468
0.4095912670881236 0.10280087263574819 -0.05662443353688468
-0.21145293673697468 -0.42001566801217094 -0.05662443353688468
0.39490823689182314 0.33470938598792255 -0.05623120830398961
0.02319242423614899 0.32632582402260046 -0.05560204793135757
0.4712568481107226 -0.0387051596738581 -0.05560204793135757
0.08550289464069583 -0.15263823865286472 -0.05560204793135757
0.5006386375126394 0.2720450128737701 -0.05560204793135757
0.3774647655605994 0.32862225938270745 -0.05505153260530452
0.6228137173731259 -0.4608717697099648 -0.05505153260530452
0.2731657047875211 -0.1419267833088041 -0.05505153260530452
0.10969411096839828 -0.1513405953843112 -0.05505153260530452
0.09675700080615163 -0.30866214656095575 -0.05505153260530452
0.5126870586485432 -0.23550652423316387 -0.054658307372409516
0.05692328471388487 0.3859859563574346 -0.054029146999777476
0.6059128968632974 0.3640203948479183 -0.054029146999777476
0.30302722897356976 -0.22265592362215422 -0.054029146999777476
-0.22096112286837652 0.45524864887956573 -0.05347863167372443
0.5486121159258333 0.46347492075172975 -0.05347863167372443
0.3566159637125049 -0.3357632296120813 -0.05347863167372443
-0.0025166414905281533 -0.07371793441083176 -0.05347863167372443
0.2905619890907974 -0.165764096926901 -0.05347863167372443
0.02142291068812139 -0.19108780192534106 -0.05308540644082936
-0.0984478693076003 0.5309995577444648 -0.05245624606819732
0.4428423927817276 0.32632582402260046 -0.05245624606819732
0.5151801066250976 -0.23301347625660943 -0.05245624606819732
-0.036294688996211445 -0.04906271230831331 -0.05245624606819732
0.4527595331553403 0.2854618578201487 -0.051905730742144274
0.6151615543409886 -0.4230356378008048 -0.051905730742144274
0.16758472975520486 -0.17820574329569977 -0.051905730742144274
0.29216634804100894 -0.166314612252954 -0.051905730742144274
-0.14942558850011228 -0.4888694062920911 -0.051905730742144274
0.41117989702901947 -0.32873236244791815 -0.05151250550924927
0.06728083734834009 0.23584469793345356 -0.05088334513661717
0.49250673969637015 0.47920393006753104 -0.05088334513661717
0.38576968247934257 -0.20775268729543253 -0.05088334513661717
-0.1900300260488533 -0.3996780589668399 -0.050332829810564125
0.10311938507439335 -0.14567815203062273 -0.050332829810564125
0.07698563609618944 0.12768416537334584 -0.050332829810564125
0.3841495945198151 -0.31053389866953607 -0.050332829810564125
0.39086588149766216 0.2519590679774918 -0.050332829810564125
0.2965154191168282 0.28382604085130536 -0.04993960457766911
0.5169102976498359 -0.25622162950207417 -0.04993960457766911
0.37123607787154206 0.19462682902139614 -0.04931044420503708
0.41946122043378886 -0.39087767825464903 -0.04931044420503708
0.10871891239081852 -0.30801725717900785 -0.04931044420503708
-0.23173549424970039 -0.4635142432750194 -0.04875992887898403
0.06798077826289323 -0.1967974323069769 -0.04875992887898403
0.2750531859054172 -0.14536357184430665 -0.04875992887898403
0.46368333012516433 -0.20571578058903625 -0.04875992887898403
0.47069846828001166 0.23122823369926573 -0.04875992887898403
0.45183938611036595 0.31489083425001285 -0.048366703646088964
0.3867763390755537 -0.19407631369534326 -0.048366703646088964
0.013000026199509815 0.34454788131495606 -0.047737543273456924
0.34610898548954955 0.14892619245433544 -0.047737543273456924
0.38271039016741915 -0.19673451626971375 -0.047737543273456924
-0.07773276403868999 -0.39087767825464903 -0.047737543273456924
0.38296991882112996 0.2508029857927805 -0.04718702794740388
0.5573574451054187 -0.47045860088794567 -0.04718702794740388
0.015634635259906483 0.0092919122533095 -0.04718702794740388
0.2350228571967029 0.20015557579590032 -0.04718702794740388
-0.20516133301065406 -0.41402291546285064 -0.04718702794740388
0.4803088929719661 -0.2976597045445527 -0.046793802714508864
-0.1605931851143312 0.3756284037229796 -0.04616464234187683
0.48844079078823555 0.3134752234115907 -0.04616464234187683
0.5380500861702727 -0.4010228892633409 -0.04616464234187683
-0.038787736972766 -0.2873021519100975 -0.04616464234187683
0.4105114141330979 -0.15852088813697443 -0.045614127015823784
0.10143638107760261 -0.11727942571094345 -0.045614127015823784
0.2961693809118805 -0.14853296722144066 -0.045614127015823784
-0.14087687193697426 0.5001392414668626 -0.045614127015823784
0.45909045940495036 0.29162762947194276 -0.045614127015823784
0.2951627243156691 0.2616874602393151 -0.045220901782928716
0.509690682373883 -0.4621300904552289 -0.045220901782928716
-0.023947416683307483 -0.2976597045445527 -0.044591741410296676
0.3867763390755537 -0.20193295384858598 -0.044591741410296676
0.2842310628411873 0.1751464509837762 -0.044591741410296676
0.5849068049220448 -0.4796286133190579 -0.04404122608424363
0.31802483935618636 -0.20498438165585148 -0.04404122608424363
0.022830657021885623 0.009142486664809456 -0.04404122608424363
-0.2148582672538456 -0.42264241256790974 -0.04404122608424363
0.04037636691366192 0.32552364454749455 -0.04404122608424363
0.6071790821132194 0.45199274395119476 -0.04404122608424363
0.008588039086427496 -0.32873236244791815 -0.04364800085134862
-0.06868071917744627 0.2536263429649669 -0.04301884047871653
0.29203265146182467 0.2824025655082253 -0.04301884047871653
0.4816144007451776 -0.4115927835235594 -0.04301884047871653
-0.150235632479876 -0.18371876106088816 -0.04301884047871653
0.43427008270461587 -0.16352271309939923 -0.04246832515266348
0.23676877723075693 -0.17563405027256626 -0.04246832515266348
0.13098332507733526 -0.14065273355422425 -0.04246832515266348
-0.15512735437709022 -0.48973450180446015 -0.04246832515266348
0.40553318268464694 0.3445793393335878 -0.04246832515266348
0.5866527249560988 0.400606070516472 -0.04246832515266348
0.43557559047782735 0.3652708510885244 -0.04207509991976847
-0.07274666808558097 -0.2485301439466474 -0.04144593954713643
0.5049877085884584 -0.2976597045445527 -0.04144593954713643
0.5151801066250976 0.3134752234115907 -0.04144593954713643
-0.052409059040249915 0.2747582669807458 -0.04144593954713643
0.3887660587540027 -0.23086646648500248 -0.04089542422108338
-0.0384888857957657 -0.16610227062719066 -0.04089542422108338
-0.1709979247767337 0.406535907028529 -0.04089542422108338
0.13499422245286463 0.18144591921475475 -0.04089542422108338
0.4662471586436399 0.22580958998997225 -0.04089542422108338
0.5211178076418127 0.4603998994304907 -0.04089542422108338
0.47945952646891304 -0.4426733059315827 -0.04050219898818832
-0.07773276403868999 -0.10085047548058901 -0.03987303861555628
0.6266280021322078 -0.38052012562019394 -0.03987303861555628
0.5885873931019422 0.3554795427894381 -0.03987303861555628
-0.057355832470069354 0.2745773833736141 -0.03987303861555628
0.40388950121114564 -0.15925228707015923 -0.03932252328950323
0.20398165731196904 -0.17638117821506683 -0.03932252328950323
0.11183325623534718 -0.15055414491852115 -0.03932252328950323
-0.21608512998047816 0.48548766928919374 -0.03932252328950323
0.3257713764442186 0.20615619284987857 -0.03932252328950323
0.5836563486814387 0.5035603009930494 -0.03932252328950323
0.03704968144336993 -0.3577287911215978 -0.03892929805660822
0.4749924878232254 0.48956148270198624 -0.038300137683976186
0.1061865418909746 0.2631423936010265 -0.038300137683976186
0.5006386375126394 -0.31837480981346306 -0.038300137683976186
-0.07773276403868999 -0.14228068601840962 -0.038300137683976186
-0.042602021731847815 -0.25302864061096647 -0.03774962235792313
0.38977271535021385 -0.22863294716215876 -0.03774962235792313
0.5802667471738834 -0.47932976214205764 -0.03774962235792313
0.5021722159209299 0.26488831363508053 -0.03774962235792313
0.27979548221413125 -0.16947614312543005 -0.03774962235792313
-0.07602616652792556 0.24459789161769696 -0.03774962235792313
0.4712568481107226 0.34454788131495606 -0.03735639712502807
0.5006386375126394 -0.46580281413046853 -0.03735639712502807
0.4919719533796328 0.5102844524755544 -0.03672723675239603
0.4919719533796328 0.03380557327198585 -0.03672723675239603
0.04028199285776711 -0.18203575706409744 -0.03672723675239603
0.6147761936127515 -0.41037378530158475 -0.036176721426342984
0.3750818206492555 -0.21099286321448754 -0.036176721426342984
0.19196469419469692 0.20539333589806213 -0.036176721426342984
0.38751560251339656 0.11046876467720139 -0.036176721426342984
-0.1694328883498115 -0.4790859624976627 -0.036176721426342984
0.06828749394455137 0.20964016841332841 -0.036176721426342984
0.6081070936628516 0.44426193587247836 -0.036176721426342984
-0.06737521140423477 0.2824025655082253 -0.03578349619344797
-0.05077324207140648 -0.31837480981346306 -0.03515433582081588
0.4233777437534235 -0.38052012562019394 -0.03515433582081588
0.4721769951556969 0.48956148270198624 -0.03515433582081588
0.028917783627100728 0.16846162202456072 -0.03515433582081588
0.10779090084118628 -0.2418689085014055 -0.034603820494762835
0.27388137471139 0.1742498974527755 -0.034603820494762835
0.3429631836263892 -0.18977442964747163 -0.034603820494762835
0.49664346914642576 -0.2523286996964133 -0.034603820494762835
0.6226642917846257 0.4308922779540474 -0.034603820494762835
0.5007644695871657 0.27776250776006384 -0.034603820494762835
-0.21511779590755634 0.4471482090819281 -0.034603820494762835
-0.0738083762143975 0.2927601181426805 -0.03421059526186782
-0.1709507377487863 -0.06977781757722361 -0.03358143488923578
0.5126870586485432 -0.5048186217383136 -0.03358143488923578
0.49657268860450476 0.49992689984109917 -0.03358143488923578
-0.2331039180601751 0.40670106162634506 -0.03358143488923578
0.515707028437177 -0.27364150731932413 -0.033030919563182735
0.3701507762287519 -0.23301347625660943 -0.033030919563182735
0.044363670775217585 -0.044823744297704846 -0.033030919563182735
0.0519450532654338 -0.27331906262835026 -0.033030919563182735
0.015272868045643113 0.3375406076647667 -0.033030919563182735
0.29966122097998826 0.2652658098586598 -0.033030919563182735
0.6084452673631414 0.4350132783947873 -0.033030919563182735
0.05862988222464931 0.24097235497040467 -0.032637694330287674
0.03298373253523533 0.16846162202456072 -0.032008533957655634
0.2821469691068436 0.24097235497040467 -0.032008533957655634
0.11907646502527372 -0.26657918213652937 -0.032008533957655634
-0.21010024193581567 -0.4841035164694033 -0.032008533957655634
0.3574889237295318 -0.1800539018903064 -0.03145801863160259
0.24979239694424032 0.20504729769311442 -0.03145801863160259
0.38227784241123475 0.07946688731575698 -0.03145801863160259
0.0024144029299755154 -0.30969239667114073 -0.03145801863160259
0.007597111499532089 0.33953819184787337 -0.03145801863160259
0.42159250119608005 0.37345780043739896 -0.03145801863160259
0.49606149580174125 0.47410773104921144 -0.03145801863160259
0.07365108612123962 0.25132990760485985 -0.031064793398707574
-0.025937136361756347 -0.15263823865286472 -0.030435633026075538
0.5151801066250976 -0.3312254104244727 -0.030435633026075538
0.647343107401118 0.40670106162634506 -0.030435633026075538
-0.20478383678707493 0.4528892974821955 -0.02988511770002249
0.01649186626761772 0.33894048949387295 -0.02988511770002249
0.5035720977500362 0.2846046268124375 -0.02988511770002249
0.5136701217307807 -0.43524134902986655 -0.02988511770002249
0.3299710219315375 -0.16511920754495307 -0.02988511770002249
0.2352981148597295 -0.17539811513282924 -0.02988511770002249
0.38629660429142193 0.08114989131254771 -0.02988511770002249
-0.12429063161346184 -0.4651500602438628 -0.02988511770002249
-0.07962810966124405 -0.45303085856603786 -0.029491892467127422
0.4919719533796328 0.3652708510885244 -0.028862732094495386
0.43964153938596195 -0.37358363251192556 -0.028862732094495386
0.020785885810831413 -0.37553402966708493 -0.028862732094495386
0.028917783627100728 0.3928438044191241 -0.028862732094495386
0.35197590596434347 -0.2739796810196138 -0.02831221676844234
0.3903310951809248 -0.3536156551855158 -0.02831221676844234
0.39576546789953415 0.04041962168928025 -0.02831221676844234
-0.0011403531753955624 -0.16373505472516253 -0.02831221676844234
-0.13662217491705003 0.47038782034602433 -0.02831221676844234
0.0685942096262095 0.21711931234299212 -0.02831221676844234
0.4932853256575022 0.31703784402161966 -0.02831221676844234
-0.06461477026931166 0.3134752234115907 -0.02791899153554733
-0.036145263407711285 -0.15263823865286472 -0.02791899153554733
-0.057009794265121747 0.06487823117535126 -0.027289831162915234
0.4919719533796328 -0.11120802811504422 -0.027289831162915234
-0.21914442229240147 0.49992689984109917 -0.027289831162915234
0.5529533224969946 -0.46944407978707653 -0.026739315836862187
0.33692324404912155 -0.16916156293911408 -0.026739315836862187
0.23537675990630846 0.20257784323053366 -0.026739315836862187
0.11179393371205772 0.14394009650122655 -0.026739315836862187
-0.08146840375119276 -0.23950955710403532 -0.026739315836862187
0.003963710347581965 0.187037582026522 -0.026739315836862187
0.353517348877292 0.2061247348312468 -0.026739315836862187
0.598583178522134 0.478967994927794 -0.026739315836862187
0.03704968144336993 0.16846162202456072 -0.026346090603967177
0.5577899928616034 0.44813127216416565 -0.025716930231335138
0.11658341704871916 0.24346540294695923 -0.025716930231335138
0.09745694172070489 -0.21479141896425358 -0.025716930231335138
0.6031524557283743 -0.4058516951232919 -0.02516641490528209
0.3747121889303342 -0.24179026345482654 -0.02516641490528209
0.21607726547582032 -0.18009322441359588 -0.02516641490528209
0.04739150506850938 0.10757462696309388 -0.02516641490528209
0.02533943400775595 -0.34744988353372164 -0.02516641490528209
0.10729543704773853 0.286067424678807 -0.02516641490528209
0.30904357503686386 0.20140603203650648 -0.02516641490528209
0.61837813674607 0.4636951268821509 -0.02516641490528209
0.5535038378230476 -0.2976597045445527 -0.024773189672387026
0.5483919097954121 0.5102844524755544 -0.024144029299754986
0.3018160952562531 0.25132990760485985 -0.024144029299754986
-0.025937136361756347 -0.04906271230831331 -0.024144029299754986
0.5799836250061989 0.5064780322211304 -0.02359351397370194
0.30312160302946456 0.2664612145666608 -0.02359351397370194
0.011332751212034852 0.35336399103646277 -0.02359351397370194
-0.18206328283039988 -0.48621906822237854 -0.02359351397370194
0.1147981744913758 -0.2557418947179423 -0.02359351397370194
0.3140847225225781 0.15653903296318342 -0.02359351397370194
0.31182760968576057 -0.23914778988977184 -0.02359351397370194
0.435756474084959 -0.3688492007078693 -0.02359351397370194
0.6029715721212425 -0.4274790829325187 -0.02359351397370194
-0.0930764126262541 -0.463388411200493 -0.02257112836817489
-0.08901046371811949 0.48190931966984885 -0.02257112836817489
0.512844348741701 -0.492833116639673 -0.02257112836817489
0.4833917787978634 0.37366227755850445 -0.02257112836817489
0.49969489695369124 0.34205483333840175 -0.022020613042121842
0.3630727220366413 0.19069457669244583 -0.022020613042121842
-0.21655700025995214 0.4754918838690019 -0.022020613042121842
0.07563294129503055 -0.23285618616345133 -0.022020613042121842
0.019244442897882904 -0.35611656766672817 -0.022020613042121842
0.09858156588678468 0.14671626664546553 -0.022020613042121842
0.37758273313046803 -0.16605508359924326 -0.022020613042121842
0.5811475716955682 -0.3675830154579473 -0.022020613042121842
0.2847894426718982 0.17644409425232976 -0.021627387809226777
0.5209762465579705 -0.4961362085959913 -0.021627387809226777
-0.08087856590185018 0.3084340759258764 -0.020998227436594737
-0.150235632479876 -0.24586407686761907 -0.020998227436594737
0.5190573074214427 -0.25787317548023325 -0.020998227436594737
