0.570458758903283 0.29277505093746325 -0.14087251631921346
0.36699288692875953 0.5362746940390143 -0.14087251631921346
0.5388873297140125 0.5564264575436847 -0.14087251631921346
0.3724679322438609 0.07052617678704451 -0.14087251631921346
0.5645541023682011 0.30260615420399556 -0.14087251631921346
0.5695196087944884 0.48435168217298924 -0.13887432459837357
0.3377693330114759 0.4121769972162519 -0.13887432459837357
0.4483492628427564 0.6073303916320814 -0.13887432459837357
0.5842262998598701 0.45095190755915027 -0.13887432459837357
0.3382588899830816 0.4835224326088407 -0.13887432459837357
0.463555501838348 0.6013857712625826 -0.13887432459837357
0.485935249111755 0.2263951219711615 -0.13887432459837357
0.500002518826468 0.08021740663311805 -0.13887432459837357
0.29946399772297483 0.3713539403594926 -0.13829484899932998
0.6152781992017222 0.33187966291430027 -0.13829484899932998
0.4831377807025791 0.5954111780172714 -0.13687613287753364
0.581668614457195 0.38434218654495195 -0.13687613287753364
0.3560727691743694 0.5209685454573807 -0.13687613287753364
0.5312242644645916 0.567296620505054 -0.13687613287753364
0.3806105635062835 0.07931822035874006 -0.13687613287753364
0.43175428060118093 0.11369710891579068 -0.13687613287753364
0.4648043716638729 0.1554293430055322 -0.13687613287753364
0.4715782415975203 0.09616297656542054 -0.13687613287753364
0.4852958277610862 0.13904417089464496 -0.13687613287753364
0.5508864709976561 0.18566198374183998 -0.13687613287753364
0.48102968843709304 0.5931232484969096 -0.13687613287753364
0.34194555370803126 0.37921682478099766 -0.13687613287753364
0.4705291909440793 0.6213776794295859 -0.1351177241631945
0.5737657662012732 0.33420755626907866 -0.13487794115669374
0.35886024662494104 0.5195298474183759 -0.13487794115669374
0.5404059554218509 0.5524300741020051 -0.13487794115669374
0.3631363769075384 0.1435500932251389 -0.13487794115669374
0.41516928931820973 0.5939924618954752 -0.13487794115669374
0.47542476066013706 0.14585800466270893 -0.13487794115669374
0.36606372777856894 0.17322324027961153 -0.13487794115669374
0.4560223190507816 0.15657830324501512 -0.13487794115669374
0.48713416414425886 0.13158092481730793 -0.13487794115669374
0.4745955110959885 0.10247726240327457 -0.13487794115669374
0.506866307387553 0.07837907024994537 -0.13487794115669374
0.5234812715463368 0.5607625335779075 -0.13487794115669374
0.5379281976880094 0.5505018190913945 -0.13287974943585382
0.3763644060994987 0.07511202678637213 -0.13287974943585382
0.40324008474479545 0.5810541705030365 -0.13287974943585382
0.5756940212118836 0.4988685450248912 -0.13287974943585382
0.32739871798031667 0.4162932721611821 -0.13287974943585382
0.459549127438064 0.07756980260300517 -0.13287974943585382
0.3522562229875651 0.2590355837310813 -0.13287974943585382
0.4833975456262883 0.08153621316887244 -0.13287974943585382
0.5413251236134372 0.10800226251139702 -0.13287974943585382
0.5540336229579791 0.19629236369670822 -0.13287974943585382
0.38403746230752395 0.2608239653212331 -0.13287974943585382
0.5031196979109782 0.5799751469737829 -0.13287974943585382
0.29946399772297483 0.41082821780468487 -0.13194059932705907
0.48368728342581 0.05712830129881299 -0.13194059932705907
0.5053976364727356 0.583122298934106 -0.13088155771501392
0.47922132492973296 0.07017649323589756 -0.13088155771501392
0.41653805064698507 0.5922540350983443 -0.13088155771501392
0.5887022493145515 0.4392924588680494 -0.13088155771501392
0.33968759706348217 0.4991682737830172 -0.13088155771501392
0.5335421668607658 0.07718015521744137 -0.13088155771501392
0.4820687481319298 0.1430405543363247 -0.13088155771501392
0.44531201142707966 0.10117843778472867 -0.13088155771501392
0.4743257552136751 0.22202907306112632 -0.13088155771501392
0.3919702834392584 0.25381031238108503 -0.13088155771501392
0.5693497624982169 0.30787138938840874 -0.13088155771501392
0.44421300598061775 0.6345357719113168 -0.12888336599417402
0.5651735418016616 0.21193820487088472 -0.12888336599417402
0.5655731801458295 0.2521518132527879 -0.12888336599417402
0.5824878730627392 0.41518427575611594 -0.12888336599417402
0.351247136168541 0.5093490606006965 -0.12888336599417402
0.5597984060726022 0.25550877534379896 -0.12888336599417402
0.4969153126177702 0.5951913769279791 -0.12888336599417402
0.35554324836834683 0.22105995007651888 -0.12888336599417402
0.5689401331954447 0.5193699920807089 -0.12888336599417402
0.3259500289827078 0.4063822412258162 -0.12888336599417402
0.5001024284125098 0.5843411958838183 -0.12888336599417402
0.4755946069564084 0.15586894518411698 -0.12888336599417402
0.4203745787509977 0.12611587046081066 -0.12888336599417402
0.4313146784225962 0.1263956173017283 -0.12888336599417402
0.4252801394256597 0.06879774094851797 -0.1268851742733341
0.5551226374458368 0.26187301597467405 -0.1268851742733341
0.4647344349536436 0.6097981584073188 -0.1268851742733341
0.35220626819454415 0.24812545693529545 -0.1268851742733341
0.5872635512755467 0.42296723250878737 -0.1268851742733341
0.35235613257360715 0.5227868999233449 -0.1268851742733341
0.5811890484441934 0.3010375737031363 -0.1268851742733341
0.37643434280972804 0.5642194052549603 -0.1268851742733341
0.5793207391852081 0.39218508904924854 -0.1268851742733341
0.43401223724573 0.10983060793596547 -0.1268851742733341
0.48920229257532827 0.11482608723806523 -0.1268851742733341
0.47078895586778846 0.16222319485638784 -0.1268851742733341
0.3592199211346922 0.20787188471897555 -0.12558634965478815
0.4625364240607197 0.07944810282059471 -0.12558634965478815
0.5451916245932624 0.2478357191357737 -0.12558634965478815
0.5332923928956608 0.2533906921197086 -0.1248869825524942
0.4259894974865578 0.06858793081782977 -0.1248869825524942
0.5645441114095969 0.2495241911398834 -0.1248869825524942
0.47607417296941 0.6054121275800752 -0.1248869825524942
0.3517366931401468 0.2404723826444787 -0.1248869825524942
0.5766331713206785 0.4944125774874182 -0.1248869825524942
0.3281280579584233 0.4268237425300085 -0.1248869825524942
0.5886123306871135 0.46126257683868416 -0.1248869825524942
0.33477204543021594 0.49224453947030705 -0.1248869825524942
0.3576713225510413 0.5195498293355845 -0.1248869825524942
0.4826182508551607 0.11115940543032396 -0.1248869825524942
0.46295604432209614 0.1600052020462556 -0.1248869825524942
0.4212238102323546 0.13150099714847424 -0.1248869825524942
0.36438524673306333 0.2002887471383881 -0.12358815793394826
0.47286707525746197 0.07944810282059471 -0.12358815793394826
0.6152781992017222 0.39767012532295415 -0.12358815793394826
0.42718841251906164 0.06937721654756161 -0.12288879083165428
0.5634051421287182 0.25722722022372124 -0.12288879083165428
0.4907508911589792 0.5975392521999658 -0.12288879083165428
0.35101734412064445 0.23213992316857623 -0.12288879083165428
0.5871936145653173 0.4492934084308532 -0.12288879083165428
0.33561128595296874 0.48426176354555156 -0.12288879083165428
0.5783016614075797 0.2642408731638693 -0.12288879083165428
0.3853163050088615 0.5757889353186235 -0.12288879083165428
0.37227810403038103 0.07330366327901204 -0.12288879083165428
0.4819288747114709 0.06841808452155843 -0.12288879083165428
0.36171766078574213 0.2649302493075591 -0.12288879083165428
0.43113484116772055 0.10776247950489623 -0.12288879083165428
0.4924393631630889 0.11365714508137384 -0.12288879083165428
0.44421300598061775 0.6259735203875177 -0.12158996621310836
0.38036078954117847 0.20787188471897555 -0.12158996621310836
0.5508065433288226 0.21344683962011882 -0.12158996621310836
0.42729831306370797 0.06830818397691227 -0.12089059911081439
0.5675813628252736 0.23635610769954843 -0.12089059911081439
0.41044356589842335 0.5880078776915594 -0.12089059911081439
0.35171671122293846 0.2521518132527879 -0.12089059911081439
0.5608674386432515 0.2521518132527879 -0.12089059911081439
0.4287370111027126 0.6051923264907826 -0.12089059911081439
0.5289563168614382 0.2521518132527879 -0.12089059911081439
0.5607875109744178 0.5407306615764872 -0.12089059911081439
0.322902786608427 0.40019783784981666 -0.12089059911081439
0.3357411684148234 0.37302243044639394 -0.12089059911081439
0.4481194707948597 0.09993955891780798 -0.12089059911081439
0.490840809786417 0.1279542068439835 -0.12089059911081439
0.4372892716679075 0.15726767938870492 -0.12089059911081439
0.43105491349888686 0.6476938643930477 -0.11959177449226843
0.4968453759075409 0.04238164639901434 -0.11959177449226843
0.6021201067199914 0.3581958478777617 -0.11959177449226843
0.4934284680649047 0.06926731600291532 -0.11889240738997447
0.5507465975771973 0.5431284916414952 -0.11889240738997447
0.3421553638387194 0.2786778083469377 -0.11889240738997447
0.5650136864639943 0.22923255421475422 -0.11889240738997447
0.4282874179655236 0.6058916935930768 -0.11889240738997447
0.5290362445302718 0.25310095432018687 -0.11889240738997447
0.565093614132828 0.5353055710544071 -0.11889240738997447
0.32208352800288254 0.4001778559326083 -0.11889240738997447
0.5374786045508203 0.2649302493075591 -0.11889240738997447
0.43127471458817934 0.13741564464216036 -0.11889240738997447
0.4644147242783091 0.0950639711189586 -0.11889240738997447
0.4876536939916773 0.14839570814817568 -0.11889240738997447
0.44421300598061775 0.6345357719113168 -0.11759358277142853
0.3576313587166246 0.20787188471897555 -0.11759358277142853
0.4780324008558331 0.07455253310453698 -0.11759358277142853
0.6021201067199914 0.39767012532295415 -0.11759358277142853
0.4913303667580227 0.06869783136247593 -0.11689421566913456
0.48550563789177437 0.6037336465345696 -0.11689421566913456
0.34846964967657357 0.2232279880936303 -0.11689421566913456
0.5704088041102621 0.2172633858069231 -0.11689421566913456
0.37620455076183146 0.5643692696340235 -0.11689421566913456
0.5572307297113229 0.2575069670646389 -0.11689421566913456
0.5191851593465311 0.5895564762752104 -0.11689421566913456
0.42244270718206695 0.060195525590302126 -0.11689421566913456
0.3342425246241934 0.3715237866557639 -0.11689421566913456
0.4537843443234409 0.09895045401599219 -0.11689421566913456
0.48960193091949616 0.13427848364044176 -0.11689421566913456
0.4370494886614067 0.15660827612082773 -0.11689421566913456
0.48368728342581 0.6370634844381794 -0.11559539105058864
0.557340630255969 0.2002887471383881 -0.11559539105058864
0.4258795969419115 0.052672333761339875 -0.11559539105058864
0.31262209020470555 0.4371543937267507 -0.11559539105058864
0.49317869409979964 0.06382224356362655 -0.11489602394829466
0.4612276084835696 0.6161723899967981 -0.11489602394829466
0.3520164399810643 0.22195913635089687 -0.11489602394829466
0.5705286956135125 0.2149155105349362 -0.11489602394829466
0.38567597951861254 0.5753193602642261 -0.11489602394829466
0.5299753946390666 0.2554288476749654 -0.11489602394829466
0.5664723664202074 0.5361647934943681 -0.11489602394829466
0.32026517353691825 0.40353481802361935 -0.11489602394829466
0.5551925741560663 0.2649302493075591 -0.11489602394829466
0.4312347507537625 0.13600691947896829 -0.11489602394829466
0.4643347966094756 0.09550357329754336 -0.11489602394829466
0.48728402852332187 0.14813594322446652 -0.11489602394829466
0.4705291909440793 0.6345357719113168 -0.11359719932974871
0.3576313587166246 0.20787188471897555 -0.11359719932974871
0.5508065433288226 0.2397630245835804 -0.11359719932974871
0.5810791478995472 0.31764254690331584 -0.11289783222745474
0.35594288671251473 0.5328877590721907 -0.11289783222745474
0.39155066317788195 0.2550691731652142 -0.11289783222745474
0.5522152684920147 0.07394308462968074 -0.11289783222745474
0.39047163964862835 0.5808543513309528 -0.11289783222745474
0.37225812211317266 0.06867784944526757 -0.11289783222745474
0.48587530336012985 0.06348255097108385 -0.11289783222745474
0.4059176616507209 0.5984284475157396 -0.11289783222745474
0.35219627723593994 0.21400633330195412 -0.11289783222745474
0.5854751696853949 0.39832952859083137 -0.11289783222745474
0.4566017946498251 0.15501971370275994 -0.11289783222745474
0.4230321737397147 0.1191022175206626 -0.11289783222745474
0.46767177678327826 0.1041157796143633 -0.11289783222745474
0.6021201067199914 0.345037755396031 -0.11089964050661484
0.3661836192818193 0.21186826816065543 -0.11089964050661484
0.4218732225416275 0.06547075173331954 -0.11089964050661484
0.47908145150927406 0.610107878124049 -0.11089964050661484
0.35155685588527125 0.2249863968079693 -0.11089964050661484
0.5492379628279633 0.07438268680826549 -0.11089964050661484
0.4515263876788918 0.621277769843544 -0.11089964050661484
0.35575305849903505 0.14974448755974265 -0.11089964050661484
0.5541934782956462 0.05774774073227334 -0.11089964050661484
0.3669429321357384 0.5632203093945404 -0.11089964050661484
0.3822790535931848 0.25404010442898156 -0.11089964050661484
0.5863443830839602 0.39919874198939675 -0.11089964050661484
0.4674919395284026 0.15316139540237889 -0.11089964050661484
0.42276241785740126 0.13239019246424796 -0.11089964050661484
0.45877982362554065 0.10238734377583676 -0.11089964050661484
0.5893316797066159 0.4444078296733996 -0.10890144878577494
0.3264895407473346 0.4411507771684306 -0.10890144878577494
0.5650736322156195 0.23941334103243345 -0.10890144878577494
0.5591190208875166 0.5448968913144384 -0.10890144878577494
0.32700907059475287 0.33869349668236426 -0.10890144878577494
0.5646540119542431 0.21339688482709787 -0.10890144878577494
0.48757376632284377 0.6152332398880034 -0.10890144878577494
0.4307951485751777 0.06658973909698984 -0.10890144878577494
0.5026401318979766 0.22496641489076094 -0.10890144878577494
0.43926748147153893 0.10688327514772658 -0.10890144878577494
0.4889625095688275 0.12176980346798398 -0.10890144878577494
0.44925844007573845 0.1613939452922393 -0.10890144878577494
0.43105491349888686 0.6476938643930477 -0.10795230771837598
0.3714388635076282 0.2002887471383881 -0.10795230771837598
0.6152781992017222 0.3845120328412233 -0.10795230771837598
0.578271688531767 0.49952794829276836 -0.10690325706493503
0.32555039063853985 0.39009697870097093 -0.10690325706493503
0.543722953678445 0.06943716229918681 -0.10690325706493503
0.44949822308223925 0.6222768657039639 -0.10690325706493503
0.3663434746194866 0.07432274105664029 -0.10690325706493503
0.4922595259082133 0.0561791602314139 -0.10690325706493503
0.37750337538037737 0.5769978413097318 -0.10690325706493503
0.3822790535931848 0.25404010442898156 -0.10690325706493503
0.5633052325426763 0.5257841875046049 -0.10690325706493503
0.44864899160088234 0.10139823887402111 -0.10690325706493503
0.488742708479535 0.12882342024254875 -0.10690325706493503
0.4367397689446764 0.15511962328880197 -0.10690325706493503
0.48368728342581 0.6476938643930477 -0.10512486643338752
0.3586704184114613 0.2002887471383881 -0.10512486643338752
0.48319772645420433 0.04238164639901434 -0.10512486643338752
0.6152781992017222 0.4371543937267507 -0.10512486643338752
0.5466902683838923 0.0634126142608544 -0.10490506534409512
0.5613669865734615 0.5366843233417864 -0.10490506534409512
0.3381389984798312 0.2642208912466609 -0.10490506534409512
0.48959193996089206 0.06746894345415948 -0.10490506534409512
0.4444128251527017 0.6210979325886684 -0.10490506534409512
0.36807191045801313 0.07209475728790381 -0.10490506534409512
0.48591526719454653 0.06012558888007282 -0.10490506534409512
0.38820369204547506 0.587977904815747 -0.10490506534409512
0.3599792339886115 0.2521518132527879 -0.10490506534409512
0.3420754361698859 0.5036642051549072 -0.10490506534409512
0.4395372373538523 0.10723295869887353 -0.10490506534409512
0.48790346795678236 0.12378797710603227 -0.10490506534409512
0.4534846155653149 0.16174362884338625 -0.10490506534409512
0.423052155656923 0.06252341894508066 -0.10290687362325521
0.5073059095661377 0.5954311599344799 -0.10290687362325521
0.3572117384552482 0.2606840919007743 -0.10290687362325521
0.5547429810188772 0.06685949497930324 -0.10290687362325521
0.4106433850705073 0.6015256446830415 -0.10290687362325521
0.367272633769677 0.0728141063074062 -0.10290687362325521
0.48512598146481484 0.06619010075282193 -0.10290687362325521
0.39554704661956186 0.5950115396731035 -0.10290687362325521
0.3599792339886115 0.2521518132527879 -0.10290687362325521
0.35134704575458303 0.5258641151734383 -0.10290687362325521
0.4333428430192486 0.11785334769513767 -0.10290687362325521
0.4865546885452154 0.11702409813098912 -0.10290687362325521
0.4535645432341484 0.16153381871269804 -0.10290687362325521
0.48368728342581 0.6476938643930477 -0.10230741610700325
0.3586704184114613 0.2002887471383881 -0.10230741610700325
0.4780324008558331 0.04238164639901434 -0.10230741610700325
0.6073853419044046 0.4371543937267507 -0.10230741610700325
0.5458110640267229 0.0657904624086539 -0.10090868190241531
0.451136740293328 0.6209480682096056 -0.10090868190241531
0.39155066317788195 0.2550691731652142 -0.10090868190241531
0.5873234970271719 0.490885769100136 -0.10090868190241531
0.31872656591187154 0.39590172565001075 -0.10090868190241531
0.5658329450695387 0.21737328635156924 -0.10090868190241531
0.4926591642523813 0.6153930952256705 -0.10090868190241531
0.43034555543798875 0.06840809356295417 -0.10090868190241531
0.5059071753615498 0.593492913965265 -0.10090868190241531
0.5854551877681865 0.3405518149827454 -0.10090868190241531
0.4296361973770906 0.12227934235679803 -0.10090868190241531
0.4847563159964594 0.10527473081245045 -0.10090868190241531
0.4711286484603313 0.6345357719113168 -0.10040913397220533
0.3662335740748403 0.21027970574258764 -0.10040913397220533
0.46770174965909084 0.05317188169154997 -0.10040913397220533
0.6152781992017222 0.3434491929779632 -0.10040913397220533
0.35142697342341656 0.14981442426997196 -0.09891049018157541
0.548928243111233 0.5577652459966476 -0.09891049018157541
0.34420351035258034 0.21694367513158874 -0.09891049018157541
0.5791309109717283 0.2239573280717368 -0.09891049018157541
0.3493588449923473 0.5391820629928363 -0.09891049018157541
0.5290062716544591 0.21794277099200865 -0.09891049018157541
0.5955360649998239 0.47719815581238256 -0.09891049018157541
0.3142805893330028 0.41943043316290074 -0.09891049018157541
0.571657673935787 0.22131971500022815 -0.09891049018157541
0.5778720501875991 0.4994280387067265 -0.09891049018157541
0.48159917307753247 0.1205109426838548 -0.09891049018157541
0.4495281959580519 0.1603149217629857 -0.09891049018157541
0.4382883675283274 0.11582518309848527 -0.09891049018157541
0.45220577286397734 0.04915551633266174 -0.09841094225136542
0.29946399772297483 0.345037755396031 -0.09741184639094547
0.4968453759075409 0.04238164639901434 -0.09741184639094547
0.6152781992017222 0.4371543937267507 -0.09741184639094547
0.5690400427814868 0.21139869310625792 -0.09691229846073549
0.5565413535676331 0.2140762700121834 -0.09691229846073549
0.4233319024978407 0.0650311495547348 -0.09691229846073549
0.5711281531297645 0.5245053448032673 -0.09691229846073549
0.3365804089375762 0.2503434497454278 -0.09691229846073549
0.5805496270935246 0.5136451728005025 -0.09691229846073549
0.3174776960863466 0.38931768392984334 -0.09691229846073549
0.49333854943746686 0.6164721187549241 -0.09691229846073549
0.47984076436319334 0.05525999203982756 -0.09691229846073549
0.5893216887480117 0.3627017702082558 -0.09691229846073549
0.4790914424678783 0.14194154888986277 -0.09691229846073549
0.4279177524971683 0.13924399006672894 -0.09691229846073549
0.4581204203576635 0.1039359423594877 -0.09691229846073549
0.36320631361776784 0.2579066054088068 -0.09491410673989559
0.3526758432489415 0.2140762700121834 -0.09491410673989559
0.5698493104284269 0.1813059257904089 -0.09491410673989559
0.5581498979029093 0.2608339562798373 -0.09491410673989559
0.46901056523624096 0.6216174624360867 -0.09491410673989559
0.35349510185448596 0.22190918155787592 -0.09491410673989559
0.48344750041930923 0.6184203556827429 -0.09491410673989559
0.5940274302505897 0.2968213891721641 -0.09491410673989559
0.3424750745140538 0.5374935909887267 -0.09491410673989559
0.5862145006221059 0.3242665524579002 -0.09491410673989559
0.3504378685216009 0.2245368036707803 -0.09491410673989559
0.4535545522755443 0.0974218373495496 -0.09491410673989559
0.48588529431873395 0.14495881838833108 -0.09491410673989559
0.609103786784327 0.4371543937267507 -0.0944145588096856
0.3915806360536946 0.2002887471383881 -0.0944145588096856
0.44048637842125127 0.6345357719113168 -0.0944145588096856
0.544821959124907 0.0651310591407767 -0.09291591501905568
0.36658325762598737 0.0743527139324529 -0.09291591501905568
0.37227810403038103 0.07330366327901204 -0.09291591501905568
0.5453115160965128 0.058896700971756234 -0.09291591501905568
0.4254300038047227 0.6100978871654448 -0.09291591501905568
0.5996323580275457 0.42280737717112027 -0.09291591501905568
0.3209845225564206 0.4684860399095204 -0.09291591501905568
0.4856055474778164 0.6222768657039639 -0.09291591501905568
0.368671367974265 0.06220370826974631 -0.09291591501905568
0.3292070814876769 0.4732017723707027 -0.09291591501905568
0.4790215057576489 0.13919403527370797 -0.09291591501905568
0.4325735392067252 0.12236926098423584 -0.09291591501905568
0.4829779253649119 0.10507491164036649 -0.09291591501905568
0.43997683953243705 0.13801510215841234 -0.09291591501905568
0.48368728342581 0.6370634844381794 -0.09148720793865514
0.547069924810852 0.06606021829096728 -0.09091772329821576
0.3661036916129858 0.06903752395501878 -0.09091772329821576
0.3711391347495023 0.07389312983665978 -0.09091772329821576
0.48065003201013334 0.05863693604804708 -0.09091772329821576
0.4523056824500194 0.624484867555492 -0.09091772329821576
0.5982036509471452 0.3549387953727927 -0.09091772329821576
0.3430945139475143 0.5329377138652116 -0.09091772329821576
0.5596585326521433 0.5604727957783855 -0.09091772329821576
0.3334032841014406 0.19632233657252082 -0.09091772329821576
0.5275775645740586 0.24580755453912118 -0.09091772329821576
0.5926187050873977 0.43420706093851186 -0.09091772329821576
0.4712785128393943 0.10527473081245045 -0.09091772329821576
0.4694301854976174 0.15846659442120875 -0.09091772329821576
0.46822127950650916 0.13093151250803484 -0.09091772329821576
0.45428389225365085 0.11678431512448832 -0.09091772329821576
0.5677911729559618 0.17384267971307185 -0.08891953157737587
0.40619740849163843 0.5985383480603857 -0.08891953157737587
0.5639946086863661 0.17428228189165676 -0.08891953157737587
0.3661936102404236 0.5670968013329699 -0.08891953157737587
0.6041582622752482 0.4347365817445344 -0.08891953157737587
0.3144404446706699 0.4591245116973855 -0.08891953157737587
0.322303329092175 0.38458196955145274 -0.08891953157737587
0.3801309974932819 0.5718924614629856 -0.08891953157737587
0.5579800516066379 0.2605642003975239 -0.08891953157737587
0.47815229235908346 0.13611682002361444 -0.08891953157737587
0.4407061795105437 0.15539937012971963 -0.08891953157737587
0.4507770657835768 0.14813594322446652 -0.08891953157737587
0.4503574455222004 0.11504588832735768 -0.08891953157737587
0.45725120695909804 0.6403105459845442 -0.08854986610902048
0.5805096632591078 0.22675479648091268 -0.08692133985653595
0.33235423344799975 0.5016859953512756 -0.08692133985653595
0.5304050058590472 0.5877680946850586 -0.08692133985653595
0.352545960787087 0.2140762700121834 -0.08692133985653595
0.3905915311518788 0.5969397946837138 -0.08692133985653595
0.5181161267758816 0.5890069735519796 -0.08692133985653595
0.5301552318939422 0.2597449417919795 -0.08692133985653595
0.3333133654740028 0.46909548838437665 -0.08692133985653595
0.5761935691420935 0.22021071859516197 -0.08692133985653595
0.4814093448640526 0.1367062865812622 -0.08692133985653595
0.4313846151328255 0.1424311058614686 -0.08692133985653595
0.4463710530391248 0.12921306762811255 -0.08692133985653595
0.30377010088138484 0.3713539403594926 -0.08562251523799003
0.6152781992017222 0.3581958478777617 -0.08562251523799003
0.5949465984421762 0.3375944912359023 -0.08492314813569606
0.33352317560469097 0.5062718453506032 -0.08492314813569606
0.5539237224133328 0.5638797126624177 -0.08492314813569606
0.3366603366064097 0.22230881990204382 -0.08492314813569606
0.44888877460738313 0.6333568387960212 -0.08492314813569606
0.561896507379484 0.2576468404850976 -0.08492314813569606
0.588422502473634 0.4760891594073162 -0.08492314813569606
0.5366693369038803 0.2563180429907391 -0.08492314813569606
0.3618375522889925 0.22897278929104492 -0.08492314813569606
0.4627662161086163 0.10698318473376862 -0.08492314813569606
0.45788063735116263 0.09832102362392758 -0.08492314813569606
0.45329478735183504 0.1593457987783784 -0.08492314813569606
0.4698997605520147 0.12251912536329884 -0.08492314813569606
0.5957558660891162 0.3374146539810267 -0.08292495641485613
0.3266593870436059 0.48671953936218476 -0.08292495641485613
0.554283396923084 0.5641494685447311 -0.08292495641485613
0.33337331122562797 0.21977111641657723 -0.08292495641485613
0.4488787836487789 0.6338563867262311 -0.08292495641485613
0.5887522041075725 0.47641886104125497 -0.08292495641485613
0.32090459488758705 0.4067019519011505 -0.08292495641485613
0.4477997601195253 0.14937482209138722 -0.08292495641485613
0.45476345826665243 0.15551926163297003 -0.08292495641485613
0.43175428060118093 0.11620483952544482 -0.08292495641485613
0.3045993504455334 0.345037755396031 -0.08262522765673015
0.6126705590060262 0.3845120328412233 -0.08262522765673015
0.5978040126029772 0.439772024881051 -0.08092676469401623
0.31895635795976807 0.44700547891049147 -0.08092676469401623
0.5129707830947189 0.603603764072715 -0.08092676469401623
0.5831272944134082 0.22107993199372736 -0.08092676469401623
0.34884930610353315 0.5540486093958852 -0.08092676469401623
0.4869243540135707 0.22497640584936518 -0.08092676469401623
0.32361214466932514 0.33088056705388025 -0.08092676469401623
0.4510767945417028 0.1544302471451122 -0.08092676469401623
0.448678964476695 0.15788711882216527 -0.08092676469401623
0.47225762678260585 0.1401731492169195 -0.08092676469401623
0.30261114968329766 0.41082821780468487 -0.07962794007547028
0.6107023401609989 0.33187966291430027 -0.07962794007547028
0.5069562260149908 0.6035937731141108 -0.07892857297317633
0.5879229545434239 0.2898776729422453 -0.07892857297317633
0.35855052690821093 0.5613719820527635 -0.07892857297317633
0.5965851156532648 0.4935133912130402 -0.07892857297317633
0.30911526373463155 0.35621763807413026 -0.07892857297317633
0.32382195480001336 0.32916212217395796 -0.07892857297317633
0.3960765674255844 0.5895564762752104 -0.07892857297317633
0.47868181316510616 0.14134209137361076 -0.07892857297317633
0.45584248179590603 0.15874634126212642 -0.07892857297317633
0.4705092090268708 0.1426109431163442 -0.07892857297317633
0.5845160376593918 0.5060620352199149 -0.07693038125233641
0.3217138625345273 0.31213752871240186 -0.07693038125233641
0.49010147884970623 0.6195393430464132 -0.07693038125233641
0.5829674390757408 0.2201907366779536 -0.07693038125233641
0.36452512015352223 0.5750496043819127 -0.07693038125233641
0.567201706398314 0.23045145116446655 -0.07693038125233641
0.46352552896253535 0.14964457797370062 -0.07693038125233641
0.44647096262516683 0.12254909823911143 -0.07693038125233641
0.44470256295222343 0.13328937873862598 -0.07693038125233641
0.30233140284238 0.42398631028641576 -0.07663065249421043
0.6107023401609989 0.33187966291430027 -0.07663065249421043
0.5032695622900413 0.6069906990395386 -0.07493218953149651
0.5916196092269778 0.31719295376612683 -0.07493218953149651
0.35194650327083504 0.5536689529689258 -0.07493218953149651
0.5842462817770785 0.527392731839881 -0.07493218953149651
0.3139608786576683 0.31678332446335467 -0.07493218953149651
0.5617266610832127 0.22497640584936518 -0.07493218953149651
0.4758543718801177 0.10939100575738071 -0.07493218953149651
0.46142742765565353 0.15734760705753847 -0.07493218953149651
0.29946399772297483 0.345037755396031 -0.07363336491295057
0.6145088953891988 0.3845120328412233 -0.07363336491295057
0.5684405852652348 0.5406906977420705 -0.0729339978106566
0.32374202713117967 0.33073070267481725 -0.0729339978106566
0.47249740978910665 0.6299499219119892 -0.0729339978106566
0.5819383703395083 0.21777292469573728 -0.0729339978106566
0.38044071721001216 0.5919543063402184 -0.0729339978106566
0.3777931131798993 0.5742303457763683 -0.0729339978106566
0.567201706398314 0.23045145116446655 -0.0729339978106566
0.4739560897453198 0.10818209976627262 -0.0729339978106566
0.4702894079375785 0.1538907353804854 -0.0729339978106566
0.5808893196860674 0.517681520076599 -0.0709358060898167
0.3232524701595739 0.33940285474326254 -0.0709358060898167
0.47397607166252814 0.6295602745264255 -0.0709358060898167
0.5980837594438948 0.32343730289375155 -0.0709358060898167
0.35584297712647284 0.5664373980650927 -0.0709358060898167
0.5971546002937044 0.4296711657322053 -0.0709358060898167
0.45547281632755054 0.1476164133770481 -0.0709358060898167
0.47638389268614023 0.13929394485974989 -0.0709358060898167
0.44849912722181934 0.15407057263536098 -0.0709358060898167
0.43105491349888686 0.6353650214754654 -0.07063607733169071
0.5939475025817563 0.348844310624231 -0.06893761436897679
0.34848963159378193 0.5431984283517246 -0.06893761436897679
0.5848357483347263 0.5193999649565213 -0.06893761436897679
0.313591213189313 0.3502929996218399 -0.06893761436897679
0.5203041467102014 0.6056818834623885 -0.06893761436897679
0.33706996590918187 0.2151253206656244 -0.06893761436897679
0.3200054086132091 0.3572866706447796 -0.06893761436897679
0.44234469672163246 0.1212902374549824 -0.06893761436897679
0.4745655382201759 0.10594412503893189 -0.06893761436897679
0.29946399772297483 0.41082821780468487 -0.06763878975043085
0.6117913546488567 0.33187966291430027 -0.06763878975043085
0.5625359287301529 0.551420987282981 -0.06693942264813688
0.3250508427083298 0.32711397566009703 -0.06693942264813688
0.46204686708911386 0.6341261426085446 -0.06693942264813688
0.5987031988773552 0.32531560311134106 -0.06693942264813688
0.3632163045763721 0.57601872736652 -0.06693942264813688
0.4264091177479342 0.6132949939187885 -0.06693942264813688
0.4411257997719201 0.12193964976425534 -0.06693942264813688
0.4404663965040429 0.12448734420832618 -0.06693942264813688
0.47433574617227936 0.10756266033281213 -0.06693942264813688
0.29946399772297483 0.3581958478777617 -0.06564059802959095
0.6152781992017222 0.3713539403594926 -0.06564059802959095
0.5891618334103446 0.49850887051514 -0.06494123092729698
0.31475016438740017 0.4194104512456924 -0.06494123092729698
0.514379508257911 0.6058817026344725 -0.06494123092729698
0.5745350700137964 0.2140762700121834 -0.06494123092729698
0.4284372823445866 0.6274322003437308 -0.06494123092729698
0.4853158096782947 0.616322254375861 -0.06494123092729698
0.3824389089308519 0.5695845500254155 -0.06494123092729698
0.4736563609871938 0.13708594300822188 -0.06494123092729698
0.4536944256960031 0.13464814910879705 -0.06494123092729698
0.30616793094639266 0.3491340484237528 -0.06364240630875102
0.6152781992017222 0.4371543937267507 -0.06364240630875102
0.6016105678311773 0.3866301160653136 -0.06294303920645705
0.32346228029026214 0.4876287165951667 -0.06294303920645705
0.5424441109771075 0.5822630764941448 -0.06294303920645705
0.33320346492935665 0.21984105312680652 -0.06294303920645705
0.45388425390948295 0.6385521372702049 -0.06294303920645705
0.5835768875505971 0.5058821979650392 -0.06294303920645705
0.3767840263608751 0.5752394325953925 -0.06294303920645705
0.44220482330117356 0.12972260651692674 -0.06294303920645705
0.4534046878964813 0.13751555422820239 -0.06294303920645705
0.3065375964147481 0.34583703208436695 -0.061644214587911125
0.4893121931199744 0.6345357719113168 -0.061644214587911125
0.4705291909440793 0.04238164639901434 -0.061644214587911125
0.4503274726463878 0.6299099580775724 -0.060944847485617154
0.6012309114042176 0.3778580544108264 -0.060944847485617154
0.32755857331798394 0.5129857695326252 -0.060944847485617154
0.591080097462351 0.517171981187785 -0.060944847485617154
0.3071470448896042 0.3789670508158926 -0.060944847485617154
0.3245912586125367 0.36187252064410724 -0.060944847485617154
0.443773403802033 0.12516672939341172 -0.060944847485617154
0.4641349774373916 0.13368901708279401 -0.060944847485617154
0.3051888170031811 0.35551827097183636 -0.059646022867071206
0.4968453759075409 0.6345357719113168 -0.059646022867071206
0.5752744009505072 0.2222388831918145 -0.058946655764777256
0.3867749849650746 0.589636403944044 -0.058946655764777256
0.6040583526892063 0.451691238495861 -0.058946655764777256
0.31230237952937123 0.4534596381688044 -0.058946655764777256
0.5822880538906554 0.5361248296599513 -0.058946655764777256
0.3112333469587219 0.38154471813577606 -0.058946655764777256
0.5730963719747917 0.22931248188358777 -0.058946655764777256
0.4646744892020184 0.14353011130793056 -0.058946655764777256
0.46037837700221257 0.0884399655643742 -0.058946655764777256
0.6109421231674996 0.36956555876934083 -0.05764783114623131
0.30340043541302936 0.3567471588801528 -0.05764783114623131
0.5920592114055624 0.4921146570084524 -0.05694846404393734
0.3138809509888348 0.4194204422042965 -0.05694846404393734
0.5296556839637321 0.5949116300870614 -0.05694846404393734
0.33493190076788315 0.2166639282906711 -0.05694846404393734
0.45560269878940524 0.6393713958757494 -0.05694846404393734
0.45639198451913693 0.6284612690799635 -0.05694846404393734
0.45775075488930816 0.13792518353097455 -0.05694846404393734
0.45993877482362777 0.08349444105529552 -0.05694846404393734
0.6123508483306916 0.375080567918859 -0.05564963942539141
0.30901535414858966 0.345037755396031 -0.05564963942539141
0.5960056400542213 0.4774079659430706 -0.05495027232309744
0.31409076111952294 0.3938335972189415 -0.05495027232309744
0.47256734649933596 0.6323477519769971 -0.05495027232309744
0.5818884155464874 0.21770298798550783 -0.05495027232309744
0.3633361960796225 0.5780369010045684 -0.05495027232309744
0.5730863810161876 0.229322472842192 -0.05495027232309744
0.4482793261325269 0.12460723571157657 -0.05495027232309744
0.3049090701622636 0.368426589488462 -0.05365144770455149
0.4672321746046935 0.6451561609075808 -0.05365144770455149
0.4705291909440793 0.04238164639901434 -0.05365144770455149
0.3922100664457592 0.5948416933768319 -0.05295208060225752
0.6050674395082304 0.44639603043563525 -0.05295208060225752
0.3098446037127382 0.42796271181088713 -0.05295208060225752
0.5621163084687765 0.5674265029669083 -0.05295208060225752
0.32050495654341904 0.31940095561765497 -0.05295208060225752
0.5117418951864025 0.2495241911398834 -0.05295208060225752
0.4119621916062616 0.2384342270892219 -0.05295208060225752
0.45718127024886873 0.12490696446970256 -0.05295208060225752
0.3017319453261282 0.376329437744384 -0.051653255983711586
0.4968453759075409 0.6310789002342637 -0.051653255983711586
0.34124618660573736 0.22191917251648016 -0.05095388888141762
0.3963563142665019 0.5983585108055102 -0.05095388888141762
0.6057168518175033 0.4405513196521786 -0.05095388888141762
0.3186266563258295 0.4889575140895253 -0.05095388888141762
0.5848457392933305 0.5325380755210437 -0.05095388888141762
0.3088455078523181 0.4003576931874839 -0.05095388888141762
0.4330231323439142 0.22496641489076094 -0.05095388888141762
0.3246212314883493 0.3618925025613156 -0.05095388888141762
0.5176365607628802 0.33289874069192854 -0.05095388888141762
0.48202878429751295 0.2232080061764218 -0.05095388888141762
0.3274386818147335 0.3358161006043548 -0.05095388888141762
0.45799053789580896 0.08396401610969288 -0.05095388888141762
0.41789682101715614 0.6329472094932491 -0.049655064262871675
0.4705291909440793 0.06869783136247593 -0.049655064262871675
0.5202541919171805 0.5982286283436558 -0.04895569716057772
0.573056408140375 0.21794277099200865 -0.04895569716057772
0.43004582667986274 0.6255339182089329 -0.04895569716057772
0.6045479096608118 0.3869298448234396 -0.04895569716057772
0.36239704597082767 0.577617280743192 -0.04895569716057772
0.3902618295179402 0.22497640584936518 -0.04895569716057772
0.4912604300477934 0.22496641489076094 -0.04895569716057772
0.5741753955040453 0.23742514027019776 -0.04895569716057772
0.5800500791633146 0.3158042105201431 -0.04895569716057772
0.5624560010613192 0.32747365016984825 -0.04895569716057772
0.3024912581800473 0.3948326930793614 -0.04765687254203177
0.6105824486577485 0.3845120328412233 -0.04765687254203177
0.5952862910347189 0.48250335483121226 -0.0469575054397378
0.31488004684925464 0.4480045747709114 -0.0469575054397378
0.5580300063996588 0.5668370364092606 -0.0469575054397378
0.32160396198988095 0.3247960732639228 -0.0469575054397378
0.50952390237627 0.6158227064456512 -0.0469575054397378
0.361607760241096 0.21408626097078767 -0.0469575054397378
0.423651613173175 0.3238169593207112 -0.0469575054397378
0.43700952482698985 0.22496641489076094 -0.0469575054397378
0.5759737680528013 0.25172220203280726 -0.0469575054397378
0.32320251536655287 0.4792063384918266 -0.0469575054397378
0.30772652048864785 0.3581958478777617 -0.04565868082119187
0.47789252743537436 0.6476938643930477 -0.04565868082119187
0.3409164849717987 0.2222788470262312 -0.0449593137188979
0.43152448855328435 0.6219171911942127 -0.0449593137188979
0.6010410831907378 0.39256474547620823 -0.0449593137188979
0.3421553638387194 0.5443473885912077 -0.0449593137188979
0.6087041484401587 0.4522507321776962 -0.0449593137188979
0.3126620540391224 0.48218364415587806 -0.0449593137188979
0.3958767482535003 0.22497640584936518 -0.0449593137188979
0.3519365123122308 0.3246362179262555 -0.0449593137188979
0.4467107456316676 0.6265230231107488 -0.0449593137188979
0.5131006655565735 0.2901973836175797 -0.0449593137188979
0.46722218364608925 0.224766595718677 -0.0449593137188979
0.5189453763400304 0.283353576973703 -0.0449593137188979
0.5761835781834894 0.2530210266513533 -0.0449593137188979
0.45686155957353425 0.07739995630673381 -0.0449593137188979
0.29946399772297483 0.43179923991489977 -0.04366048910035195
0.6056768879830864 0.33187966291430027 -0.04366048910035195
0.4569814510767847 0.06805841001180722 -0.04296112199805798
0.431254732670971 0.2656995531200824 -0.04296112199805798
0.4377588467223048 0.23315900094620465 -0.04296112199805798
0.48949203037485 0.23169033003138725 -0.04296112199805798
0.5910501245865383 0.3272538490805558 -0.04296112199805798
0.36808190141661723 0.5724419641862166 -0.04296112199805798
0.49575636141968304 0.30152713067474196 -0.04296112199805798
0.5227319496510219 0.6015156537244373 -0.04296112199805798
0.3381389984798312 0.21897183972824127 -0.04296112199805798
0.6051273852598555 0.39596167140163596 -0.04296112199805798
0.33865852832724963 0.5461357701813592 -0.04296112199805798
0.5479491291680215 0.224766595718677 -0.04296112199805798
0.5472497620657276 0.32152902980034953 -0.04296112199805798
0.45163628822353796 0.628431296204151 -0.04296112199805798
0.4113727250486138 0.2247765866772811 -0.04296112199805798
0.3417057707015304 0.23744512218740613 -0.04296112199805798
0.33630066209665854 0.3195108561623011 -0.04296112199805798
0.4968453759075409 0.6345357719113168 -0.041662297379512055
0.59103014266933 0.32711397566009703 -0.04096293027721808
0.3385086639481866 0.5300703087458065 -0.04096293027721808
0.6004715985502985 0.478427043720699 -0.04096293027721808
0.3100144500090095 0.43951225995734183 -0.04096293027721808
0.5750246269854024 0.5502220722504769 -0.04096293027721808
0.3128818551284149 0.3698852694446752 -0.04096293027721808
0.5949765713179886 0.41464476399148914 -0.04096293027721808
0.4581603841920803 0.07418286763618154 -0.04096293027721808
0.43105491349888686 0.6377928244162857 -0.03966410565867215
0.4579206011855795 0.05466053452357571 -0.03966410565867215
0.4696399956283056 0.6299898857464059 -0.03896473855637818
0.44700048343118937 0.3174327367726276 -0.03896473855637818
0.40517833071401016 0.610267733461716 -0.03896473855637818
0.597194564128121 0.3217188580138292 -0.03896473855637818
0.3556431579543888 0.5701340527486466 -0.03896473855637818
0.5718375111906626 0.5343164661525912 -0.03896473855637818
0.4466408089214382 0.3265045271852408 -0.03896473855637818
0.46770174965909084 0.06752888920578468 -0.03766591393783225
0.4005425259216616 0.30986958110924867 -0.03766591393783225
0.29946399772297483 0.4355658313086831 -0.03766591393783225
0.5434731797133402 0.5775473440329625 -0.03696654683553828
0.31981558039972924 0.38129494417067117 -0.03696654683553828
0.5267682969271185 0.5983685017641144 -0.03696654683553828
0.32113438693548363 0.3263446718475737 -0.03696654683553828
0.5432733605412561 0.5888371272557079 -0.03696654683553828
0.3106338894424699 0.40271555941807485 -0.03696654683553828
0.5397065883195569 0.5769878503511275 -0.03696654683553828
0.45584248179590603 0.06421189094919035 -0.03696654683553828
0.45794058310278785 0.04935533550474569 -0.03566772221699232
0.4470404472656062 0.3073718414581988 -0.03566772221699232
0.30772652048864785 0.3581958478777617 -0.03566772221699232
0.4968453759075409 0.6345357719113168 -0.03566772221699232
0.32710898018079493 0.5039139791200119 -0.03496835511469835
0.5853153143477279 0.523546212777264 -0.03496835511469835
0.3141606978297524 0.41998992684473585 -0.03496835511469835
0.5399963261190788 0.5919343244230099 -0.03496835511469835
0.32214347375450775 0.31924110027998787 -0.03496835511469835
0.4499278343022199 0.32445638067137994 -0.03496835511469835
0.4596390460655018 0.06677956731046969 -0.03496835511469835
0.29946399772297483 0.3581958478777617 -0.033669530496152414
0.5979938408164571 0.4710537162707997 -0.03297016339385844
0.33000635817601287 0.511567053410829 -0.03297016339385844
0.5928784700111069 0.5050029936078697 -0.03297016339385844
0.3183069456504951 0.4891173694271924 -0.03297016339385844
0.5965251699016396 0.5062818363092074 -0.03297016339385844
0.31694817528032404 0.4982391146328267 -0.03297016339385844
0.3644851563191054 0.3269541203224298 -0.03297016339385844
0.5625659016059655 0.326564472936866 -0.03297016339385844
0.45737109846234847 0.3073718414581988 -0.031671338775312516
0.4750151313573649 0.6429881228904696 -0.031671338775312516
0.39876413529011395 0.6006564312844762 -0.030971971673018545
0.5995824032345247 0.4290816991745576 -0.030971971673018545
0.3311353364982874 0.524145670293516 -0.030971971673018545
0.607505233407655 0.4620618535270201 -0.030971971673018545
0.30866567059744254 0.46227166365770833 -0.030971971673018545
0.3644851563191054 0.3269541203224298 -0.030971971673018545
0.5625659016059655 0.326564472936866 -0.030971971673018545
0.6056768879830864 0.33187966291430027 -0.029673147054472614
0.41789682101715614 0.6329472094932491 -0.029673147054472614
0.464254868940642 0.6317482944607451 -0.028973779952178643
0.5646340300370347 0.3242665524579002 -0.028973779952178643
0.3798012958593433 0.5899661055779825 -0.028973779952178643
0.6018403598790738 0.4093195830554508 -0.028973779952178643
0.3426249388931168 0.5525100017708385 -0.028973779952178643
0.6059766167412123 0.4261343663863187 -0.028973779952178643
0.5949066346077592 0.42687369732302943 -0.028973779952178643
0.46007864824408656 0.05433083288963711 -0.028973779952178643
0.3040998025153234 0.4145048905710304 -0.027674955333632713
0.5928484971352942 0.4922145665944943 -0.026975588231338745
0.3159191065440914 0.4333278565813423 -0.026975588231338745
0.5463605667499538 0.580264884773305 -0.026975588231338745
0.3210744411838584 0.3268242378605753 -0.026975588231338745
0.5020706472575373 0.6209081043751885 -0.026975588231338745
0.3463315845352749 0.31829195921258874 -0.026975588231338745
0.4392874633887473 0.3269541203224298 -0.026975588231338745
0.46000871153385725 0.0560193048937468 -0.026975588231338745
0.29946399772297483 0.41082821780468487 -0.02567676361279278
0.5995724122759205 0.46212179927864533 -0.02497739651049881
0.31499993835250506 0.4505422782563781 -0.02497739651049881
0.5463605667499538 0.580264884773305 -0.02497739651049881
0.3210744411838584 0.3268242378605753 -0.02497739651049881
0.5021006201333499 0.6208881224579803 -0.02497739651049881
0.3463315845352749 0.31829195921258874 -0.02497739651049881
0.5927985423422732 0.48046519927595577 -0.02497739651049881
0.4612375994421737 0.05814737907644124 -0.02497739651049881
0.29946399772297483 0.4212487876288651 -0.02367857189195288
0.5995724122759205 0.4620818354442286 -0.022979204789658907
0.3138609690716264 0.4375140682365019 -0.022979204789658907
0.5554623300383795 0.5701939985002717 -0.022979204789658907
0.316848265694282 0.36892613741867214 -0.022979204789658907
0.5246102498686114 0.6050624440289283 -0.022979204789658907
0.31935599630393613 0.3213991473384949 -0.022979204789658907
0.3300862858448464 0.36736754787641696 -0.022979204789658907
0.4571413064144519 0.05954611328102918 -0.022979204789658907
0.3041097934739277 0.41997993588613175 -0.021680380171112977
0.5905605676149327 0.49952794829276836 -0.020981013068819006
0.3184468190709539 0.43104991801958475 -0.020981013068819006
0.5222324017208119 0.6020052106960431 -0.020981013068819006
0.32560034543156086 0.3224282160747274 -0.020981013068819006
0.4788017046683566 0.6341960793187741 -0.020981013068819006
0.347240761768257 0.3160639754438523 -0.020981013068819006
0.558989138425662 0.554328356236803 -0.020981013068819006
0.3757849305004551 0.5762385284558124 -0.020981013068819006
0.6152781992017222 0.345037755396031 -0.019682188450273076
0.4750151313573649 0.6429881228904696 -0.019682188450273076
0.3820592525038924 0.5866590982799926 -0.018982821347979108
0.6033889584627248 0.4364350447072483 -0.018982821347979108
0.3219536455410279 0.5011165107108363 -0.018982821347979108
0.6073253961527795 0.46322080472510724 -0.018982821347979108
0.30873560730767197 0.4627212567948973 -0.018982821347979108
0.5116020217659437 0.32445638067137994 -0.018982821347979108
0.591639591144186 0.4841318810836969 -0.018982821347979108
0.5946768425598626 0.41836140059225135 -0.018982821347979108
0.34319442353355617 0.5318387084187498 -0.018982821347979108
0.5805296451763161 0.5168822433882629 -0.018982821347979108
0.439067662299455 0.30986958110924867 -0.017683996729433177
0.4912704210063975 0.6345357719113168 -0.017683996729433177
0.3244214123162652 0.49586126648502726 -0.016984629627139206
0.5966650433220985 0.49328359916514364 -0.016984629627139206
0.3100244409676138 0.4389827391513193 -0.016984629627139206
0.5938176201199017 0.5135252812972521 -0.016984629627139206
0.3104140883531776 0.43490642804080587 -0.016984629627139206
0.5882027013843414 0.3294518599734797 -0.016984629627139206
0.43181422635280614 0.6187100934822647 -0.016984629627139206
0.5390571760102839 0.42048947477494597 -0.016984629627139206
0.3759347948795181 0.4265240137718825 -0.016984629627139206
0.36985030108956063 0.5616517288936813 -0.016984629627139206
0.45003773484686604 0.5033345035209684 -0.016984629627139206
0.5580499883168671 0.4688257325020633 -0.016984629627139206
0.5740555040007949 0.5195698112527927 -0.016984629627139206
0.32461124052974505 0.3618925025613156 -0.016984629627139206
0.30416973922555285 0.42398631028641576 -0.01568580500859324
0.5892017972447613 0.5034943588586358 -0.01498643790629927
0.31863664728443375 0.4346366721584925 -0.01498643790629927
0.5556022034588384 0.5700141612453962 -0.01498643790629927
0.31625879913663424 0.37598974515184114 -0.01498643790629927
0.5399963261190788 0.5919343244230099 -0.01498643790629927
0.31722792212124157 0.32642459951640723 -0.01498643790629927
0.4779524731869995 0.32445638067137994 -0.01498643790629927
0.37682399019529184 0.5751994687609758 -0.01498643790629927
0.3814298221118278 0.5756890257325816 -0.01498643790629927
0.33763945054962125 0.5105379846745963 -0.01498643790629927
0.47611413680382686 0.5539486998098433 -0.01498643790629927
0.363466078541477 0.407231472707173 -0.01498643790629927
0.47156825063891605 0.5045234275948681 -0.01498643790629927
0.5808293739344421 0.5015760948066295 -0.01498643790629927
0.571657673935787 0.40786090309923767 -0.01498643790629927
0.29946399772297483 0.3845120328412233 -0.013687613287753342
0.6004715985502985 0.45594738686125 -0.01298824618545937
0.3158491698338621 0.45723622052119184 -0.01298824618545937
0.579270784392187 0.5355453540609079 -0.01298824618545937
0.3142805893330028 0.4254250083254205 -0.01298824618545937
