0.5246831812133612 0.3774433952399967 -0.22532164039148336
0.13214916558398754 0.3847663485527199 -0.22532164039148336
0.10302535531057955 0.3091254785721755 -0.22482751398711606
0.6627223335374068 0.43928825601060645 -0.22482751398711606
0.44131417426851244 0.31244600800952366 -0.2233451347740142
0.18402255551446556 0.4910727031882983 -0.2233451347740142
0.23955248083726138 0.3155688868851249 -0.2233451347740142
0.49337533223264995 0.4490027811204674 -0.2233451347740142
0.12502386283301134 0.40490694079473055 -0.2233451347740142
0.5585901350810445 0.38706897759707154 -0.22285100836964694
0.5455748455900103 0.5043745859938658 -0.22285100836964694
0.45372662954621873 0.48901713734613045 -0.22136862915654507
0.4880486495935706 0.3253031770511605 -0.22136862915654507
0.5130217980702934 0.35946707664911476 -0.22136862915654507
0.3451077633382015 0.30955042727993126 -0.22136862915654507
0.36335091018744176 0.2700796100990723 -0.22087450275217774
0.571605424572079 0.5043745859938658 -0.22087450275217774
0.46909396072204135 0.47873930813529075 -0.2193921235390759
0.1063557672760151 0.47742493189967383 -0.2193921235390759
0.103549129299209 0.32092521710846633 -0.2193921235390759
0.402545016581855 0.4967353917823474 -0.2193921235390759
0.5373624647494258 0.39127893456228086 -0.2193921235390759
0.5585901350810445 0.3834915024294524 -0.21889799713470864
0.6366917545553383 0.42627296651957214 -0.21889799713470864
0.13172421687623176 0.48178312678619334 -0.21741561792160674
0.10435949660237127 0.4013887607956355 -0.21741561792160674
0.10152321104130313 0.321715819355454 -0.21741561792160674
0.5077148804873886 0.44911148892942815 -0.21741561792160674
0.11075349227488404 0.3308373927800741 -0.21741561792160674
0.5767838692898482 0.4002423875375034 -0.2162593621353873
0.1322282258086864 0.40323679354796915 -0.2154391123041376
0.11091161272428149 0.47994497656194696 -0.2154391123041376
0.10618776429853027 0.4807849914493714 -0.2154391123041376
0.381821355182691 0.5122806084637423 -0.2154391123041376
0.42756757769901443 0.306140955089797 -0.2154391123041376
0.17508875012350486 0.32092521710846633 -0.2154391123041376
0.467483108643804 0.25706432060803797 -0.21346260668666842
0.15509639580280443 0.5198901550909986 -0.21346260668666842
0.3765243201278737 0.2945981622837772 -0.21346260668666842
0.3698042010284785 0.2907439763297124 -0.21346260668666842
0.5079718262176597 0.33181576306072125 -0.21346260668666842
0.4433499750545057 0.48591402352670376 -0.21346260668666842
0.5409893525574817 0.38696026978811077 -0.21346260668666842
0.1286803982253292 0.38755322147335136 -0.21148610106919932
0.4139692190508268 0.5032875079042577 -0.21148610106919932
0.5202063959897937 0.455278186455932 -0.21148610106919932
0.4154120681515793 0.5108970545315139 -0.21148610106919932
0.4221914824194984 0.30645719598859217 -0.21148610106919932
0.4633620944313808 0.48407587330245755 -0.21148610106919932
0.12164403822713897 0.3197195486818102 -0.21148610106919932
0.6236764650643039 0.3091254785721755 -0.210991974664832
0.0769947763285108 0.45230354550164087 -0.210991974664832
0.10343053896216084 0.3481120518767544 -0.20950959545173015
0.11015065806155588 0.3824637195083683 -0.20950959545173015
0.09679936261555176 0.32565894806230494 -0.20950959545173015
0.10708707435447867 0.33121292884739323 -0.20950959545173015
0.5055209592519979 0.45950790847731593 -0.20950959545173015
0.286504371780241 0.4450102397731797 -0.20950959545173015
0.37634643462230144 0.5002832193657046 -0.20950959545173015
0.36335091018744176 0.2595744827422239 -0.2083533396655107
0.5976360035541478 0.49385957610892983 -0.2083533396655107
0.10295617761396822 0.3480922868205798 -0.207533089834261
0.13215904811207493 0.38636731810287 -0.207533089834261
0.10074249132240273 0.48101228959538034 -0.207533089834261
0.4022485407392346 0.5157394932943133 -0.207533089834261
0.2298774858397499 0.35099775007825945 -0.207533089834261
0.4503468049403465 0.49252543481713806 -0.207533089834261
0.533676281772846 0.43513759421392134 -0.207533089834261
0.0769947763285108 0.33516594008233164 -0.20572458719427672
0.467483108643804 0.24404903111700355 -0.20572458719427672
0.1220689869348949 0.3852209448447379 -0.20555658421679185
0.47382769167587996 0.3128017790206681 -0.20555658421679185
0.09799514851412056 0.3384765869915924 -0.20555658421679185
0.09506992020026629 0.41363321309585693 -0.20555658421679185
0.31351332104295704 0.5133380389690884 -0.20555658421679185
0.3589136550762234 0.2936593221154794 -0.20555658421679185
0.1992317662408907 0.442905261290575 -0.20555658421679185
0.12693119075386905 0.37972625922817366 -0.20555658421679185
0.12376878176591835 0.39042903714676913 -0.20358007859932267
0.47249355038408836 0.48989668234590417 -0.20358007859932267
0.41179506287161055 0.28729497402722864 -0.20358007859932267
0.0943880257622394 0.37154352597185136 -0.20358007859932267
0.09439790829032679 0.45313367786097797 -0.20358007859932267
0.545624258230447 0.37525935653269327 -0.20358007859932267
0.21186163713651848 0.44969455808658165 -0.20358007859932267
0.47942120257331766 0.32321796362473054 -0.20358007859932267
0.08926887621299429 0.31307848980711384 -0.2030859521949554
0.5585901350810445 0.5304051649759344 -0.2030859521949554
0.2803376742537373 0.38963843489978145 -0.20160357298185355
0.4734323905523862 0.3095899573922807 -0.20160357298185355
0.09663135963806693 0.35525711968390544 -0.20160357298185355
0.09751090463784069 0.41984932326279734 -0.20160357298185355
0.37914319007102026 0.5209673506525192 -0.20160357298185355
0.3040359766071924 0.2966240805416831 -0.20160357298185355
0.2760387745357419 0.3478847537307455 -0.20160357298185355
0.0769947763285108 0.45230354550164087 -0.20110944657748622
0.571605424572079 0.3091254785721755 -0.20110944657748622
0.2820177040285861 0.44440740555985153 -0.19962706736438438
0.10061401845726718 0.3871282727655956 -0.19962706736438438
0.11904493334016712 0.41963190764487585 -0.19962706736438438
0.28687990784756023 0.5102645727339238 -0.19962706736438438
0.492634142626099 0.30936265924627177 -0.19962706736438438
0.09187786362805353 0.36193770867095115 -0.19962706736438438
0.5117271868908511 0.46438987735246473 -0.19962706736438438
0.5614857158106369 0.40860300629939794 -0.19962706736438438
0.5976360035541478 0.33516594008233164 -0.19834233871302942
0.0769947763285108 0.42627296651957214 -0.19834233871302942
0.20697966826136968 0.4399602679205461 -0.19765056174691523
0.4604072185332645 0.3009822754282026 -0.19765056174691523
0.09496121239130552 0.36459610872644727 -0.19765056174691523
0.09606805553708819 0.4303643331477333 -0.19765056174691523
0.3740042754656004 0.5229537387980757 -0.19765056174691523
0.45359815668108316 0.3022175914391208 -0.19765056174691523
0.10298582519823025 0.3228127799731494 -0.19765056174691523
0.5846207140631134 0.49135929650283133 -0.19567405612944608
0.2722340012221137 0.3652582381082993 -0.19567405612944608
0.20536881618313235 0.35600819181854376 -0.19567405612944608
0.12329442041772573 0.40836582562530166 -0.19567405612944608
0.09928975969356285 0.4275379301147524 -0.19567405612944608
0.40158641135738254 0.5190501402035742 -0.19567405612944608
0.36779804782674724 0.2763648979626243 -0.19567405612944608
0.09105761379680384 0.3886106519786974 -0.19567405612944608
0.5080212388580964 0.4650025940938802 -0.19567405612944608
0.5717437799653019 0.40175441433486736 -0.19567405612944608
0.280100493579641 0.35961531457042495 -0.1936975505119769
0.13187245479754195 0.3914667025959403 -0.1936975505119769
0.09846950986231318 0.43814188275247434 -0.1936975505119769
0.09353812834672769 0.457738935949681 -0.1936975505119769
0.3137505017170533 0.5194059112147187 -0.1936975505119769
0.19232387910783588 0.35980308260408456 -0.1936975505119769
0.5697672743478326 0.4052231816935257 -0.1936975505119769
0.29110962986894423 0.36702721063593424 -0.1936975505119769
0.5325595560989759 0.532905444582033 -0.19291683079307662
0.2722340012221137 0.3647838767601069 -0.19291683079307662
0.2857137695332534 0.44627520336835996 -0.19172104489450778
0.11607029238587603 0.3886897122033962 -0.19172104489450778
0.47618961588875564 0.49680456947895885 -0.19172104489450778
0.5423630239616228 0.4556043098828144 -0.19172104489450778
0.496349973186941 0.30569624132586654 -0.19172104489450778
0.22870146499735575 0.299025534866908 -0.19172104489450778
0.46008109510638207 0.30756403913437486 -0.19172104489450778
0.27350884734538133 0.45082116628853897 -0.19172104489450778
0.12873969339385327 0.41613349270195543 -0.19172104489450778
0.5723960268190668 0.4051243564126522 -0.19172104489450778
0.5976360035541478 0.33516594008233164 -0.19020901809714386
0.10143426828851701 0.2936593221154794 -0.19020901809714386
0.20758250247469784 0.44129440921233765 -0.1897445392770386
0.11928211401426343 0.3818608852950403 -0.1897445392770386
0.09713536857052159 0.4223199552846338 -0.1897445392770386
0.0930934145827971 0.44555377881798364 -0.1897445392770386
0.09081055059462029 0.4900548027953016 -0.1897445392770386
0.10347995160259751 0.4423913698300331 -0.1897445392770386
0.1962472427585122 0.36312361204143273 -0.1897445392770386
0.3749826457462477 0.5141187586879886 -0.1897445392770386
0.37230448063457694 0.283905266893269 -0.1897445392770386
0.46227501634177276 0.45189836185005977 -0.1897445392770386
0.2836779687472601 0.4422530144368103 -0.18776803365956946
0.1076503784554574 0.41118234613019516 -0.18776803365956946
0.09542569121141074 0.336638436767346 -0.18776803365956946
0.3273093302528917 0.2759103016706063 -0.18776803365956946
0.16753849866477274 0.30367032306796055 -0.18776803365956946
0.19622747770233756 0.40261419427846634 -0.18776803365956946
0.3593781338963288 0.28386573678091975 -0.18776803365956946
0.30650660862902884 0.44321161966128275 -0.18776803365956946
0.43489053101173764 0.5031293874548601 -0.18776803365956946
0.5325595560989759 0.532905444582033 -0.18750120540121115
0.2742006243114956 0.3742118085554347 -0.18750120540121115
0.20619894854246942 0.44920043168221424 -0.1857915280421003
0.12301770963128013 0.4047389378172457 -0.1857915280421003
0.09189762868422832 0.48480718038092113 -0.1857915280421003
0.544566827725101 0.33566994901478614 -0.1857915280421003
0.09809397379499406 0.41733916112861164 -0.1857915280421003
0.20227558489179312 0.3497426690111666 -0.1857915280421003
0.3873654534396919 0.5181903602599751 -0.1857915280421003
0.4359973741575205 0.47282955633905804 -0.1857915280421003
0.4881079447620946 0.3145312214359536 -0.1857915280421003
0.7147834915015444 0.4002423875375034 -0.1847933927052784
0.08063154666465414 0.3742118085554347 -0.1847933927052784
0.20534905112695773 0.4443085802789782 -0.18381502242463113
0.1197663578905433 0.38275031282290145 -0.18381502242463113
0.5082485370041052 0.3111217492458193 -0.18381502242463113
0.4875545231892033 0.505155305712766 -0.18381502242463113
0.441729240448181 0.42475105719412093 -0.18381502242463113
0.218364340617992 0.452392488254427 -0.18381502242463113
0.30419409705659 0.35333990923496045 -0.18381502242463113
0.11637665075658381 0.37872812389135163 -0.18381502242463113
0.38815605568667955 0.2890046513863395 -0.18381502242463113
0.4393673162353053 0.47910496167452266 -0.18381502242463113
0.08557281070832702 0.5173898754849001 -0.1820756974812583
0.16734084810302588 0.2700796100990723 -0.1820756974812583
0.7147834915015444 0.36119651906440037 -0.1820756974812583
0.10318347575997713 0.3862882578781711 -0.18183851680716204
0.35540535760521574 0.3413128725526607 -0.18183851680716204
0.5496167995777347 0.4528569670745322 -0.18183851680716204
0.10837180300583373 0.34549318193360784 -0.18183851680716204
0.1712938593379641 0.289706310880541 -0.18183851680716204
0.10283758727692006 0.31298954705432774 -0.18183851680716204
0.4945414705469567 0.31040032469544315 -0.18183851680716204
0.4898472697054675 0.3127918964925807 -0.18183851680716204
0.10175050918731204 0.4919127180757227 -0.18183851680716204
0.20697966826136968 0.4399602679205461 -0.18183851680716204
0.2981855199794837 0.4490620762889915 -0.18183851680716204
0.29110962986894423 0.43728210280887536 -0.18183851680716204
0.10975535693806213 0.48618085178506215 -0.17986201118969283
0.12146615272156674 0.39715903877425157 -0.17986201118969283
0.38078368973351967 0.2794383641977888 -0.17986201118969283
0.4078222865804977 0.5221532540230007 -0.17986201118969283
0.09157150525734589 0.4934741575135233 -0.17986201118969283
0.44333020999833095 0.32020379255809 -0.17986201118969283
0.44333020999833095 0.4941856995358122 -0.17986201118969283
0.3078703975050826 0.35721386024519997 -0.17986201118969283
0.1974924412975178 0.44824182645774174 -0.17986201118969283
0.12645682940567646 0.5173898754849001 -0.1793678847853256
0.12134756238451873 0.2868502602632981 -0.1793678847853256
0.5325595560989759 0.25706432060803797 -0.1793678847853256
0.2722340012221137 0.42627296651957214 -0.1785772825383379
0.4075060456817025 0.4503171573560843 -0.1785772825383379
0.18777791618765688 0.5304051649759344 -0.1785772825383379
0.27024761307655726 0.3406309781146338 -0.1785772825383379
0.5976360035541478 0.3481812295733659 -0.1785772825383379
0.09862763031171075 0.38867982967530884 -0.1778855055722237
0.11621853030718622 0.3116059931220993 -0.1778855055722237
0.09459555885207367 0.3854482429907468 -0.1778855055722237
0.138592573896937 0.5022893725674357 -0.1778855055722237
0.5357713777273632 0.3311338686226945 -0.1778855055722237
0.5994148586098699 0.39628937630256506 -0.1778855055722237
0.5351981910982972 0.45904342965721073 -0.1778855055722237
0.44418998994193004 0.32624201721945834 -0.1778855055722237
0.30706991273000755 0.34935725041576005 -0.1778855055722237
0.29894647464220936 0.4534400362316856 -0.1778855055722237
0.07819056222707974 0.49797070779326563 -0.1773913791678564
0.3243050417143386 0.5564357439580032 -0.17660077692086876
0.30531082273046006 0.49135929650283133 -0.17660077692086876
0.3666319095124405 0.3412931074964859 -0.17660077692086876
0.23888046892732176 0.27281707037926706 -0.17660077692086876
0.467483108643804 0.5434204544669688 -0.17660077692086876
0.4364618529776257 0.2981855199794837 -0.17590899995475456
0.4318961250012719 0.4592904928593943 -0.17590899995475456
0.09122561677428882 0.3816632347332934 -0.17590899995475456
0.19943929933072482 0.5062028536900246 -0.17590899995475456
0.44418998994193004 0.5217678354275942 -0.17590899995475456
0.2091241768563237 0.5175084658219482 -0.17590899995475456
0.45530783404019404 0.49532219026585694 -0.17590899995475456
0.4448916494361316 0.511242943014571 -0.17590899995475456
0.29792857424921276 0.35482228844806224 -0.17590899995475456
0.3000632003160794 0.33489911182397325 -0.17590899995475456
0.24909900296963733 0.528903020706658 -0.17541487355038726
0.35234177389813853 0.4653188349926752 -0.17462427130339958
0.418208823600298 0.4523331930859029 -0.17462427130339958
0.6627223335374068 0.428783128653758 -0.17462427130339958
0.10724519480387626 0.3067042591907757 -0.17393249433728536
0.4340900462366626 0.32062874126584595 -0.17393249433728536
0.5547063015427176 0.34487058266410514 -0.17393249433728536
0.09949729278339713 0.3052021149214992 -0.17393249433728536
0.21906600011219354 0.5185263662149447 -0.17393249433728536
0.21937235848290132 0.2781734006026085 -0.17393249433728536
0.480913464314507 0.29855117351871546 -0.17393249433728536
0.4454549535371103 0.32911783289287594 -0.17393249433728536
0.2978989266649507 0.3546542854705774 -0.17393249433728536
0.30323549183211734 0.46783887965494847 -0.17393249433728536
0.27464533807542607 0.5337454594694572 -0.17264776568593046
0.2742006243114956 0.3742118085554347 -0.17264776568593046
0.7147834915015444 0.4132576770285377 -0.17264776568593046
0.09227316475154743 0.4056086002889322 -0.17195598871981627
0.3677782827705726 0.2823141798712063 -0.17195598871981627
0.502437610488746 0.30414468441615317 -0.17195598871981627
0.1970576100616745 0.2921967079585521 -0.17195598871981627
0.08884392750523849 0.40728863006378085 -0.17195598871981627
0.5913704807467705 0.41961214258870105 -0.17195598871981627
0.4466112093233298 0.5271439307071104 -0.17195598871981627
0.5926552093981254 0.3975741049539201 -0.17195598871981627
0.2803376742537373 0.4399602679205461 -0.17195598871981627
0.206446011744653 0.4497439707270183 -0.17195598871981627
0.29715773705839976 0.3575004535597329 -0.17195598871981627
0.35037515080875675 0.478344007011797 -0.17067126006846128
0.27975460509658395 0.25706432060803797 -0.17067126006846128
0.5065289771169071 0.5564357439580032 -0.17067126006846128
0.42871395095714654 0.32732909530906634 -0.1699794831023471
0.4339516908434398 0.34173782126041646 -0.1699794831023471
0.5438651682308995 0.46867889454237277 -0.1699794831023471
0.42909936955255307 0.3328830760941547 -0.1699794831023471
0.39564701197688773 0.5272427559879838 -0.1699794831023471
0.4898275046492927 0.5084560700939396 -0.1699794831023471
0.2714730465593881 0.5267090994712671 -0.1699794831023471
0.44631473348070944 0.2902202023410831 -0.1699794831023471
0.20747379466573695 0.44122523151572635 -0.1699794831023471
0.20376784663298228 0.4492696093788257 -0.1699794831023471
0.30358138031517456 0.35600819181854376 -0.1699794831023471
0.28211652930945946 0.5381728320525881 -0.16869475445099213
0.2722340012221137 0.32371209002909784 -0.16869475445099213
0.6236764650643039 0.4808442866178955 -0.16869475445099213
0.4080693497826813 0.27796586751277425 -0.16800297748487794
0.4381320002243871 0.2938767377334009 -0.16800297748487794
0.6004129939466918 0.4027327846155145 -0.16800297748487794
0.28873782312798113 0.279902843017894 -0.16800297748487794
0.28426103790441365 0.5205720495290255 -0.16800297748487794
0.20545775893591847 0.282986191781146 -0.16800297748487794
0.38385715596868414 0.26305313262896945 -0.16800297748487794
0.44896325100811807 0.3248485807591425 -0.16800297748487794
0.4499712688730274 0.4739858121252775 -0.16800297748487794
0.28516034796036205 0.44634438106497143 -0.16800297748487794
0.19874752236461068 0.45142400050186715 -0.16800297748487794
0.30020155570930235 0.5376688231201336 -0.16750885108051064
0.32149840373753247 0.3872270980464691 -0.166718248833523
0.6236764650643039 0.3196404884571113 -0.166718248833523
0.10628658957940378 0.4119729483771828 -0.1660264718674088
0.35559312563887524 0.5237739886293254 -0.1660264718674088
0.09881539834537038 0.48401657813393345 -0.1660264718674088
0.4408200478641452 0.4629964408921489 -0.1660264718674088
0.08833991857278385 0.48797947189695906 -0.1660264718674088
0.09998153665967713 0.2991441252039562 -0.1660264718674088
0.09203598407745112 0.41502664955617263 -0.1660264718674088
0.08649188582045021 0.3032651394163794 -0.1660264718674088
0.39082433827026286 0.26240088577520476 -0.1660264718674088
0.5440134061522096 0.46740404841910527 -0.1660264718674088
0.27846987644522886 0.4458700197167788 -0.1660264718674088
0.30940218935862124 0.4567111530285971 -0.1660264718674088
0.3457995403043156 0.33335743744234725 -0.1660264718674088
0.33596642485740663 0.5434204544669688 -0.1647417432160538
0.2742006243114956 0.42627296651957214 -0.1647417432160538
0.5455748455900103 0.29611018908114106 -0.1647417432160538
0.10570352042225026 0.4119729483771828 -0.16404996624993962
0.10181968688392337 0.4153725380392298 -0.16404996624993962
0.43893248499946214 0.3351758226104189 -0.16404996624993962
0.10217545789506784 0.2991540077320436 -0.16404996624993962
0.30761345177481164 0.5246140035167499 -0.16404996624993962
0.43226177854050374 0.5252168377300778 -0.16404996624993962
0.5571670510364667 0.46707792499222284 -0.16404996624993962
0.4504159826369578 0.5299011560434799 -0.16404996624993962
0.4514931781984786 0.5051948358251155 -0.16404996624993962
0.20771097533983326 0.35903224541327156 -0.16404996624993962
0.19864869708373717 0.4432610323017194 -0.16404996624993962
0.3032849044725542 0.3555535955265258 -0.16404996624993962
0.3243050417143386 0.42627296651957214 -0.16276523759858472
0.3243050417143386 0.5467607489604916 -0.16276523759858472
0.6366917545553383 0.3636967986704988 -0.16276523759858472
0.43361568488847013 0.3250758789051516 -0.1620734606324705
0.099408350030611 0.41085622270331273 -0.1620734606324705
0.44627520336835996 0.5177258814398699 -0.1620734606324705
0.320658388850108 0.2743488622328057 -0.1620734606324705
0.0894961743590032 0.416864799780419 -0.1620734606324705
0.560487580473815 0.33494852446441 -0.1620734606324705
0.5716647197406031 0.34055191788993494 -0.1620734606324705
0.5732063941222291 0.3585480015369917 -0.1620734606324705
0.2070784935422432 0.44555377881798364 -0.1620734606324705
0.3093033640777477 0.45684950842181987 -0.1620734606324705
0.34534494401229776 0.32701285441027134 -0.1620734606324705
0.35208482816786757 0.46375739555487466 -0.1607887319811155
0.38877865495618236 0.2534275502718948 -0.1607887319811155
0.5976360035541478 0.4653188349926752 -0.1607887319811155
0.08801379514590142 0.30283030818053625 -0.16009695501500132
0.2830257218934954 0.3571051524362392 -0.16009695501500132
0.3074750963815887 0.4554857195457663 -0.16009695501500132
0.3153514712672034 0.4523826057263396 -0.16009695501500132
0.4342086365737108 0.46760169898085213 -0.16009695501500132
0.3786688287228277 0.2686466435264072 -0.16009695501500132
0.3800523826550561 0.5318578966047743 -0.16009695501500132
0.5465729809268323 0.32152805132179435 -0.16009695501500132
0.4317478870799617 0.32217041564747184 -0.16009695501500132
0.2674212100435764 0.5300592764928773 -0.16009695501500132
0.5410881778383553 0.3261629569947596 -0.16009695501500132
0.34107569187856435 0.24404903111700355 -0.15960282861063405
0.43248907668651265 0.49135929650283133 -0.1588122263636464
0.6236764650643039 0.3196404884571113 -0.1588122263636464
0.10400372559122682 0.411864240568222 -0.15812044939753217
0.20697966826136968 0.4399602679205461 -0.15812044939753217
0.1980557453984964 0.36051462462637346 -0.15812044939753217
0.3042830398093761 0.35394274344828847 -0.15812044939753217
0.4526395514566107 0.32536247221968456 -0.15812044939753217
0.3336143831726184 0.5285274846393387 -0.15812044939753217
0.4394266114038294 0.27934942144500263 -0.15812044939753217
0.3834915024294524 0.5278258251451372 -0.15812044939753217
0.5202755736864051 0.5030503272301614 -0.15812044939753217
0.45083104881662633 0.5209377030682572 -0.15812044939753217
0.5086141905433371 0.3073070934041039 -0.15812044939753217
0.3243050417143386 0.36119651906440037 -0.15683572074617722
0.42898077921550487 0.36119651906440037 -0.15683572074617722
0.6497070440463725 0.4132576770285377 -0.15683572074617722
0.11640629834084584 0.39236601265188886 -0.15614394378006302
0.30592353947187545 0.45184894920962293 -0.15614394378006302
0.30300819368610843 0.46828359341887904 -0.15614394378006302
0.5052343659374648 0.5036531614434895 -0.15614394378006302
0.3138789745821889 0.27052432386300285 -0.15614394378006302
0.3426766614287143 0.5300098638524406 -0.15614394378006302
0.46220583864516146 0.27455639532264 -0.15614394378006302
0.4449509446046556 0.3242951591862512 -0.15614394378006302
0.44408128213296927 0.5150872464405485 -0.15614394378006302
0.5828517415354785 0.36479375928819413 -0.15614394378006302
0.35129422592087983 0.25088774055344687 -0.15564981737569572
0.35033562069640733 0.5499231579484422 -0.15485921512870807
0.35033562069640733 0.2505418520703898 -0.15485921512870807
0.1140740217122322 0.402831609896388 -0.15416743816259387
0.20883758354179072 0.44182806572905436 -0.15416743816259387
0.28707755840930715 0.4514734131423038 -0.15416743816259387
0.30348255503430105 0.46836265364357776 -0.15416743816259387
0.4507915187042771 0.27935930397309006 -0.15416743816259387
0.3007846248664557 0.526877102448752 -0.15416743816259387
0.4519378919624092 0.32228900598452 -0.15416743816259387
0.2677967461108955 0.5187734294171285 -0.15416743816259387
0.581576895412211 0.4561972615680552 -0.15416743816259387
0.4581540021293496 0.510442458239496 -0.15416743816259387
0.5191390829563604 0.4935334526820474 -0.15416743816259387
0.3211327501983006 0.43928825601060645 -0.15288270951123892
0.3504047983930188 0.32215065059129716 -0.15288270951123892
0.5195442666079415 0.5173898754849001 -0.15288270951123892
0.20453868382379528 0.44400222190827043 -0.15219093254512472
0.2852789382974102 0.3543083969875203 -0.15219093254512472
0.33273483817284444 0.47004268341842653 -0.15219093254512472
0.5030009145897247 0.5067167451505666 -0.15219093254512472
0.367017328107847 0.26630448436970633 -0.15219093254512472
0.39285025652816885 0.5345261791883575 -0.15219093254512472
0.5656561426634967 0.46822429825035494 -0.15219093254512472
0.3688653608601806 0.2574497392034445 -0.15219093254512472
0.5012022944778278 0.5042362306006428 -0.15219093254512472
0.4603874534770897 0.3254415324443833 -0.15219093254512472
0.6497070440463725 0.45230354550164087 -0.15090620389376977
0.3972875116393871 0.5500516308135778 -0.15090620389376977
0.2722340012221137 0.33516594008233164 -0.15090620389376977
0.09092914093166844 0.4065573229853173 -0.15021442692765555
0.20748367719382435 0.4412351140438136 -0.15021442692765555
0.20883758354179072 0.4512559975243823 -0.15021442692765555
0.33268542553240776 0.4700920960588632 -0.15021442692765555
0.45328191578228816 0.2783117559958314 -0.15021442692765555
0.37593136844263286 0.5354254892443061 -0.15021442692765555
0.29845234823784206 0.2694471283014822 -0.15021442692765555
0.44915101904177757 0.32389985806275745 -0.15021442692765555
0.43331920904584975 0.47625879358536694 -0.15021442692765555
0.4466606219637665 0.35598842676236914 -0.15021442692765555
0.4804983981348384 0.5342000557614753 -0.14892969827630062
0.3893814891695105 0.5043745859938658 -0.14892969827630062
0.2742006243114956 0.3742118085554347 -0.14892969827630062
0.11232481424077194 0.40321702849179447 -0.1482379213101864
0.30765298188716095 0.34448516406869867 -0.1482379213101864
0.20067461534164305 0.3492880727191486 -0.1482379213101864
0.30402609407910514 0.3530730809766021 -0.1482379213101864
0.30885865031381715 0.27169046217730974 -0.1482379213101864
0.3117344659872347 0.5292587917178024 -0.1482379213101864
0.41147882197281554 0.2704057335259547 -0.1482379213101864
0.42197406680157673 0.4780771787534387 -0.1482379213101864
0.2993022456533538 0.5336466341885838 -0.1482379213101864
0.5485000739038647 0.47620938094493026 -0.1482379213101864
0.6497070440463725 0.4417984181447923 -0.14695319265883144
0.4075060456817025 0.24404903111700355 -0.14695319265883144
0.44145252966173526 0.5482035980612443 -0.14695319265883144
0.34828993738232683 0.3202433226704395 -0.14695319265883144
0.2815038125680441 0.3561267821555919 -0.14626141569271728
0.20168263320655233 0.44670015207611574 -0.14626141569271728
0.2987883541928119 0.4567902132532958 -0.14626141569271728
0.4921993113902558 0.5146524152047053 -0.14626141569271728
0.35886424243578674 0.2652569363924476 -0.14626141569271728
0.4347324105623402 0.531561420762154 -0.14626141569271728
0.5130810932388173 0.5089304314421321 -0.14626141569271728
0.46603037701496425 0.2680042792007297 -0.14626141569271728
0.46516071454327773 0.5195245015517667 -0.14626141569271728
0.4023967786605448 0.5564357439580032 -0.14576728928834998
0.6106611755732694 0.45230354550164087 -0.1449766870413623
0.4284273576426136 0.4002423875375034 -0.1449766870413623
0.32092521710846633 0.3726404865895466 -0.1449766870413623
0.27846987644522886 0.35413051148194813 -0.1442849100752481
0.28078238801766786 0.3520551805836054 -0.1442849100752481
0.3372808010930236 0.46964738229493264 -0.1442849100752481
0.5864885118716217 0.44700651044682355 -0.1442849100752481
0.39762351759435677 0.2635769066175989 -0.1442849100752481
0.36675049984948865 0.5354156067162187 -0.1442849100752481
0.621482543828913 0.39641784916770056 -0.1442849100752481
0.32459163502887156 0.261807934089964 -0.1442849100752481
0.46579319634086797 0.47401545970953957 -0.1442849100752481
0.46853065662106275 0.32244712643391754 -0.1442849100752481
0.5195442666079415 0.5304051649759344 -0.14300018142389317
0.4284273576426136 0.4132576770285377 -0.14300018142389317
0.2742006243114956 0.42627296651957214 -0.14300018142389317
0.2027598287680731 0.4410275809539793 -0.14230840445777895
0.3159641880086188 0.3389311832836103 -0.14230840445777895
0.3326953080604952 0.33399980176802474 -0.14230840445777895
0.5704788163701215 0.3354426508687772 -0.14230840445777895
0.37042680029798125 0.2612446299889853 -0.14230840445777895
0.368390999511988 0.5376292930077841 -0.14230840445777895
0.5446656530059745 0.30917489121261216 -0.14230840445777895
0.35884447737961206 0.2723229439748998 -0.14230840445777895
0.4337046276412563 0.47659479954033673 -0.14230840445777895
0.5516427178356405 0.3230400781191583 -0.14230840445777895
0.467483108643804 0.5564357439580032 -0.141023675806424
0.4302160952264231 0.42627296651957214 -0.141023675806424
0.3208263918275928 0.36119651906440037 -0.141023675806424
0.27846987644522886 0.44565260409885715 -0.1403318988403098
0.20369866893637095 0.44844935954757603 -0.1403318988403098
0.2989662396983841 0.45837141774727125 -0.1403318988403098
0.45640479465788947 0.5286460749763868 -0.1403318988403098
0.39743574956069727 0.2584281094840918 -0.1403318988403098
0.43104622758576017 0.4740549898218889 -0.1403318988403098
0.3472720369893301 0.5382321272211122 -0.1403318988403098
0.6283410183215311 0.39645737928005004 -0.1403318988403098
0.46350044982460376 0.27619689498513933 -0.1403318988403098
0.7147834915015444 0.4148289989944257 -0.13904717018895485
0.44145252966173526 0.5564357439580032 -0.13904717018895485
0.2722340012221137 0.3742118085554347 -0.13904717018895485
0.2830257218934954 0.3570952699081518 -0.13835539322284066
0.20751332477808637 0.4490620762889915 -0.13835539322284066
0.30253383233791586 0.4687283071828096 -0.13835539322284066
0.4628086728584895 0.5276479396395649 -0.13835539322284066
0.4326768447201723 0.2659684784147365 -0.13835539322284066
0.4308288119678385 0.3254810625567327 -0.13835539322284066
0.46325338662242005 0.47833412448370966 -0.13835539322284066
0.4203730972514268 0.5448929511519833 -0.13835539322284066
0.47014150869930005 0.27857858425418963 -0.13835539322284066
0.6627223335374068 0.428783128653758 -0.1370706645714857
0.4186436548361413 0.34567106743918 -0.1370706645714857
0.3207176840186321 0.42627296651957214 -0.1370706645714857
0.5386274283446063 0.4931776816709029 -0.1363788876053715
0.42971208629396845 0.26497034307791456 -0.1363788876053715
0.42693509590142437 0.32563918300613015 -0.1363788876053715
0.45311391280480334 0.5261853254826379 -0.1363788876053715
0.4937311032437944 0.5261359128422011 -0.1363788876053715
0.47174247824945 0.3230400781191583 -0.1363788876053715
0.20700931584563173 0.4402863913474285 -0.1363788876053715
0.20883758354179072 0.3511361054714824 -0.1363788876053715
0.33372309098157915 0.3292759533422735 -0.1363788876053715
0.6236764650643039 0.3196404884571113 -0.13509415895401655
0.4493091394911751 0.3091254785721755 -0.13509415895401655
0.41913778124050854 0.4844810569540387 -0.13509415895401655
0.38917395607967625 0.25987095858484427 -0.13440238198790233
0.3902313865850222 0.5392006149736722 -0.13440238198790233
0.6283410183215311 0.3985623577626546 -0.13440238198790233
0.436728681235984 0.2575090343719686 -0.13440238198790233
0.47744469695584846 0.32729944772480435 -0.13440238198790233
0.4703095116767849 0.5209574681244319 -0.13440238198790233
0.3111217492458193 0.3397909632272093 -0.13440238198790233
0.3118530563242829 0.45563395746707647 -0.13440238198790233
0.2722340012221137 0.4132576770285377 -0.1331176533365474
0.43083869449592593 0.36119651906440037 -0.1331176533365474
0.5585901350810445 0.5198901550909986 -0.1331176533365474
0.5514648323300682 0.48605237891992675 -0.13242587637043318
0.4043139891094899 0.5428275027817281 -0.13242587637043318
0.467799349542599 0.26814263459395254 -0.13242587637043318
0.45493229797287493 0.2775804489173677 -0.13242587637043318
0.5554573736773561 0.3211722803106499 -0.13242587637043318
0.4739067519005788 0.5124090813288777 -0.13242587637043318
0.3140272125034991 0.3388521230589115 -0.13242587637043318
0.3105584451448406 0.3483393500227635 -0.13242587637043318
0.2742006243114956 0.3872270980464691 -0.13114114771907823
0.4284273576426136 0.36119651906440037 -0.13114114771907823
0.5325595560989759 0.532905444582033 -0.13114114771907823
0.6257913260749959 0.3961213733250802 -0.13044937075296403
0.45107811201881004 0.5328757969977708 -0.13044937075296403
0.4437156285937374 0.5383902476705099 -0.13044937075296403
0.6028638609123538 0.44992185623259057 -0.13044937075296403
0.4755768991473402 0.2882338141955265 -0.13044937075296403
0.2803376742537373 0.36051462462637346 -0.13044937075296403
0.30804828301065484 0.34059144800228436 -0.13044937075296403
0.19945906438689961 0.45697798128695544 -0.13044937075296403
0.3205101509287978 0.3872270980464691 -0.12916464210160908
0.571605424572079 0.29862035121532693 -0.12916464210160908
0.6236764650643039 0.49135929650283133 -0.12916464210160908
0.4257788401152049 0.2603255548768621 -0.12847286513549488
0.47012174364312526 0.28735426919575274 -0.12847286513549488
0.4356317206182886 0.33973166805868527 -0.12847286513549488
0.4355823079778519 0.47669362482121025 -0.12847286513549488
0.5563072710928677 0.4801623921798686 -0.12847286513549488
0.20697966826136968 0.36051462462637346 -0.12847286513549488
0.31559853446938696 0.33858529480055316 -0.12847286513549488
0.3321122389033418 0.4706356351036673 -0.12847286513549488
0.2722340012221137 0.4356910157868127 -0.12718813648413993
0.3893814891695105 0.29611018908114106 -0.12718813648413993
0.5325595560989759 0.532905444582033 -0.12718813648413993
0.627313235400447 0.4055591876484954 -0.12649635951802574
0.428298884777478 0.3362629007000269 -0.12649635951802574
0.4366298559551105 0.4726615533615732 -0.12649635951802574
0.40380009764894786 0.5498440977237437 -0.12649635951802574
0.45939920066835516 0.4596166162862767 -0.12649635951802574
0.6046427159680757 0.36702721063593424 -0.12649635951802574
0.3048858740227041 0.34681744069731213 -0.12649635951802574
0.3090365358193894 0.46025898061195414 -0.12649635951802574
0.2910997473408568 0.43693621432581814 -0.12649635951802574
0.2964956076765477 0.4737881615635305 -0.12521163086667078
0.5556451417110154 0.29611018908114106 -0.12521163086667078
0.5070329860493616 0.515611020429178 -0.12451985390055657
0.4178135224768042 0.5433117466580081 -0.12451985390055657
0.5695893888422604 0.48034027768544085 -0.12451985390055657
0.6196246285484921 0.4325780194392988 -0.12451985390055657
0.4816151238087085 0.47161400538431447 -0.12451985390055657
0.20394573213855452 0.3576190438967811 -0.12451985390055657
0.30698096997722146 0.3429731372713347 -0.12451985390055657
0.33458287092517824 0.3329028411503294 -0.12451985390055657
0.2923647109360371 0.33516594008233164 -0.12323512524920163
0.4284273576426136 0.43928825601060645 -0.12323512524920163
0.7017682020105099 0.3872270980464691 -0.12323512524920163
0.444160342357668 0.336035602554018 -0.12254334828308742
0.43290414286618123 0.4742822879678979 -0.12254334828308742
0.47639714897858987 0.47952991038227843 -0.12254334828308742
0.4347917057308643 0.5297232705379076 -0.12254334828308742
0.4782451817309235 0.3298590224994269 -0.12254334828308742
0.5084758351501142 0.4323210737090277 -0.12254334828308742
0.28015978874816505 0.4495562026933587 -0.12254334828308742
0.30233618177616894 0.46529906993650055 -0.12254334828308742
0.2991540077320436 0.44498059218891767 -0.12254334828308742
0.6236764650643039 0.3091254785721755 -0.12125861963173247
0.4202248593301166 0.4849060056617945 -0.12125861963173247
0.45912248988190946 0.3163792541882872 -0.12125861963173247
0.4786898954948541 0.2725700071770835 -0.12056684266561826
0.48015250965178125 0.32273371974845055 -0.12056684266561826
0.4374797533706222 0.39562724692071294 -0.12056684266561826
0.42415810550888017 0.4789270761689504 -0.12056684266561826
0.5111144701494356 0.3954295963589661 -0.12056684266561826
0.28416221262354013 0.4399602679205461 -0.12056684266561826
0.3061113075055351 0.3480428741801431 -0.12056684266561826
0.30100204048437723 0.4557130176917752 -0.12056684266561826
0.29471675262082536 0.3578364595147028 -0.12056684266561826
0.3515412891230635 0.45230354550164087 -0.11928211401426332
0.5846207140631134 0.28309489959010675 -0.11928211401426332
0.6236764650643039 0.4808442866178955 -0.11928211401426332
0.5814385400189881 0.3330016664312028 -0.11859033704814913
0.4422036017963736 0.3852011797885631 -0.11859033704814913
0.48762370088581464 0.5086833682399484 -0.11859033704814913
0.6101571666408149 0.44846912460375066 -0.11859033704814913
0.5057087272856574 0.3919212988879583 -0.11859033704814913
0.4935532177382222 0.5135752196431846 -0.11859033704814913
0.5216195975062842 0.35501005648172185 -0.11859033704814913
0.1993701216341135 0.3599612030534821 -0.11859033704814913
0.3059136569437881 0.45504100578183565 -0.11859033704814913
0.29094162689145925 0.35918048333458175 -0.11859033704814913
0.3202037925580902 0.4002423875375034 -0.11730560839679416
0.46882713246368296 0.3157368898626098 -0.11730560839679416
0.467483108643804 0.5468002790728412 -0.11730560839679416
0.20006189860022763 0.3513930512017533 -0.11661383143067998
0.3120309418298551 0.4613460587015623 -0.11661383143067998
0.3144719262674295 0.34666920277600194 -0.11661383143067998
0.43596772657325844 0.477286576506451 -0.11661383143067998
0.4870208666724866 0.523101976719386 -0.11661383143067998
0.44101769842589206 0.2670456739762573 -0.11661383143067998
0.5576809424970088 0.30254371486600323 -0.11661383143067998
0.5162929148672047 0.4975852891978591 -0.11661383143067998
0.6373143538248409 0.42627296651957214 -0.11532910277932502
0.4205905128693483 0.29611018908114106 -0.11532910277932502
0.2921374127900282 0.33690526502570434 -0.11532910277932502
0.2053984637673944 0.35185753002185854 -0.11463732581321082
0.27846987644522886 0.44963526291805755 -0.11463732581321082
0.29951966127127544 0.33203317867864296 -0.11463732581321082
0.4357305458991621 0.3313414017125288 -0.11463732581321082
0.4682934759469664 0.3578957546832268 -0.11463732581321082
0.4920115433565962 0.5237245759888888 -0.11463732581321082
0.4370745697190411 0.5453969600844378 -0.11463732581321082
0.4817534792019313 0.5189117848103513 -0.11463732581321082
0.43240013393372656 0.4313229383722058 -0.11414319940884353
0.2742006243114956 0.3872270980464691 -0.11335259716185588
0.6236764650643039 0.4808442866178955 -0.11335259716185588
0.5846207140631134 0.29360990947504256 -0.11335259716185588
0.3138592095260141 0.45261978640043593 -0.11266082019574167
0.438843542246676 0.37360897434210666 -0.11266082019574167
0.4996705026242892 0.27888494262489744 -0.11266082019574167
0.5055604893643473 0.2766613738052447 -0.11266082019574167
0.5981400124866023 0.3356007713181748 -0.11266082019574167
0.5220544287421274 0.3031959617197681 -0.11266082019574167
0.32004567210869256 0.3742118085554347 -0.11137609154438671
0.6627223335374068 0.4002423875375034 -0.11137609154438671
0.4205905128693483 0.29611018908114106 -0.11137609154438671
0.3328237809256306 0.47170294813710056 -0.1106843145782725
0.43765763887619447 0.32350455693926355 -0.1106843145782725
0.5107685816663784 0.287275208971054 -0.1106843145782725
0.4889281945933443 0.2785687017261024 -0.1106843145782725
0.44299420404336126 0.2525282402159463 -0.1106843145782725
0.5163522100357288 0.2892615971166104 -0.1106843145782725
0.5195442666079415 0.2709591550988462 -0.10939958592691756
0.6236764650643039 0.4808442866178955 -0.10939958592691756
0.27313331127806223 0.3658511897935401 -0.10939958592691756
0.31508464300884503 0.33809116839618586 -0.10870780896080336
0.43392204325917777 0.46946949678936045 -0.10870780896080336
0.46875795476707166 0.35742139333503425 -0.10870780896080336
0.5134862768903985 0.514731475429404 -0.10870780896080336
0.48925431802022673 0.2700499625148103 -0.10870780896080336
0.6180928366949535 0.35585995389723357 -0.10870780896080336
0.5425507919952824 0.48488624060561986 -0.10870780896080336
0.31993696429973184 0.4276762855079752 -0.10742308030944842
0.7147834915015444 0.4132576770285377 -0.10742308030944842
0.4219839493296641 0.34567106743918 -0.10742308030944842
0.3142149805371586 0.454052752973101 -0.10673130334333421
0.4389818976398988 0.3398897885080828 -0.10673130334333421
0.6234590494463823 0.37461699220701583 -0.10673130334333421
0.5258888496400175 0.3021286486863347 -0.10673130334333421
0.4426384330322168 0.2692593602678226 -0.10673130334333421
0.5315416557059792 0.5018940714439419 -0.10673130334333421
0.6497070440463725 0.42627296651957214 -0.10544657469197927
0.41876224517318944 0.3177628081205156 -0.10544657469197927
0.2722340012221137 0.4002423875375034 -0.10544657469197927
0.3408582762606427 0.34055191788993494 -0.10475479772586507
0.44329067988598164 0.43681762398877 -0.10475479772586507
0.45005032909772613 0.3660488403552871 -0.10475479772586507
0.528675722560649 0.2901016120040349 -0.10475479772586507
0.6429375123065406 0.39837458972899514 -0.10475479772586507
0.5591534391820234 0.5006884030172858 -0.10475479772586507
0.5560009127221599 0.3250758789051516 -0.10475479772586507
0.6366917545553383 0.32215065059129716 -0.10347006907451009
0.5065289771169071 0.3481812295733659 -0.10347006907451009
0.2722340012221137 0.43928825601060645 -0.10347006907451009
0.3151538207054564 0.4585493032528435 -0.10277829210839588
0.4405235720215248 0.4172304533196507 -0.10277829210839588
0.4485975974688862 0.26175852144952716 -0.10277829210839588
0.43882377719050136 0.5405940514339879 -0.10277829210839588
0.5138618129577176 0.5223805521690096 -0.10277829210839588
0.43116481792280836 0.5417799548044695 -0.10277829210839588
0.5550126599134254 0.37636619967847607 -0.10277829210839588
0.7017682020105099 0.3872270980464691 -0.10149356345704094
0.42047192253230015 0.34371432687788567 -0.10149356345704094
0.2722340012221137 0.36119651906440037 -0.10149356345704094
0.3316082299708871 0.33298190137502814 -0.10080178649092673
0.43887318983093804 0.46941020162083635 -0.10080178649092673
0.4505444555020934 0.44839006437905193 -0.10080178649092673
0.5386373108726934 0.2967229058225566 -0.10080178649092673
0.6048897791702594 0.3432597305858677 -0.10080178649092673
0.6210180650088077 0.44508929999787844 -0.10080178649092673
0.5670792267080746 0.32786275182578306 -0.10080178649092673
0.5470078121626754 0.5173898754849001 -0.09951705783957181
0.4310165800014982 0.40987785242266545 -0.09951705783957181
0.5031788000952968 0.4132576770285377 -0.09951705783957181
0.29169269902609757 0.43928825601060645 -0.09951705783957181
0.34070015581124524 0.4600712125782947 -0.0988252808734576
0.43632349758440286 0.42698450854186104 -0.0988252808734576
0.4695386744859719 0.33310049171207634 -0.0988252808734576
0.448617362525061 0.5399813346925724 -0.0988252808734576
0.48811782729018205 0.5330734475595178 -0.0988252808734576
0.4339615733715272 0.5419479577819543 -0.0988252808734576
0.5719611955832234 0.43198506775405804 -0.0988252808734576
0.467483108643804 0.5564357439580032 -0.09754055222210266
0.34699532620288454 0.31901788918760865 -0.09754055222210266
0.2722340012221137 0.42627296651957214 -0.09754055222210266
0.31118104441434336 0.45692856864651876 -0.09684877525598845
0.4407311051113591 0.4263816743285329 -0.09684877525598845
0.464281169543504 0.33835799665454425 -0.09684877525598845
0.560635818395125 0.31437310098655613 -0.09684877525598845
0.559519092721255 0.32167628924310454 -0.09684877525598845
0.5455155504214863 0.3689246560287047 -0.09684877525598845
0.5644702392930152 0.3755459498472264 -0.09684877525598845
0.5785726068736579 0.3445444592372227 -0.09684877525598845
0.5065289771169071 0.2545541584738521 -0.09556404660463351
0.5065289771169071 0.3481812295733659 -0.09556404660463351
0.32878182693790625 0.4804983981348383 -0.09556404660463351
0.3326360128919711 0.32824817042118953 -0.0948722696385193
0.43425804921414757 0.324146921264941 -0.0948722696385193
0.45076187112001503 0.5404359309845904 -0.0948722696385193
0.5690458497974565 0.47742493189967383 -0.0948722696385193
0.4940967567830261 0.5316207159306781 -0.0948722696385193
0.6130823949546692 0.45699774634313006 -0.0948722696385193
0.5591336741258486 0.41780363994871683 -0.0948722696385193
0.581379244850464 0.3402455595192273 -0.0948722696385193
0.5924674413644657 0.49135929650283133 -0.09358754098716433
0.35033562069640733 0.476772685045909 -0.09358754098716433
0.30530094020237264 0.4625023144877817 -0.09289576402105013
0.33118328126313124 0.47151518010344107 -0.09289576402105013
0.44039509915638925 0.4445754085373365 -0.09289576402105013
0.46803653021669533 0.2650592858307007 -0.09289576402105013
0.5571966986207288 0.3809516927110045 -0.09289576402105013
0.541196885647316 0.3704070352418065 -0.09289576402105013
0.5307411709309043 0.43642232286527627 -0.09289576402105013
0.6073208810797466 0.35963507962659974 -0.09289576402105013
0.591815194510701 0.42141076270059796 -0.09289576402105013
0.5488261973307469 0.4047389378172457 -0.09289576402105013
0.49092446526698813 0.5434204544669688 -0.09161103536969518
0.6119162566403624 0.32215065059129716 -0.09161103536969518
0.5065289771169071 0.4653188349926752 -0.09161103536969518
0.4433005624140689 0.48398693054967146 -0.09161103536969518
0.3132959054250354 0.34731156710167954 -0.09091925840358098
0.43588866634855955 0.47491476976548797 -0.09091925840358098
0.4549817106133116 0.5387163710973922 -0.09091925840358098
0.5749358365375143 0.3212216929510867 -0.09091925840358098
0.5797782753003139 0.4625912572405678 -0.09091925840358098
0.5130316805983807 0.5246634161571866 -0.09091925840358098
0.6355552638252935 0.36986349619700254 -0.09091925840358098
0.5548150093516784 0.4201260340492431 -0.09091925840358098
0.6013123040026404 0.4437255111218248 -0.09091925840358098
0.6170255236615201 0.4657339011723437 -0.09042513199921368
0.42096604893666756 0.4653188349926752 -0.08963452975222604
0.6236764650643039 0.4816843015053198 -0.08963452975222604
0.6119162566403624 0.3292561882860987 -0.08963452975222604
0.3095010146394946 0.454191108366324 -0.08894275278611183
0.4415118248302593 0.368074758613193 -0.08894275278611183
0.4703193942048723 0.3323197719931759 -0.08894275278611183
0.592299438386981 0.46860971684576147 -0.08894275278611183
0.5871209936692118 0.3220814728946857 -0.08894275278611183
0.6450919034295821 0.3829479633846483 -0.08894275278611183
0.5641144682818707 0.4093343133778615 -0.08894275278611183
0.5436774001972399 0.42411857539653075 -0.08894275278611183
0.35033562069640733 0.32283254502932407 -0.08844862638174454
0.4205905128693483 0.29611018908114106 -0.08844862638174454
0.6552709073595483 0.3872270980464691 -0.08844862638174454
0.5380641242436274 0.3746268747351032 -0.08696624716864268
0.5362852691879051 0.3826613700701153 -0.08696624716864268
0.5865774546244077 0.3274970982865512 -0.08696624716864268
0.4575314028598468 0.5442110567139566 -0.08696624716864268
0.5255133135726983 0.5195343840798541 -0.08696624716864268
0.5725936773808135 0.4957767865578749 -0.08696624716864268
0.44533636320006215 0.4352364194947947 -0.08696624716864268
0.4334377993828979 0.35568206839166133 -0.08696624716864268
0.33568971407096093 0.46456776285803697 -0.08696624716864268
0.2913863406553898 0.36119651906440037 -0.08647212076427539
0.3493473678876728 0.32111298514212583 -0.08647212076427539
0.6627223335374068 0.38973726018065485 -0.08647212076427539
0.5323816705934037 0.38106040051996526 -0.08498974155117354
0.5473635831738198 0.42466211444133484 -0.08498974155117354
0.6175690627063242 0.3541601590662101 -0.08498974155117354
0.5468101616009285 0.3014665193044825 -0.08498974155117354
0.5948787782177781 0.35157093670732553 -0.08498974155117354
0.6334996979831256 0.4059347237158145 -0.08498974155117354
0.4354044224722797 0.47575478465291243 -0.08498974155117354
0.4706257525755799 0.46847136145253854 -0.08498974155117354
0.3004090887991366 0.3304618567127549 -0.08498974155117354
0.35033562069640733 0.32273371974845055 -0.08370501289981856
0.4284273576426136 0.38565577608058105 -0.08370501289981856
0.6488571466308609 0.3742118085554347 -0.08370501289981856
