0.49011299962181115 0.5541747302069899 -0.05601462897603275
0.3503464977142922 0.34617040707188257 -0.054714289374803396
0.5318338955966383 0.32606515631441363 -0.054714289374803396
0.37719350917351935 0.45854975645504836 -0.05401410651260298
0.33782322709322193 0.4126477685316529 -0.05401410651260298
0.48988293953851675 0.4593799732773717 -0.05401410651260298
0.5235717378226735 0.2776825205363653 -0.05401410651260298
0.6429029027662576 0.44423601822920855 -0.05401410651260298
0.6944863744857936 0.3876412377387812 -0.05401410651260298
0.6262185454212534 0.48126568902729305 -0.05401410651260298
0.6189766541036379 0.5068523713345594 -0.05401410651260298
0.6521853269965716 0.4240707517978367 -0.05401410651260298
0.5075075424413328 0.5446722485056987 -0.05401410651260298
0.6469339555300687 0.31289171589272885 -0.05351397589674558
0.32426968740348555 0.3392385967360986 -0.05271376691137366
0.34061395592970656 0.3761682414110115 -0.05201358404917325
0.36615062517538716 0.4588898452738313 -0.05201358404917325
0.6804727146294681 0.4362239257631724 -0.05201358404917325
0.6985274298619216 0.4160586593318006 -0.05201358404917325
0.6283591044571236 0.3342973062514271 -0.05201358404917325
0.5679533286738624 0.5100732125006813 -0.05201358404917325
0.7059493682012459 0.41980963895073137 -0.05201358404917325
0.6357710401841307 0.34650049327834853 -0.05201358404917325
0.4703678429077595 0.34579030780383085 -0.05201358404917325
0.5215912205838781 0.4005646128525373 -0.05201358404917325
0.31174641678241527 0.40352538609841326 -0.05071324444794393
0.5134190863207676 0.43303309243400195 -0.05071324444794393
0.34638546323670133 0.40251512225438124 -0.050013061585743514
0.3780637364451113 0.32509490291965026 -0.050013061585743514
0.6385017533467122 0.47994534420142937 -0.050013061585743514
0.64468336775871 0.4742238499560203 -0.050013061585743514
0.6511350527032711 0.38424034955095054 -0.050013061585743514
0.5938700971875948 0.2821236804051793 -0.050013061585743514
0.5966008103501763 0.5042316869074664 -0.050013061585743514
0.515329585273343 0.3134718674071234 -0.050013061585743514
0.49768497714589277 0.3194434269604613 -0.050013061585743514
0.33121150035158675 0.45411859919855146 -0.04951293096988607
0.47835993014916145 0.3086806161072092 -0.04871272198451419
0.5274227435647758 0.4272715877393242 -0.04801253912231378
0.4816407869891861 0.41568856267606613 -0.04801253912231378
0.5761054577123386 0.2964074107940677 -0.04801253912231378
0.6178063484625316 0.5039716189872206 -0.04801253912231378
0.5105883470350145 0.2731113267074284 -0.04801253912231378
0.4902330309696169 0.2782026563768571 -0.04801253912231378
0.6602974455857792 0.42156009610623235 -0.04801253912231378
0.498575209642119 0.5391107960573639 -0.04801253912231378
0.3764133054127817 0.4791451352160575 -0.04801253912231378
0.35428752696724874 0.4250710130295515 -0.04801253912231378
0.5243019285218253 0.37361757527013867 -0.046712199521084456
0.38662597258859055 0.47227334055417636 -0.04601201665888405
0.3469656147510959 0.4153084634080144 -0.04601201665888405
0.5294732790897914 0.26962041500874345 -0.04601201665888405
0.6283491018448064 0.33882848963109535 -0.04601201665888405
0.6997777564015653 0.42372066036673656 -0.04601201665888405
0.5083577644882904 0.5654576769007338 -0.04601201665888405
0.6637083363859271 0.385280621231934 -0.04601201665888405
0.4734486475014414 0.34075899380830504 -0.04601201665888405
0.4851717091371397 0.4095269534887024 -0.04601201665888405
0.49551441027307136 0.3883314179886643 -0.045511886043026605
0.550168683973972 0.32606515631441363 -0.044711677057654685
0.521851288504124 0.4454863447688521 -0.044011494195454276
0.4768395330769548 0.4019849838015724 -0.044011494195454276
0.48302114748895264 0.4608803651249439 -0.044011494195454276
0.5787061369147971 0.5211060938864963 -0.044011494195454276
0.5183903846423905 0.25891761982939443 -0.044011494195454276
0.5999216776394696 0.3002084034745843 -0.044011494195454276
0.6733008415980727 0.4339333275425454 -0.044011494195454276
0.37117193655859576 0.3527021129149806 -0.044011494195454276
0.37470285870654935 0.4529883040067137 -0.044011494195454276
0.32491985720410016 0.34483005702138464 -0.04351136357959687
0.5620517874067446 0.39193235842283797 -0.04271115459422495
0.3379632636656621 0.4728134816193024 -0.04201097173202454
0.34561526208828086 0.43327315512961356 -0.04201097173202454
0.5167899666716468 0.26918030006678895 -0.04201097173202454
0.5305235533830919 0.28580464173789 -0.04201097173202454
0.638021627955489 0.4893578023918663 -0.04201097173202454
0.5782260115235742 0.5250971362010386 -0.04201097173202454
0.5886087231087744 0.5258873425740934 -0.04201097173202454
0.6844637569440105 0.4005546102402201 -0.04201097173202454
0.49115327130279457 0.44892724340595125 -0.04201097173202454
0.48195086797101777 0.45677929407491297 -0.04201097173202454
0.6064333782579335 0.5253371988966502 -0.04071063213079522
0.36045913876692953 0.3169327712688569 -0.04071063213079522
0.5197907503667913 0.5333792991996379 -0.0400104492685948
0.6710202459897627 0.4490272695291228 -0.0400104492685948
0.6826732893392409 0.37106690912926565 -0.0400104492685948
0.49508429794343406 0.39527323093676553 -0.0400104492685948
0.4962345983599061 0.46092037557421256 -0.0400104492685948
0.6345707267060727 0.33507751001216457 -0.0400104492685948
0.5368051939182612 0.29236635541793965 -0.0400104492685948
0.35671816176031595 0.36472525292019337 -0.0400104492685948
0.36117932685376425 0.4793651926870348 -0.0400104492685948
0.3545876053367632 0.38236986104764376 -0.0400104492685948
0.5309236578757779 0.41422818127776245 -0.03871010966736548
0.6661889842405798 0.3865809608331633 -0.038009926805165066
0.5228815575727903 0.5403011069231046 -0.038009926805165066
0.5891988772354861 0.5102232516854386 -0.038009926805165066
0.4719082452046004 0.3307263736542049 -0.038009926805165066
0.4819008549094321 0.314722193946767 -0.038009926805165066
0.5352147785598347 0.2661195006977415 -0.038009926805165066
0.5175901756570186 0.26924031574069185 -0.038009926805165066
0.6464938405881141 0.32767557689747456 -0.038009926805165066
0.3463654580120671 0.42171013529098955 -0.038009926805165066
0.3516068268662529 0.3936027946798017 -0.038009926805165066
0.3487960928051342 0.3467205507493257 -0.036709587203935745
0.6673592898816861 0.46808224599329107 -0.036709587203935745
0.34709564871121884 0.4129978599627531 -0.036009404341735336
0.37922403947390054 0.3417892628769714 -0.036009404341735336
0.5977411081543313 0.3145721547620098 -0.036009404341735336
0.5854378950042382 0.2875651015057082 -0.036009404341735336
0.47446891395779045 0.4801253912231381 -0.036009404341735336
0.4997355126709082 0.34418988983308707 -0.036009404341735336
0.6069335088737908 0.4916584032248106 -0.036009404341735336
0.5577306588857365 0.5481631602043835 -0.036009404341735336
0.6603574612596821 0.3765883511283318 -0.036009404341735336
0.32231917800164145 0.39193235842283797 -0.034709064740505974
0.6534356535362151 0.44815704225753084 -0.034709064740505974
0.3537573885144399 0.41431820478861675 -0.034008881878305565
0.3475157584285391 0.36195452930834326 -0.034008881878305565
0.6531255725543837 0.33805828848267494 -0.034008881878305565
0.47341863966448994 0.328035670940892 -0.034008881878305565
0.48110064592406016 0.3333270528566636 -0.034008881878305565
0.5300234227672345 0.45333839543781385 -0.034008881878305565
0.5983512675056775 0.5244869768496926 -0.034008881878305565
0.6877246085594009 0.4497374550036403 -0.034008881878305565
0.4670069651691976 0.31289171589272885 -0.032708542277076244
0.6602274272995592 0.45864978257821976 -0.032708542277076244
0.37602320353241286 0.47374372456479713 -0.03200835941487583
0.3697615682218779 0.34914118293007573 -0.03200835941487583
0.6401321791544076 0.3168327451456854 -0.03200835941487583
0.5559802017302353 0.28106340349956166 -0.03200835941487583
0.4725784202298494 0.4316227240972839 -0.03200835941487583
0.5330842221362819 0.3828399838265497 -0.03200835941487583
0.6229977042551319 0.49433910332580644 -0.03200835941487583
0.6709802355404941 0.44406597381981694 -0.03200835941487583
0.6937961942359102 0.4602702057735979 -0.030708019813646507
0.5300834384411374 0.30892067880282076 -0.030708019813646507
0.34727569573292755 0.4454163264826321 -0.030007836951446095
0.33817331852432225 0.35153180727387434 -0.030007836951446095
0.5921496478690452 0.29753770598590545 -0.030007836951446095
0.5476580282823676 0.29501704768198406 -0.030007836951446095
0.4824610011991924 0.4667218907181588 -0.030007836951446095
0.4749990524105995 0.4512878599127984 -0.030007836951446095
0.5344445774114143 0.4458164309753179 -0.030007836951446095
0.6404422601362392 0.4924386069855481 -0.030007836951446095
0.6875445615376922 0.3907320449447801 -0.030007836951446095
0.6937961942359102 0.4606703102662839 -0.02870749735021677
0.4915633784077977 0.3103310471395388 -0.02870749735021677
0.6681394936424238 0.421200002062815 -0.02800731448801636
0.5449773281813718 0.5548849156815074 -0.02800731448801636
0.5288931275753966 0.38954173407903936 -0.02800731448801636
0.46850735701676993 0.4837963499435317 -0.02800731448801636
0.6096642220363726 0.30602992384316474 -0.02800731448801636
0.609094073134295 0.3017688109960594 -0.02800731448801636
0.3326518765252561 0.35512274509573066 -0.02800731448801636
0.33905354840823126 0.43834447957440786 -0.02800731448801636
0.6773318943618836 0.48415644398694907 -0.027507183872158916
0.5225314661416901 0.4067662324891694 -0.026706974886787038
0.6789123071079929 0.4127677998794587 -0.026006792024586625
0.5556501155237695 0.5470128597879116 -0.026006792024586625
0.5231916385546219 0.44886722773204835 -0.026006792024586625
0.48081057016686274 0.4808955923715585 -0.026006792024586625
0.5043867273983823 0.401224785265469 -0.026006792024586625
0.5121487545564898 0.2794629855288177 -0.026006792024586625
0.36051915444083243 0.3269353835860056 -0.026006792024586625
0.34116409960714966 0.43711415825939864 -0.026006792024586625
0.35059656302222086 0.44964743149278597 -0.026006792024586625
0.3597289480677777 0.4914083379168818 -0.024706452423357266
0.6850038980091365 0.42680146496041826 -0.024006269561156854
0.5911893970865989 0.5248870813423785 -0.024006269561156854
0.6038326990554747 0.5026912846106255 -0.024006269561156854
0.5025862571812956 0.3878112821481726 -0.024006269561156854
0.5344445774114143 0.3567931813526945 -0.024006269561156854
0.5655426991054296 0.29141610724781053 -0.024006269561156854
0.5173401103490899 0.2681000179365368 -0.024006269561156854
0.37597319047082717 0.45841972249492535 -0.024006269561156854
0.38745618941091386 0.45929995237883453 -0.024006269561156854
0.6498847261636275 0.4468667052686186 -0.022705929959927533
0.5405661761495092 0.44185539649772715 -0.022705929959927533
0.3324618268912304 0.46395116710630857 -0.02200574709772712
0.3682611763743055 0.3482409478215323 -0.02200574709772712
0.691555609076869 0.4294821650614141 -0.02200574709772712
0.6863142402226831 0.445146255950069 -0.02200574709772712
0.6702300396167079 0.4627508536282508 -0.02200574709772712
0.65650645551758 0.3515017994369229 -0.02200574709772712
0.5231216202684018 0.4917884371849334 -0.02200574709772712
0.5257923177570805 0.3191533512032638 -0.02200574709772712
0.47115804928081434 0.3658455454997141 -0.02200574709772712
0.5313437675930981 0.30979090607441273 -0.020705407496497796
0.4648464009086935 0.40510579884452275 -0.020705407496497796
0.33286193138391623 0.4730935547641825 -0.020005224634297384
0.33930361371616 0.34505011449236184 -0.020005224634297384
0.5826571687800709 0.5213161487451564 -0.020005224634297384
0.5320739582922499 0.5368201978367371 -0.020005224634297384
0.5344345747990971 0.2906859165486587 -0.020005224634297384
0.6299595224278673 0.3158924995878734 -0.020005224634297384
0.4874322995208153 0.4649514283380235 -0.020005224634297384
0.5311937284083409 0.3821798114136179 -0.020005224634297384
0.5277128193219731 0.4615005270886072 -0.020005224634297384
0.544987330793689 0.40510579884452275 -0.018704885033068063
0.36162944440803596 0.3472406865898175 -0.01800470217086765
0.3280406722470506 0.4363739649479297 -0.01800470217086765
0.3781037468943798 0.3200835941487587 -0.01800470217086765
0.5943002095172322 0.5221963786290655 -0.01800470217086765
0.5738648725532973 0.2657494040420069 -0.01800470217086765
0.6236578766680634 0.3096608721142897 -0.01800470217086765
0.4783799353737957 0.4911382673843188 -0.01800470217086765
0.5179802775373874 0.40697628734782954 -0.01800470217086765
0.5283429838979535 0.46978269008720624 -0.01800470217086765
0.5620517874067446 0.40510579884452275 -0.016704362569638326
0.33293194967013634 0.33601775556997665 -0.016004179707437914
0.3542575191302973 0.38468046449290505 -0.016004179707437914
0.6147255438688496 0.49540938284374136 -0.016004179707437914
0.6122148881772456 0.5134540954638775 -0.016004179707437914
0.67636164096712 0.39760383960666124 -0.016004179707437914
0.6645685610452017 0.45401857307537996 -0.016004179707437914
0.48139072168125746 0.41397811596983364 -0.016004179707437914
0.4729885273348525 0.3659655768475199 -0.016004179707437914
0.5171400581027469 0.48789742099356265 -0.016004179707437914
0.5432868866997735 0.4709730009529469 -0.014703840106208557
0.3491161763992829 0.42723157729005573 -0.014003657244008145
0.3693214532799232 0.342769518884052 -0.014003657244008145
0.6230977303783033 0.3277155873467432 -0.014003657244008145
0.6777720093038382 0.4197296180521942 -0.014003657244008145
0.6349008129125387 0.5069724026823652 -0.014003657244008145
0.6624079967846978 0.34940125085032153 -0.014003657244008145
0.5352347837844689 0.40400551148963637 -0.014003657244008145
0.489632874230588 0.3805893960551913 -0.014003657244008145
0.5272026860937985 0.4547887742238004 -0.014003657244008145
0.5438970460511197 0.36558547757946824 -0.012703317642778822
0.3345623754778315 0.4301323348620288 -0.01200313478057841
0.3914472317254562 0.3432696494999094 -0.01200313478057841
0.3781637625682827 0.4735036618691856 -0.01200313478057841
0.4961945879106376 0.38286999166350116 -0.01200313478057841
0.5267825763764783 0.3294160314406585 -0.01200313478057841
0.6376715365243889 0.31565243689226186 -0.01200313478057841
0.685714083483654 0.4387945971286796 -0.01200313478057841
0.672660674409775 0.44368587455176534 -0.01200313478057841
0.5360950084437437 0.383130059583747 -0.011503004164720967
0.5620517874067446 0.44462612010957725 -0.010702795179349087
0.334122260535877 0.4774947041837279 -0.010002612317148675
0.35484767325700917 0.47380374023870003 -0.010002612317148675
0.5259123491048863 0.4778748034517797 -0.010002612317148675
0.48391137998517886 0.36704585897777187 -0.010002612317148675
0.48360129900334736 0.3393686306962214 -0.010002612317148675
0.7056893002810002 0.41687887354180686 -0.010002612317148675
0.6763916488040717 0.4672120187216991 -0.010002612317148675
0.677221865626395 0.445476342156535 -0.010002612317148675
0.5446272367502716 0.36241464947493207 -0.008702272715919352
0.3512667380474699 0.29970827285872675 -0.008702272715919352
0.6790023306188474 0.42460089025064557 -0.00800208985371894
0.6799325735643421 0.4047457048011054 -0.00800208985371894
0.6076536969606255 0.31362190659188066 -0.00800208985371894
0.4790301051744103 0.31896330156923813 -0.00800208985371894
0.5239118266414566 0.41817921314303613 -0.00800208985371894
0.5281429316516104 0.45904988707090577 -0.00800208985371894
0.33562265238344924 0.4508877554201124 -0.00800208985371894
0.3265002699502097 0.4314826875248439 -0.00800208985371894
0.4660667196113857 0.378758918001153 -0.006701750252489617
0.6866243212045147 0.398123975447153 -0.006001567390289205
0.684833853599745 0.45482878467306903 -0.006001567390289205
0.6966469387462978 0.38751120377865816 -0.006001567390289205
0.5245119833804854 0.34946126652422443 -0.006001567390289205
0.5090779525751251 0.3872011227968265 -0.006001567390289205
0.5071574510102325 0.4865670735553819 -0.006001567390289205
0.33642286136882127 0.3393086150223185 -0.006001567390289205
0.3707018137796898 0.3330069692625149 -0.006001567390289205
0.3228493164544503 0.32606515631441363 -0.004701227789059847
0.6374914895026802 0.4800353677122837 -0.004001044926859434
0.6442032423674868 0.486647094453919 -0.004001044926859434
0.7028585609952469 0.43586383171975507 -0.004001044926859434
0.5712541907385216 0.5252271701611616 -0.004001044926859434
0.3454152098419378 0.41080728786529747 -0.004001044926859434
0.38148462985757614 0.3384183825260923 -0.004001044926859434
0.5369452304907014 0.4192094822117024 -0.004001044926859434
0.5348846923533688 0.48148574649827025 -0.004001044926859434
0.5620517874067446 0.45779956053126214 -0.0027007053256301117
0.47597930841768005 0.4468066895947157 -0.0027007053256301117
0.6478241880262949 0.48320619581681995 -0.0020005224634296994
0.7099604157404226 0.3916122748286891 -0.0020005224634296994
0.6217673829401223 0.5007207699841473 -0.0020005224634296994
0.5177602200664101 0.4203997930774431 -0.0020005224634296994
0.5044367404599681 0.32056371953998186 -0.0020005224634296994
0.33514252699222624 0.35069158783923376 -0.0020005224634296994
0.37361257396398007 0.35456259880597035 -0.0020005224634296994
0.39546828187695 0.47719462581421346 -0.0020005224634296994
0.4039604997342093 0.49732988440863385 -7.00182862200377E-4
0.33628282479638105 0.47985532069057507 3.5536417602872594E-17
0.32698039534143286 0.34584032086541666 3.5536417602872594E-17
0.5051369233221684 0.4907981785655357 3.5536417602872594E-17
0.48043047089881113 0.42880198742384806 3.5536417602872594E-17
0.5785260898930884 0.2820836699559107 3.5536417602872594E-17
0.6689096947908442 0.3831500648083814 3.5536417602872594E-17
0.6281790574354149 0.31658267983775673 3.5536417602872594E-17
0.3622596089840164 0.4742338525683375 0.001300339601229358
0.3400238018029948 0.3397787378012245 0.0020005224634297705
0.34473503220437174 0.41961958931670545 0.0020005224634297705
0.526092396126595 0.48765735829795104 0.0020005224634297705
0.4939239949146448 0.41476832234288835 0.0020005224634297705
0.6451935009868848 0.34659051678920283 0.0020005224634297705
0.6087739895401462 0.48733727470380234 0.0020005224634297705
0.6438631535487039 0.48161578045839326 0.0020005224634297705
0.32491985720410016 0.32606515631441363 0.0033008620646590926
0.6847538327012078 0.43944476692929435 0.004001044926859505
0.6760115495360198 0.41591862275936053 0.004001044926859505
0.6380916462417091 0.3180630664606947 0.004001044926859505
0.49717484391771816 0.4030052502579216 0.004001044926859505
0.5185704316640992 0.3288658877632153 0.004001044926859505
0.39844906034746036 0.33905854971438987 0.004001044926859505
0.38397528032454614 0.47136310283331573 0.004001044926859505
0.5164098674035952 0.4757742548651784 0.005301384528088863
0.7013981795969434 0.4283718750942106 0.006001567390289276
0.6074336394896483 0.5230265954513889 0.006001567390289276
0.5303034959121147 0.4958695030103301 0.006001567390289276
0.5294432712528399 0.3828999995004526 0.006001567390289276
0.4815407608660147 0.3299861803427359 0.006001567390289276
0.39478810423938393 0.3312865199439653 0.006001567390289276
0.47393877550498165 0.3448600648583361 0.007301906991518598
0.5101382294807428 0.34816092692299516 0.007301906991518598
0.3935377776997403 0.3392085888991471 0.00800208985371901
0.3451451393093749 0.4436458641024967 0.00800208985371901
0.484861628155308 0.4832862167153571 0.00800208985371901
0.495214331903557 0.3400688135584219 0.00800208985371901
0.7108406456243317 0.4107172643544432 0.00800208985371901
0.6427128531322317 0.4689724784895173 0.00800208985371901
0.47210829745094346 0.378758918001153 0.009302429454948333
0.36297979707085093 0.4598200882193262 0.009302429454948333
0.3546976340722519 0.36762601049216653 0.010002612317148746
0.37569311732594696 0.4544486854050174 0.010002612317148746
0.5274927618509958 0.4063861332211178 0.010002612317148746
0.4689874824079931 0.3302062378137132 0.010002612317148746
0.608213843250386 0.2958672697289416 0.010002612317148746
0.6519052538516915 0.4650614570735121 0.010002612317148746
0.501275914967749 0.38115954495726867 0.011302951918378068
0.3448650661644947 0.3698665956512079 0.01200313478057848
0.33067135928646074 0.45979008038237473 0.01200313478057848
0.49700479950832654 0.46162055843641303 0.01200313478057848
0.5417964974645185 0.4352536723684089 0.01200313478057848
0.6844437517193763 0.37468785478807354 0.01200313478057848
0.6098742768950326 0.5071824575410253 0.01200313478057848
0.3494962756673345 0.46561160075095537 0.013303474381807803
0.4936039113204961 0.48415644398694907 0.013303474381807803
0.6843737334331563 0.3901819012673368 0.014003657244008216
0.6741410610327132 0.4370241347485443 0.014003657244008216
0.5008157948011602 0.347410730999209 0.014003657244008216
0.5039866229056964 0.48645704481989316 0.014003657244008216
0.33162160745658986 0.46640180712401 0.014003657244008216
0.3457052855991352 0.3779287011788297 0.014003657244008216
0.3425544627192334 0.38485050890229655 0.015303996845237573
0.6435630751791894 0.32254423677877725 0.016004179707437987
0.6829233546471696 0.4314626823002097 0.016004179707437987
0.536175029342281 0.36201454498224606 0.016004179707437987
0.36796109800479104 0.3300361934043217 0.016004179707437987
0.3335121011845309 0.4550188343070948 0.016004179707437987
0.48822250589386995 0.49115827260895306 0.016004179707437987
0.5357049065633749 0.4191494665377995 0.017304519308667308
0.4768295304646376 0.4665718515334015 0.017304519308667308
0.6458336681751822 0.347410730999209 0.01800470217086772
0.39909923014807497 0.338128306768895 0.01800470217086772
0.5226114870402272 0.36513536002519653 0.01800470217086772
0.5152995774363915 0.46037023189676946 0.01800470217086772
0.38164467165465044 0.4573294377523562 0.01800470217086772
0.45666426403326577 0.31035105236417304 0.01930504177209704
0.319388412592717 0.45350843984720535 0.01930504177209704
0.6818530751292348 0.4340733641149854 0.020005224634297457
0.343274650806068 0.3534323036141325 0.020005224634297457
0.49321380944012727 0.33507751001216457 0.020005224634297457
0.5262424353113522 0.4964096440754562 0.020005224634297457
0.35197692352198745 0.47299352864101113 0.020005224634297457
0.3570082375175132 0.34234940916673173 0.021305564235526778
0.7057693211795372 0.4329430689231476 0.02200574709772719
0.33619280128552675 0.3491011724808071 0.02200574709772719
0.5189105204828823 0.35599297236732264 0.02200574709772719
0.5064972785973008 0.45195803493804726 0.02200574709772719
0.33761317223456194 0.47620436719481585 0.02200574709772719
0.32491985720410016 0.44220548792882736 0.02330608669895651
0.5259423569418378 0.34340968607234945 0.02330608669895651
0.6781521085718897 0.36283475919225233 0.024006269561156927
0.3633098832773169 0.34826095304616655 0.024006269561156927
0.5227015105510816 0.3525520737302234 0.024006269561156927
0.528382994347222 0.496399641463139 0.024006269561156927
0.34336467431692236 0.46911251506195734 0.024006269561156927
0.45660424835936286 0.48415644398694907 0.025306609162386282
0.7181525552281673 0.4112974158688378 0.026006792024586695
0.5193906458741053 0.4878073974827083 0.026006792024586695
0.5337343919368966 0.3618945136344404 0.026006792024586695
0.33904354579591406 0.36294478792774093 0.026006792024586695
0.37098188692457 0.4598901065055463 0.026006792024586695
0.4923435821685353 0.35422250998718724 0.02730713162581602
0.6870544335341522 0.4064661541196549 0.02800731448801643
0.505507019977903 0.35186189348034025 0.02800731448801643
0.3529471769167508 0.35500271374792486 0.02800731448801643
0.3856057061322413 0.4774847015714109 0.02800731448801643
0.5206909854753348 0.4845565484796349 0.02800731448801643
0.4743388799976676 0.46697195602608754 0.029307654089245752
0.6918256796094321 0.433573233499128 0.030007836951446164
0.48716222898825223 0.32543499173843327 0.030007836951446164
0.36654072705575597 0.45633917913295846 0.030007836951446164
0.4887726495713132 0.4876273504609996 0.030007836951446164
0.4961845852983204 0.36558547757946824 0.03130817655267549
0.6957367010254372 0.42370065514210214 0.0320083594148759
0.5176501913309215 0.3203336594566875 0.0320083594148759
0.3596289219446062 0.35448257790743304 0.0320083594148759
0.3399537835167747 0.47984531807825787 0.0320083594148759
0.5210110690694835 0.494049027568609 0.0320083594148759
0.38051437646281266 0.49732988440863385 0.033308699016105225
0.7018783049881665 0.3980739623855672 0.034008881878305634
0.37938408127097484 0.48368632120804295 0.034008881878305634
0.38260492243709676 0.34512013277858195 0.034008881878305634
0.4709780022591057 0.3244447331190356 0.034008881878305634
0.4988352775623648 0.32707542015844565 0.03530922147953499
0.34930622603330874 0.4676721388882879 0.03530922147953499
0.5309836735496808 0.46950261694232615 0.036009404341735406
0.3586186581005742 0.4874072929900223 0.036009404341735406
0.37112192349701006 0.33285693007775763 0.036009404341735406
0.5215212022976581 0.5000806027958498 0.037309743942964727
0.35197692352198745 0.3762182544725972 0.037309743942964727
0.5422266097941558 0.48342625328779715 0.03800992680516514
0.3691614114828489 0.4682122799534139 0.03800992680516514
0.3801942928686639 0.35378239504523273 0.03800992680516514
0.5055370278148544 0.32706541754612845 0.03800992680516514
0.49665470807722634 0.49196848420664213 0.03931026640639446
0.4862619938797088 0.4900579852540667 0.04001044926859487
0.379594136129635 0.460480260632258 0.04001044926859487
0.4772096297326892 0.33860843216011816 0.04001044926859487
0.32491985720410016 0.43145267968789247 0.0413107888698242
0.31899831071234813 0.45779956053126214 0.0413107888698242
0.3582785692817911 0.48334623238926 0.04201097173202461
0.3448050504905918 0.3565131082078143 0.04201097173202461
0.5083877723252418 0.3429995789673464 0.04201097173202461
0.3907870593125244 0.49732988440863385 0.04331131133325393
0.5405861813741435 0.34634045148127407 0.044011494195454345
0.37204216383018773 0.33264687521909747 0.044011494195454345
0.3531372265507767 0.4812956968642445 0.044011494195454345
0.4939840105885477 0.4738537533002859 0.044011494195454345
0.35835859018032834 0.49538937761910695 0.0453118337966837
0.4866921062093463 0.3174228992723971 0.04601201665888412
0.3438848101574141 0.37258730620147223 0.04601201665888412
0.4745089244070591 0.4903380583989469 0.04601201665888412
0.3703717275732239 0.3598739859463762 0.04731235626011344
0.3907870593125244 0.46492142050107205 0.04731235626011344
0.3869160483457878 0.48200588233876207 0.04801253912231385
0.3253999825953233 0.34840098961860677 0.04801253912231385
0.5251921610180517 0.35008142848788765 0.04801253912231385
0.380264311154884 0.36558547757946824 0.049312878723543174
0.545067351692226 0.4615405375378757 0.05001306158574358
0.3299011581380403 0.44711677057654736 0.05001306158574358
0.4018299433106565 0.33380717824788675 0.05001306158574358
0.5274427487894101 0.3416392236922142 0.05001306158574358
0.5357049065633749 0.36558547757946824 0.051313401186972904
0.39673861364122787 0.47452392832553475 0.05201358404917332
0.3474557427546362 0.3744878025417305 0.05201358404917332
0.533294276994942 0.34834097394470387 0.05201358404917332
0.35373738328980564 0.4277717183551818 0.05331392365040264
0.5341244938172653 0.4618006054581217 0.054014106512603056
0.3312915212501239 0.4444360704755515 0.054014106512603056
0.37723351962278795 0.349561292647396 0.054014106512603056
0.5309236578757779 0.32028364639510165 0.054014106512603056
0.32491985720410016 0.43580381604585217 0.05531444611383241
0.5333242848318935 0.4675120970912136 0.05601462897603283
0.36377000344390575 0.4897479042722352 0.05601462897603283
0.34351471350167956 0.3791790277184733 0.05601462897603283
0.48815248760765 0.33876847395719245 0.05601462897603283
0.3498963801600205 0.40510579884452275 0.05731496857726215
0.3479558733704936 0.33005619862895597 0.05731496857726215
0.5072874849703555 0.47046286772477247 0.05801515143946256
0.4547037520191046 0.33131652778091675 0.05801515143946256
0.3440048415052199 0.3565631212694001 0.05801515143946256
0.33811330285041935 0.4475368802938676 0.05801515143946256
0.3978989166700171 0.31289171589272885 0.059315491040691885
0.38375522285356894 0.44462612010957725 0.059315491040691885
0.5072974875826727 0.46941259343147185 0.060015673902892294
0.4799303402829537 0.3338471886971554 0.060015673902892294
0.3393936372270144 0.44206545135638714 0.060015673902892294
0.41713394015589406 0.32606515631441363 0.06051580451874974
0.5620517874067446 0.378758918001153 0.061316013504121615
0.509147970861345 0.4906881498300471 0.06201619636632203
0.5365251207733811 0.34284953978258914 0.06201619636632203
0.401859951147608 0.3368279671676657 0.06201619636632203
0.3997393973363726 0.4799253389767951 0.06201619636632203
0.4223052907238601 0.48415644398694907 0.06251632698217947
0.3467955703417044 0.32606515631441363 0.06331653596755135
0.49032305448047125 0.4837263316573116 0.06401671882975177
0.5167199483854267 0.47011277629367215 0.06401671882975177
0.48132070339503735 0.32989615683188156 0.06401671882975177
0.3397437286581146 0.3613643751816314 0.06401671882975177
0.37784367897413396 0.4803854591433839 0.06401671882975177
0.5225314661416901 0.4339933432164483 0.06531705843098112
0.4223052907238601 0.32239419759402 0.06531705843098112
0.535504854317032 0.4928287088659169 0.06601724129318154
0.4622457217062348 0.3274255115895458 0.06601724129318154
0.3323918086050103 0.3519819248281459 0.06601724129318154
0.37223221346421365 0.489607867699795 0.06601724129318154
0.4223052907238601 0.49732988440863385 0.06651737190903895
0.37995423017305235 0.454418677568066 0.06731758089441085
0.331091469003781 0.46774215717450796 0.06801776375661127
0.34748575059158765 0.3556028704869538 0.06801776375661127
0.4486221637302783 0.4856068227729356 0.06801776375661127
0.39510818783353263 0.3443099211808929 0.06801776375661127
0.5372253036355815 0.46177059762117023 0.06801776375661127
0.45666426403326577 0.29970827285872675 0.0693181033578406
0.4401899615469219 0.46631178361315573 0.0693181033578406
0.33448235457929437 0.3576834138489207 0.070018286220041
0.3960484333913447 0.4928287088659169 0.070018286220041
0.4970748177945466 0.3242946939342784 0.070018286220041
0.4170039061957712 0.3260951641513651 0.070018286220041
0.5370352540015557 0.4927786958043312 0.070018286220041
0.552529300480819 0.4709730009529469 0.07131862582127037
0.4452012703178135 0.475074072002978 0.07201880868347077
0.34231440002362185 0.45539893357514655 0.07201880868347077
0.3470656408742674 0.44219548531651015 0.07201880868347077
0.3693314558922404 0.3197034948807071 0.07201880868347077
0.5141492770199194 0.4607603337771381 0.07201880868347077
0.5164698830774981 0.48415644398694907 0.07331914828470006
0.38746619202323107 0.4721933196556391 0.07401933114690047
0.3682311685373541 0.4626008144434936 0.07401933114690047
0.3924074825079025 0.4797652971797207 0.07401933114690047
0.48856259471265306 0.3192633799387526 0.07401933114690047
0.5106783705458688 0.34589033392700236 0.07401933114690047
0.5620517874067446 0.44462612010957725 0.07531967074812983
0.45824467677937525 0.46986271098574356 0.07601985361033024
0.3251399146750775 0.41723896758522405 0.07601985361033024
0.47039785074471097 0.33347709204142084 0.07601985361033024
0.37613323226790163 0.3320167106431171 0.07601985361033024
0.5154096061718801 0.46831230607658547 0.07601985361033024
0.5156396662551745 0.32606515631441363 0.07732019321155953
0.3526671037718707 0.4253810940113832 0.07802037607375994
0.34088402646226956 0.3986841217369133 0.07802037607375994
0.4144632426672154 0.3466305272384714 0.07802037607375994
0.5286730701044194 0.3575133694395292 0.07802037607375994
0.525752307307812 0.4182792392662075 0.0793207156749893
0.49756494579808697 0.494049027568609 0.08002089853718972
0.3254399930445918 0.3492412090532473 0.08002089853718972
0.4730985560703411 0.4733336174597941 0.08002089853718972
0.4730485430087554 0.324274688709644 0.08002089853718972
0.5428867822070876 0.49417906152873203 0.08002089853718972
0.3198885432085744 0.32606515631441363 0.08132123813841907
0.4759893110299971 0.49211852339139933 0.08202142100061949
0.348446001374034 0.37386764057806726 0.08202142100061949
0.47684953568927185 0.33645787051193116 0.08202142100061949
0.46171558325342593 0.3238245711553723 0.08202142100061949
0.5190505570553223 0.4432057491605422 0.08202142100061949
0.5541897341254657 0.4430457073634679 0.08332176060184877
0.4615255336194001 0.4724833954128365 0.08402194346404919
0.3385234099554224 0.3811895527942201 0.08402194346404919
0.40864172229863494 0.47840494190458854 0.08402194346404919
0.45849474208730406 0.3355976458526564 0.08402194346404919
0.537465366331193 0.4494773870833945 0.08402194346404919
0.36609060950148425 0.39193235842283797 0.08532228306527855
0.46736705921261495 0.4710230140145328 0.08602246592747896
0.37486290050362364 0.4695226221669604 0.08602246592747896
0.35268710899650496 0.43608388919073227 0.08602246592747896
0.46880743538628444 0.3218540565288941 0.08602246592747896
0.4481720461760066 0.32790563698076897 0.08602246592747896
0.5381455439687591 0.4805154931035069 0.08602246592747896
0.5171100502657955 0.31950344263436403 0.08732280552870825
0.4593249589096274 0.48392638390365456 0.08802298839090865
0.3436647526864368 0.3809594927109258 0.08802298839090865
0.34816592822915376 0.38180971475788344 0.08802298839090865
0.44292067470950347 0.3225142289418258 0.08802298839090865
0.5155696479689547 0.3487310758250727 0.08802298839090865
0.367550990899788 0.43304309504631916 0.08932332799213802
0.5412663590117097 0.40719634481880684 0.08932332799213802
0.3550877359526207 0.35929383443198165 0.09002351085433842
0.3323517981557416 0.34716066569128023 0.09002351085433842
0.43525867367456766 0.3281356970640635 0.09002351085433842
0.5448472942212488 0.3195834635329013 0.09002351085433842
0.44711176927038876 0.4674920918665792 0.09052364147019583
0.4430006956080406 0.33328704240739493 0.09132385045556778
0.5400160324720661 0.4465166138375184 0.09202403331776819
0.5303835168106518 0.31955345569594984 0.09202403331776819
0.41112237015328773 0.35190190392960874 0.09202403331776819
0.3292609909497427 0.42211023978367557 0.09202403331776819
0.42320552583240334 0.46720201610938195 0.09202403331776819
0.5094380466185424 0.3083205220637918 0.09332437291899748
0.3293210066236456 0.4119775935064039 0.0940245557811979
0.3596689323938748 0.4386945710055082 0.0940245557811979
0.3732324746959284 0.3264352529701482 0.0940245557811979
0.5239918475399938 0.37010665834681944 0.0940245557811979
0.532013942618347 0.486777128414042 0.0940245557811979
0.5068173621914495 0.436193917926221 0.09532489538242725
0.33293194967013634 0.3838102372213131 0.09602507824462767
0.35264709854723647 0.45514886826721773 0.09602507824462767
0.42259536648105733 0.4614105035777529 0.09602507824462767
0.5443371609930744 0.42134003863525515 0.09602507824462767
0.3910671324574046 0.3274855272634487 0.09602507824462767
0.32403962732019104 0.49732988440863385 0.09732541784585695
0.5526193239916735 0.3392385967360986 0.09732541784585695
0.40793153682411726 0.34596035221322247 0.09802560070805737
0.5298433757455258 0.37254729575220374 0.09802560070805737
0.4803004369386882 0.487247251192948 0.09802560070805737
0.33443234151770856 0.3987941504724019 0.09802560070805737
0.3603191021944895 0.44242554539980455 0.09802560070805737
0.5271226651952614 0.4624807830956878 0.09932594030928672
0.31174641678241527 0.34300958157966355 0.09932594030928672
0.3429045541503336 0.39805395716093295 0.10002612317148714
0.44125023845253963 0.4674420788049935 0.10002612317148714
0.5403661239031663 0.4385845422700194 0.10002612317148714
0.5455174692464978 0.31802305601142605 0.10002612317148714
0.5179002566388502 0.41769908775181297 0.10052625378734455
0.5509188798977581 0.49732988440863385 0.1013264627727165
0.3861058367480989 0.46730204223255345 0.1013264627727165
0.4538235221351956 0.33798827019645494 0.10202664563491691
0.5142493031430909 0.4313026405031352 0.10202664563491691
0.4447811606004932 0.4729735234163767 0.10202664563491691
0.328210716656442 0.33254684909592597 0.10202664563491691
0.3742227333153262 0.31289171589272885 0.10252677625077432
0.38965676412068656 0.46251079093263925 0.1033269852361462
0.5537296139588769 0.35241203715778335 0.1033269852361462
0.3357026732819865 0.44230551405199875 0.1040271680983466
0.4184342797571235 0.31575246301543325 0.1040271680983466
0.5481681615105422 0.4374842549151331 0.1040271680983466
0.40273017841919995 0.47779478255324237 0.1040271680983466
0.5267425659272096 0.32469479842696425 0.10532750769957597
0.5382755779288821 0.4896178703121122 0.10602769056177637
0.5315938329010268 0.3191433485909468 0.10602769056177637
0.42321552844472055 0.4780248426365369 0.10602769056177637
0.34743573753000195 0.36299480098932674 0.10602769056177637
0.4343884464029757 0.4796452658319149 0.10602769056177637
0.3925075086310741 0.45779956053126214 0.10732803016300566
0.5460476076993067 0.4930487663368942 0.10802821302520607
0.5459075711268665 0.31967348704375564 0.10802821302520607
0.3529271716921165 0.36422512230433596 0.10802821302520607
0.45327337845775234 0.3180030507867918 0.10802821302520607
0.34865605623269413 0.44660663734837275 0.10802821302520607
0.4067912390199624 0.45405858352464856 0.10932855262643543
0.39148724217472486 0.36558547757946824 0.10932855262643543
0.53463462704544 0.43111259086910936 0.11002873548863584
0.32634022815313524 0.44383591373652254 0.11002873548863584
0.34871607190659704 0.3878012795358554 0.11002873548863584
0.3184981800964907 0.44401596075823124 0.11002873548863584
0.4792001495838018 0.40510579884452275 0.11052886610449325
0.3912771873160647 0.3674659686950921 0.1113290750898652
0.5538996583682684 0.35241203715778335 0.1113290750898652
0.531943924332127 0.3942129540311478 0.11202925795206561
0.32894090735559395 0.38265993680484106 0.11202925795206561
0.3336821455939225 0.36982658520193923 0.11202925795206561
0.436098893109208 0.33080639455274213 0.11202925795206561
0.3670608628962476 0.4337432779085195 0.11252938856792302
0.46729704092639485 0.46905249938805443 0.1133295975532949
0.3744427907863034 0.4082766269490588 0.1133295975532949
0.32475981540702575 0.3934327502704102 0.11402978041549532
0.34589533523316096 0.32810568922711203 0.11402978041549532
0.33904354579591406 0.4347535417525515 0.11402978041549532
0.5283529865102706 0.4131278939228761 0.11402978041549532
0.49325381988939576 0.3238545789923237 0.1145299110313528
0.459835092137802 0.37558808989661696 0.11533012001672467
0.522121359036687 0.368536248213027 0.11533012001672467
0.5206309698014319 0.42171013529098955 0.11603030287892509
0.32741050767107016 0.3975638291573926 0.11603030287892509
0.40810158123350887 0.32359451107207793 0.11603030287892509
0.35065657869612377 0.4359438526182922 0.11603030287892509
0.3907470488632559 0.4735136644815028 0.11733064248015437
0.462865883669898 0.4709730009529469 0.11733064248015437
0.45090275933858814 0.3171528287398341 0.11803082534235479
0.3415341962628842 0.4792651665638633 0.11803082534235479
0.35317723700004533 0.42088992108098344 0.11803082534235479
0.5499986395645805 0.4009447121205889 0.11803082534235479
0.5619617638958904 0.44462612010957725 0.11933116494358414
0.5193606380371539 0.4709730009529469 0.11933116494358414
0.33507250870600613 0.4892777814933292 0.12003134780578456
0.5164598804651809 0.4955494194161814 0.12003134780578456
0.37024169361310105 0.36580553505044544 0.12003134780578456
0.4241957844518011 0.4440559712074999 0.12003134780578456
0.5508788694484895 0.32795565004235483 0.12053147842164195
0.5225314661416901 0.30167878748520505 0.12133168740701392
0.4065811841613023 0.3860708276049887 0.12203187026921432
0.3284907898013223 0.4921985442899365 0.12203187026921432
0.4189844234345666 0.45614912949893255 0.12203187026921432
0.5450873569168604 0.44964743149278597 0.12203187026921432
0.5357049065633749 0.301668784872888 0.12253200088507173
0.36835119988515985 0.48353628202328575 0.12403239273264402
0.5305135507707748 0.3181230821345976 0.12403239273264402
0.36466023594013197 0.3896917732637966 0.12403239273264402
0.403670423977012 0.3786488892656645 0.12403239273264402
0.5154096061718801 0.3868710365903607 0.12533273233387338
0.3426744940670392 0.32327442747792917 0.1260329151960738
0.5426467195114761 0.32193407742743124 0.1260329151960738
0.4251160247849788 0.3900718725318482 0.1260329151960738
0.4581846611054724 0.4199696807478058 0.1260329151960738
0.4378293450400748 0.47029282331538086 0.1273332547973031
0.32465978928385436 0.4633109999180111 0.12803343765950348
0.44640158379587125 0.3155724159937247 0.12803343765950348
0.414703305362827 0.3886915120320817 0.12803343765950348
0.5085478141223162 0.4212400125120836 0.12803343765950348
0.4434808209992638 0.4603202188351836 0.12933377726073286
0.5362250424038667 0.37838882134541846 0.13003396012293325
0.5495685272349431 0.31576246562775045 0.13003396012293325
0.3574083420101992 0.4007846703235145 0.13003396012293325
0.36223960375938197 0.4005446076279029 0.13003396012293325
0.3861058367480989 0.34438994207943013 0.13133429972416263
0.33098144026829224 0.46277085885288505 0.13203448258636302
0.4702678167845881 0.31283170021882595 0.13203448258636302
0.35897875214399155 0.4154184921435031 0.13203448258636302
0.34292455937496785 0.33381718086020395 0.13253461320222043
0.45838471335181546 0.39193235842283797 0.13333482218759232
0.33226177464488726 0.47035283898928376 0.13403500504979274
0.5064372629233979 0.31016100273014713 0.13403500504979274
0.4247059176799757 0.5032714361250201 0.13403500504979274
0.3664507035449016 0.453818520829037 0.1345351356656502
0.5034764896775218 0.42520104698967454 0.1353353446510221
0.33949366335018577 0.344049853260647 0.1360355275132225
0.5439870695619742 0.499220378136575 0.1360355275132225
0.5024162127719041 0.49908034156413483 0.1360355275132225
0.3606391857886382 0.41913946392548246 0.1360355275132225
0.47244838626972646 0.4202797617296373 0.13733586711445178
0.4016198884519964 0.3627047252321293 0.13733586711445178
0.3405239324188522 0.42449086151515697 0.1380360499766522
0.32801066441009913 0.31961347136985274 0.1380360499766522
0.36077922236107823 0.40373544095707337 0.1380360499766522
0.4455313565242793 0.42944215461214563 0.13933638957788155
0.395198211344387 0.37889895457359307 0.13933638957788155
0.3821948153320937 0.463371015591914 0.14003657244008197
0.5275627801372159 0.5000405923465812 0.14003657244008197
0.3524470463008934 0.3135418856933435 0.14003657244008197
0.4274766412918259 0.43145267968789247 0.14053670305593938
0.4067912390199624 0.37183711027768623 0.14133691204131132
0.5377454394760733 0.49616958137984457 0.14203709490351174
0.3611393164044956 0.35179187519412014 0.14203709490351174
0.548828333923474 0.5006607543102444 0.14203709490351174
0.35958891149533756 0.3921724211184494 0.14203709490351174
0.4843715001517678 0.48415644398694907 0.14333743450474104
0.41575357965612764 0.34129913487343105 0.14403761736694146
0.3426144783931363 0.32746552203881446 0.14403761736694146
0.4941040419363535 0.30808045936818024 0.14403761736694146
0.36632066958477866 0.394092922683342 0.14403761736694146
0.5118186683500239 0.45779956053126214 0.1453379569681708
0.4698377044549507 0.4182792392662075 0.1453379569681708
0.5438870434388025 0.49070815505468146 0.14603813983037123
0.3534273023079739 0.457319435140039 0.14603813983037123
0.342664491454722 0.31945342957277834 0.14603813983037123
0.41106235447938483 0.31868322842435787 0.14603813983037123
0.48954285071973364 0.378758918001153 0.1465382704462286
0.5050669050359485 0.3923324629155238 0.1473384794316005
0.4489222420997928 0.4482770736053366 0.14803866229380092
0.4257261841363249 0.35749336421489486 0.14803866229380092
0.3324618268912304 0.4692125411851289 0.14803866229380092
0.5421165810586672 0.5045917809508838 0.14803866229380092
0.37846384093779717 0.3904519717998999 0.14803866229380092
0.5337844049984823 0.38475048277912516 0.14853879290965838
0.47369871280937004 0.39103212331429454 0.1500391847572307
0.5456975162682065 0.4612704670053127 0.1500391847572307
0.35884871818386854 0.360124051254305 0.1500391847572307
0.535174768110566 0.3070701955241482 0.1500391847572307
0.3474757479792705 0.36471525030787627 0.1500391847572307
0.5347046453316601 0.36558547757946824 0.1505393153730881
0.5396959488779173 0.4838963760667031 0.15203970722066046
0.5274427487894101 0.3117214102516224 0.15203970722066046
0.3643101445090318 0.43943476431697714 0.15203970722066046
0.42580620503486205 0.35115170800582257 0.15203970722066046
0.42057483879299334 0.377878688117244 0.15203970722066046
0.3867159960994449 0.4110973636224949 0.15203970722066046
0.4586747891090127 0.37177709460378333 0.15404022968409015
0.37447279862325483 0.3741677189475818 0.15404022968409015
0.5437770147033139 0.3116513919654023 0.15404022968409015
0.4450812389700077 0.31118126918649636 0.15404022968409015
0.33597274381454956 0.4244708562905227 0.15404022968409015
0.341994316429473 0.40821661127515607 0.15454036029994764
0.4193645227026182 0.33010621169054166 0.15604075214751992
0.41698390097113686 0.3810395136094629 0.15604075214751992
0.4079715472733859 0.3754980663857626 0.15604075214751992
0.33777321403163624 0.39516320220127693 0.15604075214751992
0.37740356403217945 0.3884114388872016 0.15604075214751992
0.3776136188908396 0.44462612010957725 0.15734109174874922
0.42383569040838376 0.3191333459786296 0.15804127461094963
0.4698176992303164 0.45396856001379426 0.15804127461094963
0.4176040629348002 0.31653266677617087 0.15804127461094963
0.5430068135548934 0.3847804906160766 0.15804127461094963
0.3482359465153739 0.41183755693396384 0.15804127461094963
0.41918447568090955 0.3414091636089198 0.1600417970743794
0.5465477383151642 0.47691455266933336 0.1600417970743794
0.36156942873413306 0.37161705280670887 0.1600417970743794
0.4937139400559847 0.47553419216956677 0.1600417970743794
0.35106668580112693 0.4010647434683947 0.1600417970743794
0.5079776652202388 0.4682222825657311 0.16204231953780918
0.440129945873019 0.3648452842679991 0.16204231953780918
0.34479504787827464 0.37828879522224707 0.16204231953780918
0.5109984541400175 0.32186405914121113 0.16204231953780918
0.5444671949531973 0.4946991973692237 0.16404284200123886
0.5440070747866083 0.5059621388383332 0.16404284200123886
0.4003895671369872 0.40577597386977166 0.16404284200123886
0.3755030676919212 0.41472831189361986 0.16404284200123886
0.5179402670881188 0.38965176281452796 0.16604336446466864
0.3487760875804999 0.38407030514155904 0.16604336446466864
0.37326248253287986 0.42625132128297516 0.16604336446466864
0.5014159515401891 0.4001144952982656 0.16804388692809832
0.38799633047603993 0.37585816042917986 0.16804388692809832
0.5449473203444202 0.4595500176867632 0.1700444093915281
0.38501555200552956 0.4254511122976033 0.1700444093915281
0.353227250061631 0.38817137619159 0.17404545431838758
0.3522269888299162 0.3806794195660457 0.17604597678181735
0.3723422421997022 0.38165967557312624 0.17804649924524704
0.4013198100824821 0.4236706473051507 0.18204754417210658
0.40584099084983327 0.4070663108586839 0.18604858909896604
0.40013950182905844 0.4261012820982179 0.19004963402582553
0.3895167275482465 0.38735116198158376 0.194050678952685
0.3534573101449254 0.43514364363292035 0.19805172387954445
0.34648548935987283 0.39159226960405485 0.20005224634297422
0.3794140891079263 0.3998944378272883 0.202052768806404
0.37362257657629727 0.3985140773275217 0.2040532912698337
0.381884734350262 0.4015948819212036 0.20605381373326348
0.364530201980009 0.3930026379407729 0.20805433619669317
0.3350525034813719 0.3855406891521798 0.21005485866012294
0.35873868944838 0.44363586149017964 0.2120553811235527
0.4059810274222733 0.38733115675694946 0.2140559035869824
0.3335521116337995 0.3986241060630104 0.21605642605041217
0.3670408576716134 0.4417353651499214 0.2180569485138419
0.39848907079672896 0.38237986365996085 0.22005747097727166
0.40699129126630534 0.40974701095967975 0.22205799344070143
0.37834380958999136 0.36903637882888457 0.22405851590413112
