0.1562608449137049 0.05787833794420234 -0.1502731107774788
0.3127489547171658 0.4940785083886569 -0.1502731107774788
0.4167342369280015 0.48720490498827973 -0.1502731107774788
0.1652772315603536 0.23897598866696285 -0.14980930488001745
0.2803938553102617 0.5121669383896496 -0.14980930488001745
0.510627102810078 0.3635171482532856 -0.14980930488001745
0.39551047906016995 -0.03256381206076176 -0.14980930488001745
0.13650271368185113 0.04350035512290038 -0.14980930488001745
0.5569613119664673 0.5688440190594273 -0.14906721544407925
0.4623634611202495 0.5077607823637668 -0.14906721544407925
0.5447446646273354 -0.12989811770200155 -0.14906721544407925
0.21324403747580692 -0.005366234233627919 -0.14906721544407925
0.3811232201209187 -0.03926116922010366 -0.14906721544407925
0.5234466978159098 0.3489350908371007 -0.14906721544407925
0.30916837318876417 0.532194077042031 -0.14906721544407925
0.12935082674299703 0.3489350908371007 -0.14906721544407925
0.39470345679858715 -0.019215478331823913 -0.14841788718763338
0.4398132183856785 0.494737112763052 -0.14841788718763338
0.15613097926241562 0.0642603070932706 -0.14841788718763338
0.45919102878161383 0.45342128341719445 -0.14841788718763338
0.38362777196721 -0.010106330505682921 -0.14841788718763338
0.39281112873694474 0.5052005738097802 -0.14841788718763338
0.15868191169845314 0.46275305807411693 -0.14841788718763338
0.11713417940386502 0.2863769513875133 -0.147954081290172
0.24201855535430924 -0.017582881572759928 -0.147954081290172
0.4958687991528577 -0.19098135439766198 -0.147954081290172
0.5936112539838634 0.47111084034637063 -0.147954081290172
0.5203113699490711 0.6788031212295652 -0.147954081290172
0.28998536126976254 0.5199217729952036 -0.147954081290172
0.5202186087695789 0.39780168019362905 -0.147954081290172
0.5082709688509743 0.1201303655014653 -0.147954081290172
0.21193610484496583 -0.020532687080614256 -0.147954081290172
0.41012036483020253 -0.02427096261415269 -0.14656266359778794
0.4695617286488497 0.46302206549464475 -0.14656266359778794
0.4669922439769138 0.10065979392603774 -0.14656266359778794
0.37877636227976424 -0.012026486921173 -0.14656266359778794
0.15265243503145548 0.46281799089976156 -0.14656266359778794
0.18635257154099757 0.28955865984409807 -0.14656266359778794
0.6180445486621278 0.47111084034637063 -0.1460988577003266
0.47143550447459354 -0.18863449655650752 -0.1460988577003266
0.5354685466781083 0.16567610463217042 -0.1460988577003266
0.5691779593055994 0.4588941930072385 -0.1460988577003266
0.45786454391487436 0.532194077042031 -0.1460988577003266
0.2803938553102617 0.5225098099030379 -0.1460988577003266
0.11713417940386502 0.48332748768550277 -0.1460988577003266
0.1874935340487524 -0.020532687080614256 -0.1460988577003266
0.3571351791042175 -0.05424209970810549 -0.1460988577003266
0.14508312278488628 0.44805968724254147 -0.14470744000794253
0.5334463529651766 0.24091469731835122 -0.14470744000794253
0.5055437901739015 0.15683596422655696 -0.14470744000794253
0.16446093318082167 0.03144140178890519 -0.14470744000794253
0.4394236214318109 0.4899228075474031 -0.14470744000794253
0.14745780897988842 0.08880491518692547 -0.14470744000794253
0.4820473834085094 0.11387826200368632 -0.14470744000794253
0.10491753206473288 0.532194077042031 -0.1442436341104812
0.12979608040455995 0.46817031095646555 -0.1442436341104812
0.48184330881362636 0.4955441350246349 -0.1442436341104812
0.5232518993389762 0.412958856922666 -0.1442436341104812
0.6058279013229956 0.39780168019362905 -0.1442436341104812
0.30039316560879536 -0.1641919257602941 -0.1442436341104812
0.25161933743175935 -0.029808805029841342 -0.1442436341104812
0.46266029689462473 -0.017582881572759928 -0.1442436341104812
0.4470022097963294 -0.21306779123477168 -0.1442436341104812
0.5307377265240023 0.225627654938025 -0.14285221641809712
0.22351270004560128 0.49050720297820455 -0.14285221641809712
0.5125565353435172 0.1718539991863556 -0.14285221641809712
0.20193644969569902 0.2485489423905652 -0.14285221641809712
0.3451689869497145 -0.016562508598344954 -0.14285221641809712
0.1926696078644212 0.027712402373315896 -0.14285221641809712
0.6302611960012598 0.07868467050431878 -0.14238841052063578
0.5080947226099389 0.6543698265513009 -0.14238841052063578
0.40030623203992033 0.5688440190594273 -0.14238841052063578
0.5936112539838634 0.39780168019362905 -0.14238841052063578
0.48663906179337685 0.03783264705592259 -0.14238841052063578
0.3475436731447166 -0.0664587470472375 -0.14238841052063578
0.23242704939480852 -0.017898269583033706 -0.14238841052063578
0.11713417940386502 0.43446089832897444 -0.14238841052063578
0.10491753206473288 0.5077607823637668 -0.14238841052063578
0.342618054513677 -0.03749870680975054 -0.1409969928282517
0.3559292837708179 0.5473790821249158 -0.1409969928282517
0.5065363347944688 0.3646302824071929 -0.1409969928282517
0.4541912012069804 0.01952159022414842 -0.1409969928282517
0.14503674219514007 0.45438599968391424 -0.1409969928282517
0.3161996705942782 0.5220274517696781 -0.1409969928282517
0.44994273918623445 0.5595679011102002 -0.14053318693079037
0.10491753206473288 0.44667754566810663 -0.14053318693079037
0.23722280237455887 -0.024196753670558915 -0.14053318693079037
0.5813946066447315 0.08015029714029667 -0.14053318693079037
0.22283554343530765 -0.019354620101062325 -0.14053318693079037
0.6424778433403917 0.08015029714029667 -0.14053318693079037
0.5489931266480814 0.30006850148057246 -0.14053318693079037
0.5936112539838634 0.5566273717202951 -0.14053318693079037
0.2660065963710105 0.5444107243811632 -0.14053318693079037
0.4817690998700326 0.04950200343605036 -0.1391417692384063
0.13425789313813827 0.04111639280994897 -0.1391417692384063
0.3936552554703245 0.5426482619708098 -0.1391417692384063
0.23885539913362286 0.0029544435668288293 -0.1391417692384063
0.1755829986019449 0.23225080315377314 -0.1391417692384063
0.438078584329173 -0.008492285982517478 -0.1391417692384063
0.1573925313035106 0.2713589164277146 -0.1391417692384063
0.4674560498743752 -0.029808805029841342 -0.13867796334094493
0.19885677853655567 -0.029808805029841342 -0.13867796334094493
0.11713417940386502 0.43446089832897444 -0.13867796334094493
0.328360661225715 0.5688440190594273 -0.13867796334094493
0.4958687991528577 0.693375902527801 -0.13867796334094493
0.6180445486621278 0.25119263600609487 -0.13867796334094493
0.5250143617493293 0.12374805150166387 -0.13867796334094493
0.6424778433403917 0.20232604664956658 -0.13867796334094493
0.40038971710146337 -0.05266515965673687 -0.13728654564856085
0.13897943717429484 0.48029419711610555 -0.13728654564856085
0.16037944128316176 0.22136991679932974 -0.13728654564856085
0.4186914978152884 0.5285578388059341 -0.13728654564856085
0.42056527364103224 -0.029493417019567564 -0.13728654564856085
0.3557066569400364 0.5385760461910992 -0.13728654564856085
0.14331138425658388 0.4529853058735808 -0.13728654564856085
0.4377260918471023 -0.07867539438636964 -0.13682273975109951
0.270802349350761 -0.05424209970810549 -0.13682273975109951
0.5489931266480814 0.17789275197130242 -0.13682273975109951
0.4962398438708268 0.4664727813717571 -0.13682273975109951
0.3139734022864638 0.5688440190594273 -0.13682273975109951
0.10491753206473288 0.5810606663985594 -0.13682273975109951
0.6669204141366053 0.20232604664956658 -0.13682273975109951
0.12641029735309212 0.006850413105504221 -0.13682273975109951
0.1652772315603536 0.5161649452257666 -0.13682273975109951
0.41049140954817165 -0.05853694231859757 -0.13543132205871544
0.14679920460549317 0.5057107602969876 -0.13543132205871544
0.5052655066354249 0.10163378631070649 -0.13543132205871544
0.15654840457013086 0.27885401973069 -0.13543132205871544
0.24910550946751883 -0.012991203187892611 -0.13543132205871544
0.14711459261576695 0.03961366170217426 -0.13543132205871544
0.10491753206473288 0.32450179615883656 -0.1349675161612541
0.2660065963710105 0.5688440190594273 -0.1349675161612541
0.5936112539838634 0.4906834492192399 -0.1349675161612541
0.5080947226099389 -0.17876470705852984 -0.1349675161612541
0.22763129641505814 -0.05424209970810549 -0.1349675161612541
0.4255094445079703 -0.08161592377627457 -0.1349675161612541
0.5476851940172401 0.16273557524226534 -0.1349675161612541
0.5202186087695789 0.4588941930072385 -0.1349675161612541
0.5447446646273354 0.5810606663985594 -0.1349675161612541
0.34675520311903235 0.5582877968332067 -0.13357609846887003
0.41230025254827085 -0.06715445589342955 -0.13357609846887003
0.42630719065160383 0.5475367761300527 -0.13357609846887003
0.22520095351236064 -0.010273300628769015 -0.13357609846887003
0.1486637043132879 0.2202567826454226 -0.13357609846887003
0.3662164985765108 0.5572859760946902 -0.13357609846887003
0.3704649605972568 -0.04207183295871944 -0.13357609846887003
0.5325280172882032 -0.10310868906463366 -0.1331122925714087
0.4470022097963294 -0.21306779123477168 -0.1331122925714087
0.4194892439589219 -0.09089204172550165 -0.1331122925714087
0.12641029735309212 -0.017582881572759928 -0.1331122925714087
0.17007298454010394 0.5265263689750531 -0.1331122925714087
0.511035251999844 0.4955441350246349 -0.1331122925714087
0.5721184886955045 0.25119263600609487 -0.1331122925714087
0.4958687991528577 0.7032364159078293 -0.1331122925714087
0.5080947226099389 0.6177198845339048 -0.1331122925714087
0.551275051663591 0.25363225502674164 -0.13172087487902462
0.13789413137423523 0.5085399762715019 -0.13172087487902462
0.14081610852824175 0.027823715788706627 -0.13172087487902462
0.36393457356100084 0.5574529462177763 -0.13172087487902462
0.5399303594116865 0.21725132042987289 -0.13172087487902462
0.46427434141779034 0.5004883058915728 -0.13172087487902462
0.2587341198988165 0.6421531792121689 -0.13125706898156328
0.511035251999844 -0.005366234233627919 -0.13125706898156328
0.6302611960012598 0.07868467050431878 -0.13125706898156328
0.537054762847426 0.12189282791181856 -0.13125706898156328
0.48184330881362636 0.5164710571180913 -0.13125706898156328
0.2612108433912601 0.5688440190594273 -0.13125706898156328
0.10491753206473288 0.3733683855153648 -0.13125706898156328
0.1874935340487524 -0.05718262909801041 -0.13125706898156328
0.39071472608041946 -0.0939438845307973 -0.13125706898156328
0.14949855492871836 0.22136064068138062 -0.1298656512891792
0.13299634109704328 0.26663737239155805 -0.1298656512891792
0.3802883695054882 -0.0832856250071355 -0.1298656512891792
0.48944044941404335 0.060113882369966065 -0.1298656512891792
0.4551373652378016 0.5143561022256674 -0.1298656512891792
0.4071427309685006 -0.06476121746252901 -0.1298656512891792
0.23162930325117498 0.5253390258775522 -0.1298656512891792
0.270802349350761 0.5652448852951271 -0.12940184539171784
0.5936112539838634 0.4955441350246349 -0.12940184539171784
0.5080947226099389 -0.18863449655650752 -0.12940184539171784
0.5441973736683308 0.13821879550245816 -0.12940184539171784
0.3235649082459647 -0.09089204172550165 -0.12940184539171784
0.10491753206473288 0.055717002462032525 -0.12940184539171784
0.19885677853655567 0.5566273717202951 -0.12940184539171784
0.5082709688509743 0.4703501986745341 -0.12940184539171784
0.3370431076261915 0.6910197685686971 -0.12940184539171784
0.41521295358432825 -0.21306779123477168 -0.12940184539171784
0.5253297497596029 0.11715273163976343 -0.12801042769933377
0.3812901902440048 -0.0850017068277424 -0.12801042769933377
0.5592896175717234 0.27113628959693314 -0.12801042769933377
0.13803327314347366 0.477993719864697 -0.12801042769933377
0.13739322100497695 0.21256688086551326 -0.12801042769933377
0.13981428778972518 0.48601756189077855 -0.12801042769933377
0.28642333197725933 -0.046988175471809814 -0.12801042769933377
0.16306023937048827 0.547351253771068 -0.12754662180187243
0.1652772315603536 0.5444107243811632 -0.12754662180187243
0.1269019316044011 -0.029808805029841342 -0.12754662180187243
0.16306023937048827 -0.05424209970810549 -0.12754662180187243
0.6669204141366053 0.2267593413278307 -0.12754662180187243
0.1537841214212612 0.5956334476967952 -0.12754662180187243
0.5569613119664673 0.5688440190594273 -0.12754662180187243
0.5813946066447315 0.2756352068023083 -0.12754662180187243
0.5232518993389762 0.00831603974148198 -0.12754662180187243
0.3811232201209187 -0.1153253364037658 -0.12754662180187243
0.1328293709739572 0.45239163432483037 -0.12615520410948836
0.1405656533436126 0.5205247206619033 -0.12615520410948836
0.12538064826072787 0.09178254904862736 -0.12615520410948836
0.3052445752962411 0.307201836183528 -0.12615520410948836
0.2636411862939576 0.40673458177873467 -0.12615520410948836
0.2329928925897113 0.5314705398419913 -0.12615520410948836
0.37823834743870904 -0.08297023699686172 -0.12615520410948836
0.48085076419305905 0.01034750957236279 -0.12615520410948836
0.34534523319074983 0.5675175341926878 -0.12615520410948836
0.1874935340487524 0.5717938245672816 -0.125691398212027
0.5936112539838634 0.48332748768550277 -0.125691398212027
0.4958687991528577 -0.20085114389563954 -0.125691398212027
0.45306879093512403 -0.09089204172550165 -0.125691398212027
0.5325280172882032 -0.04349107900495124 -0.125691398212027
0.536396158473031 0.42223497487189304 -0.125691398212027
0.5250143617493293 0.47111084034637063 -0.125691398212027
0.20365253151630605 0.5688440190594273 -0.125691398212027
0.11713417940386502 0.17789275197130242 -0.125691398212027
0.20365253151630605 -0.0664587470472375 -0.125691398212027
0.1360852883741359 0.5099684984356828 -0.12429998051964296
0.13249543072778514 0.5108311774049611 -0.12429998051964296
0.13466604232790422 -0.022601261383291885 -0.12429998051964296
0.2207762452505793 0.2823232878437009 -0.12429998051964296
0.30771202267073555 0.19049899626430197 -0.12429998051964296
0.27014374497636584 0.5537981557457811 -0.12429998051964296
0.13513912434331482 0.08020595384799191 -0.12429998051964296
0.1363635719126127 0.49536788878359955 -0.12429998051964296
0.175137744940382 -0.020671828849852667 -0.12429998051964296
0.328360661225715 0.5971732832763668 -0.12383617462218159
0.10491753206473288 0.5444107243811632 -0.12383617462218159
0.11419365001395997 -0.04496598175887841 -0.12383617462218159
0.328360661225715 -0.10310868906463366 -0.12383617462218159
0.5569613119664673 -0.005366234233627919 -0.12383617462218159
0.5354685466781083 0.4496180750580114 -0.12383617462218159
0.3614856784224049 -0.19098135439766198 -0.12383617462218159
0.6424778433403917 0.32450179615883656 -0.12383617462218159
0.40030623203992033 0.6177198845339048 -0.12383617462218159
0.2759598709305312 0.6543698265513009 -0.12383617462218159
0.15460041980079323 0.2849206008694845 -0.12244475692979753
0.2471760769340796 0.5571746626792995 -0.12244475692979753
0.45355114906848376 0.5646697659822751 -0.12244475692979753
0.5508019696481806 0.1537377408315151 -0.12244475692979753
0.24947655418548784 0.12359963361447633 -0.12244475692979753
0.2962281886495924 0.3783218325002522 -0.12244475692979753
0.13537102729204542 0.005765107305444612 -0.12244475692979753
0.14098307865132784 0.5210441832670601 -0.12244475692979753
0.13370132606118462 0.07427851447843584 -0.12244475692979753
0.4375220172522194 0.5650500868181935 -0.12244475692979753
0.44267026271404036 -0.05965935259045401 -0.12244475692979753
0.10491753206473288 0.2878518541414403 -0.12198095103233618
0.19971018138788454 0.5810606663985594 -0.12198095103233618
0.4386815319958728 0.5970897982148236 -0.12198095103233618
0.5080947226099389 0.6421531792121689 -0.12198095103233618
0.5325280172882032 0.4588941930072385 -0.12198095103233618
0.6547037667974731 0.12902616261477412 -0.12198095103233618
0.5325280172882032 -0.04349107900495124 -0.12198095103233618
0.5447446646273354 -0.04202545236897335 -0.12198095103233618
0.2612108433912601 -0.09089204172550165 -0.12198095103233618
0.1582181058009918 0.26236108201696423 -0.12058953333995212
0.12963838639942313 0.15346873341098755 -0.12058953333995212
0.129879565466103 0.33024371316940815 -0.12058953333995212
0.4091185440916861 0.6036572897228766 -0.12058953333995212
0.43975756167798313 -0.08707028113042004 -0.12058953333995212
0.4517979627760799 -0.04232228814334858 -0.12058953333995212
0.3040201277269432 0.2718041700892774 -0.12058953333995212
0.33401909317474354 0.5761628761213673 -0.12058953333995212
0.32670023611280335 -0.08219104308912663 -0.12058953333995212
0.19935768890581396 0.5405889637860816 -0.12058953333995212
0.345929628621551 -0.08415758009436279 -0.12058953333995212
0.4804704433571408 0.0029915480386256514 -0.12058953333995212
0.11509343345503507 0.32450179615883656 -0.12012572744249075
0.21324403747580692 -0.06783161250372308 -0.12012572744249075
0.46266029689462473 -0.07768284976580221 -0.12012572744249075
0.5080947226099389 -0.17876470705852984 -0.12012572744249075
0.5936112539838634 0.47111084034637063 -0.12012572744249075
0.5354685466781083 0.48332748768550277 -0.12012572744249075
0.5274539807699761 0.4644134831870286 -0.12012572744249075
0.33795216718521576 0.6089261247180374 -0.12012572744249075
0.3235649082459647 0.6177198845339048 -0.12012572744249075
0.5476851940172401 0.07720976775039162 -0.12012572744249075
0.1579583744984134 0.27632163953055106 -0.11873430975010668
0.24237104783637997 0.5647439749258688 -0.11873430975010668
0.40445265676322484 -0.10761688238795807 -0.11873430975010668
0.12180934285027552 0.15699365823169378 -0.11873430975010668
0.12154033542974783 0.4085434247788339 -0.11873430975010668
0.3833865929005301 -0.0956970708232013 -0.11873430975010668
0.4877243675934363 0.5019075519378045 -0.11873430975010668
0.4853033008086881 -0.01611725493678204 -0.11873430975010668
0.42206800474880707 0.5860048372654972 -0.11873430975010668
0.2205907228915948 0.3258375571435252 -0.11873430975010668
0.3077027465527863 0.24243598066202446 -0.11873430975010668
0.3614856784224049 0.7032364159078293 -0.11827050385264534
0.5354685466781083 0.01906706044463623 -0.11827050385264534
0.4722518028541256 -0.07247894759628588 -0.11827050385264534
0.24681430833405973 -0.08210755802758357 -0.11827050385264534
0.6546944906795239 0.2145426939886987 -0.11827050385264534
0.5813946066447315 0.5688440190594273 -0.11827050385264534
0.5203113699490711 0.5932865898556405 -0.11827050385264534
0.2564150904115097 0.6055032371947726 -0.11827050385264534
0.11410088883446778 0.3733683855153648 -0.11827050385264534
0.1386269446922241 -0.06939927643714255 -0.11827050385264534
0.22797451277917946 0.3698063562228617 -0.11687908616026128
0.13590904213310065 0.21426441045022188 -0.11687908616026128
0.21117546317312927 0.5590855429768404 -0.11687908616026128
0.319168028338031 -0.09592897377193202 -0.11687908616026128
0.11986135808093776 0.21482097752717538 -0.11687908616026128
0.18466431807423822 0.5587237743768204 -0.11687908616026128
0.1637188437448835 0.24900347217007723 -0.11687908616026128
0.5372031807346136 0.37649443726425447 -0.11687908616026128
0.5642987212643059 0.22659237120474462 -0.11687908616026128
0.43690979346757036 0.5832962108243229 -0.11687908616026128
0.4201107438615202 -0.09088276560755237 -0.11687908616026128
0.21803979045555727 0.579539383054886 -0.11641528026279992
0.3331564142054654 0.629936531873037 -0.11641528026279992
0.4621593865253665 0.6177198845339048 -0.11641528026279992
0.5802165396651796 0.29263833100324155 -0.11641528026279992
0.6424778433403917 0.39780168019362905 -0.11641528026279992
0.5936112539838634 0.04350035512290038 -0.11641528026279992
0.4761384962748517 -0.07306334302708722 -0.11641528026279992
0.4482730379553735 -0.10308086071078598 -0.11641528026279992
0.25161933743175935 -0.0878587511561044 -0.11641528026279992
0.10491753206473288 0.2267593413278307 -0.11641528026279992
0.2977030914035194 0.12790375234291768 -0.11502386257041587
0.12619694664025993 0.1660749777039871 -0.11502386257041587
0.12627115558385368 0.34121736070334374 -0.11502386257041587
0.4701182957258033 -0.06559606807795935 -0.11502386257041587
0.11891519405011655 0.12381298432730851 -0.11502386257041587
0.11892447016806583 0.3549552913861491 -0.11502386257041587
0.12907254320452033 0.18472925089988274 -0.11502386257041587
0.38628074170068893 -0.10534423349039752 -0.11502386257041587
0.5440025751913972 0.360669380042873 -0.11502386257041587
0.508706946394588 0.020541963198563395 -0.11502386257041587
0.19550809995688467 0.5503196115148209 -0.11502386257041587
0.13375698276887998 0.017184008500943104 -0.11502386257041587
0.1844602434793552 0.5724338767057782 -0.1145600566729545
0.4470022097963294 0.6177198845339048 -0.1145600566729545
0.5691779593055994 0.14270843658988414 -0.1145600566729545
0.3667266850637182 -0.13975863108202996 -0.1145600566729545
0.12446231258375434 -0.04760039925645882 -0.1145600566729545
0.5234466978159098 -0.017582881572759928 -0.11381796723701634
0.2084482844960564 -0.08165302824807152 -0.11381796723701634
0.11731042564490038 -0.05737742757494419 -0.11381796723701634
0.5936112539838634 -0.05424209970810549 -0.11381796723701634
0.5691779593055994 0.5932865898556405 -0.11381796723701634
0.5965517833737685 0.22823424408175788 -0.11381796723701634
0.45306879093512403 0.6177198845339048 -0.11381796723701634
0.11193027723434856 0.31228514881970443 -0.11381796723701634
0.28998536126976254 0.6177198845339048 -0.11381796723701634
0.28817651826966323 0.6567259605104045 -0.11381796723701634
0.12936937897889558 0.2268057219175768 -0.11316863898057043
0.21297503005527924 -0.06554968748821326 -0.11316863898057043
0.1215959921374432 0.23538613102061196 -0.11316863898057043
0.11899867911165961 0.30225766531658993 -0.11316863898057043
0.11801541060904158 0.40433206722988474 -0.11316863898057043
0.5583063490691053 0.3311342204925339 -0.11316863898057043
0.530719174288104 0.4172722517690566 -0.11316863898057043
0.3541111646527694 -0.10585441997760493 -0.11316863898057043
0.21585990273748892 0.5622301469616284 -0.11316863898057043
0.4737359817260019 0.5501526413917348 -0.11316863898057043
0.44991491083238677 0.3824218766338104 -0.11316863898057043
0.217659469619639 0.3074244630143094 -0.11316863898057043
0.4676230199974613 0.12231025321953366 -0.11316863898057043
0.38962942028035996 -0.094583936669294 -0.11316863898057043
0.5080947226099389 -0.12754198374289782 -0.1127048330831091
0.17821741609952532 -0.1153253364037658 -0.1127048330831091
0.5203113699490711 -0.17640857309942612 -0.1127048330831091
0.5447446646273354 -0.017582881572759928 -0.1127048330831091
0.6669204141366053 0.2145426939886987 -0.1127048330831091
0.4914348147731272 0.5642337884386615 -0.1127048330831091
0.5692707204850916 0.36440765557641147 -0.1127048330831091
0.4482730379553735 0.6152709893953088 -0.1127048330831091
0.2852359888797583 0.629936531873037 -0.1127048330831091
0.11167982204971955 0.3367184434979686 -0.1127048330831091
0.22971842295363418 0.12720804349672563 -0.11131341539072503
0.15802330732405803 0.23899454090286126 -0.11131341539072503
0.12538064826072787 0.33202472781565967 -0.11131341539072503
0.12271840240929976 0.5166194750052788 -0.11131341539072503
0.3270712808307725 0.6159852504773993 -0.11131341539072503
0.34825793422680706 0.42190103462572087 -0.11131341539072503
0.5745210032443542 0.24338214469284566 -0.11131341539072503
0.569613936849213 0.26230542530926887 -0.11131341539072503
0.12827479706088668 0.027007417409174568 -0.11131341539072503
0.22651816226115085 0.10588224833145249 -0.11131341539072503
0.1281820358813945 0.36048385768388835 -0.11131341539072503
0.4213815720205642 0.6069966921845983 -0.11131341539072503
0.3237968111946953 0.05409368182091768 -0.11131341539072503
0.3465511285241493 -0.10787661369053647 -0.11131341539072503
0.32276716210233103 0.3221734905535805 -0.11131341539072503
0.28467942180280464 0.5582043117716639 -0.11131341539072503
0.4383754201035483 0.02583862654757204 -0.11131341539072503
0.5203113699490711 -0.09089204172550165 -0.11084960949326367
0.19406102555680518 -0.09089204172550165 -0.11084960949326367
0.5777769206445329 0.16530505991420127 -0.11084960949326367
0.6424778433403917 0.19010939931043455 -0.11084960949326367
0.477047555833876 -0.10310868906463366 -0.11084960949326367
0.10491753206473288 0.27562593068435903 -0.11084960949326367
0.4592188571354615 0.6788031212295652 -0.11084960949326367
0.36193093208396787 0.6400846049094914 -0.11084960949326367
0.5721184886955045 0.4100183275327612 -0.11084960949326367
0.5325280172882032 0.6543698265513009 -0.11084960949326367
0.12802434187625755 0.2590680601449887 -0.1094581918008796
0.5389749192629161 0.4332921074673718 -0.1094581918008796
0.3090014030656781 0.6157626236466178 -0.1094581918008796
0.5658663851977254 0.27960538528457746 -0.1094581918008796
0.1471795254414116 0.21208452273215353 -0.1094581918008796
0.2638267086529421 0.5626754006231913 -0.1094581918008796
0.23732483967200033 0.4064006415325625 -0.1094581918008796
0.30121874010627653 0.5977298503533204 -0.1094581918008796
0.12636391676334602 0.10270981599281684 -0.1094581918008796
0.3470427627754583 0.41567675948178956 -0.1094581918008796
0.3227022292766865 0.106308949757117 -0.1094581918008796
0.29709086761887055 -0.0703547165859129 -0.1094581918008796
0.3848243911826603 -0.12604852875307238 -0.1094581918008796
0.39704103852179234 0.6173859442877326 -0.1094581918008796
0.4120126928918449 -0.11454614249603069 -0.1094581918008796
0.4470022097963294 -0.21306779123477168 -0.10899438590341826
0.2660065963710105 -0.12754198374289782 -0.10899438590341826
0.511035251999844 -0.08161592377627457 -0.10899438590341826
0.11049247895221848 0.3367184434979686 -0.10899438590341826
0.511035251999844 0.5810606663985594 -0.10899438590341826
0.603230588297212 0.2756352068023083 -0.10899438590341826
0.4743760338644986 -0.1153253364037658 -0.10899438590341826
0.29107066706982215 0.3489350908371007 -0.10899438590341826
0.3475436731447166 0.6543698265513009 -0.10899438590341826
0.5298101147290797 0.5022693205378245 -0.10899438590341826
0.6302611960012598 0.14124280995390626 -0.10899438590341826
0.13720769864599244 0.2820450043052241 -0.10760296821103418
0.4824462564803262 0.5652170569412795 -0.10760296821103418
0.19139877970537708 0.5803185769626211 -0.10760296821103418
0.31894540150724954 0.32313820682030014 -0.10760296821103418
0.5173430122053185 0.46703862456666 -0.10760296821103418
0.1844602434793552 0.5670630044131756 -0.10760296821103418
0.13011146841483373 -0.03467876695318548 -0.10760296821103418
0.12650305853258442 0.0463759516871608 -0.10760296821103418
0.13276443814831268 0.21207524661420424 -0.10760296821103418
0.21786354421452192 0.3352806452158384 -0.10760296821103418
0.4471784560373648 0.5987594994456845 -0.10760296821103418
0.32262802033309274 0.115909731834567 -0.10760296821103418
0.32262802033309274 0.36594749115598313 -0.10760296821103418
0.44820810512972903 0.4174763263639395 -0.10760296821103418
0.436733547226535 -0.10536278572629593 -0.10760296821103418
0.5476851940172401 0.48626801707540784 -0.10713916231357283
0.4242849969386723 0.6543698265513009 -0.10713916231357283
0.248586046862362 0.6284616291191096 -0.10713916231357283
0.1269019316044011 -0.06938072420124401 -0.10713916231357283
0.46266029689462473 -0.12754198374289782 -0.10713916231357283
0.4958687991528577 -0.20085114389563954 -0.10713916231357283
0.6180445486621278 0.27562593068435903 -0.10713916231357283
0.6669204141366053 0.2634092833452269 -0.10713916231357283
0.5325280172882032 -0.07867539438636964 -0.10713916231357283
0.1430423768360562 0.2181232755171003 -0.10574774462118879
0.12590011086588454 0.28257374302833005 -0.10574774462118879
0.12239373828107672 -0.03927972145600207 -0.10574774462118879
0.3711142888537026 -0.10366525614158731 -0.10574774462118879
0.537620606042329 0.4299527050056499 -0.10574774462118879
0.5819975543114313 0.2581311722321168 -0.10574774462118879
0.343313763359869 0.5914035379119474 -0.10574774462118879
0.16388581386796947 -0.057683539467268695 -0.10574774462118879
0.406586163891547 -0.09308120556151929 -0.10574774462118879
0.21262253757320862 -0.03869532602520088 -0.10574774462118879
0.21804906657350653 0.15884888182153922 -0.10574774462118879
0.12401705892219156 0.29441934564949307 -0.10574774462118879
0.4381713455086652 0.48040551053149627 -0.10574774462118879
0.36537237184313104 0.5948264254352121 -0.10574774462118879
0.5342812035806072 0.07522467850925703 -0.10574774462118879
0.6058279013229956 0.08015029714029667 -0.10528393872372742
0.5447446646273354 0.532194077042031 -0.10528393872372742
0.2759598709305312 0.6450937086020738 -0.10528393872372742
0.21803979045555727 0.6029244764048876 -0.10528393872372742
0.6058279013229956 -0.02979952891189207 -0.10528393872372742
0.5843351360346364 0.3855850328544969 -0.10528393872372742
0.15568572560085284 -0.10310868906463366 -0.10528393872372742
0.39551047906016995 -0.1641919257602941 -0.10528393872372742
0.5325280172882032 -0.07867539438636964 -0.10528393872372742
0.29107066706982215 0.36115173817623275 -0.10528393872372742
0.43097307798006507 0.019577246931843786 -0.10389252103134335
0.4273368397439681 0.4857763828240986 -0.10389252103134335
0.3984695606859733 0.6413925375403322 -0.10389252103134335
0.13444341549712277 -0.005561032710561696 -0.10389252103134335
0.11914709699884729 0.5279919956110312 -0.10389252103134335
0.11556651547044568 0.528270279149508 -0.10389252103134335
0.547351253771068 0.42050034081538773 -0.10389252103134335
0.580272196372875 0.24079410778501134 -0.10389252103134335
0.12743994644545636 -0.03377898351211051 -0.10389252103134335
0.2226592971942724 -0.037164766563578346 -0.10389252103134335
0.3258375571435252 -0.07267374607321966 -0.10389252103134335
0.4400915019241553 -0.0813747447095947 -0.10389252103134335
0.3714204007460271 0.595587067107049 -0.10389252103134335
0.3937016360600706 0.636568956206734 -0.10389252103134335
0.5700870188646238 0.296460091598323 -0.10389252103134335
0.2995954194651618 0.12474059612223116 -0.10389252103134335
0.3301880564617128 0.40338590319906376 -0.10389252103134335
0.28817651826966323 0.3489350908371007 -0.10342871513388201
0.5325280172882032 -0.10310868906463366 -0.10342871513388201
0.2995768672292633 -0.13140084880977637 -0.10342871513388201
0.3235649082459647 0.6423108732173056 -0.10342871513388201
0.11007505364450325 -0.0387324304969977 -0.10342871513388201
0.5325280172882032 -0.03161764802994056 -0.10342871513388201
0.5843351360346364 0.39486115080372397 -0.10342871513388201
0.4377260918471023 0.6695270032803382 -0.10342871513388201
0.5476851940172401 0.4984846644145397 -0.10342871513388201
0.1318089979995422 -0.009790942495409276 -0.10203729744149793
0.4371045919445042 0.014633076064905735 -0.10203729744149793
0.12324714113240573 0.30185879224477324 -0.10203729744149793
0.3954919268242714 -0.09707921239763613 -0.10203729744149793
0.13515767657921324 0.5686677728183919 -0.10203729744149793
0.11482442603450752 0.5319992785650972 -0.10203729744149793
0.2552462995499071 0.5902254709323957 -0.10203729744149793
0.12655871524027978 -0.029150200655446105 -0.10203729744149793
0.371169945561398 -0.10215324891586332 -0.10203729744149793
0.3310507354309908 0.5913849856760491 -0.10203729744149793
0.3649363942995174 0.6353074041656392 -0.10203729744149793
0.5856987253731729 0.23359584025641103 -0.10203729744149793
0.4607679688329825 0.5948264254352121 -0.10203729744149793
0.2878518541414403 -0.10682841236227382 -0.10203729744149793
0.3234072142408277 0.05109749572331739 -0.10203729744149793
0.2328723030563714 0.09815524207974634 -0.10203729744149793
0.3475436731447166 -0.15131667404676685 -0.10157349154403658
0.5729811676647825 0.08015029714029667 -0.10157349154403658
0.36193093208396787 0.6665864738904331 -0.10157349154403658
0.6058279013229956 0.5077607823637668 -0.1008314021080984
0.40030623203992033 0.6661133918750224 -0.1008314021080984
0.28998536126976254 0.6379325455452707 -0.1008314021080984
0.39071472608041946 0.4203704751640985 -0.1008314021080984
0.3763274671411682 0.08202407296604053 -0.1008314021080984
0.3220900054920375 -0.15197527842116196 -0.1008314021080984
0.4194892439589219 -0.17640857309942612 -0.1008314021080984
0.5203113699490711 -0.11768147036286952 -0.1008314021080984
0.6547037667974731 0.3489350908371007 -0.1008314021080984
0.13465676620995495 0.2820542804231734 -0.10018207385165251
0.128859192491688 0.28240677290524396 -0.10018207385165251
0.11731970176284952 0.25909588849883636 -0.10018207385165251
0.11743101517824026 0.2788818480845377 -0.10018207385165251
0.12090028329125127 0.22533081916364978 -0.10018207385165251
0.18331928097160033 0.5978040592969144 -0.10018207385165251
0.23213948973838242 0.6112266019694457 -0.10018207385165251
0.12884991637373888 -0.049066025892436714 -0.10018207385165251
0.2313324674767996 -0.059010024334008176 -0.10018207385165251
0.31417747688134684 0.6007538648047683 -0.10018207385165251
0.32815658663083197 0.590846970834994 -0.10018207385165251
0.36532599125338494 0.6069966921845983 -0.10018207385165251
0.4301846079543808 0.6262353608112954 -0.10018207385165251
0.3241956842665121 -0.12303379041957353 -0.10018207385165251
0.29507795002388815 0.37882274286951023 -0.10018207385165251
0.31471549172240193 0.08675489312014625 -0.10018207385165251
0.3235649082459647 0.6543698265513009 -0.09971826795419117
0.5569613119664673 0.5077607823637668 -0.09971826795419117
0.34274792016496625 -0.15294927080583084 -0.09971826795419117
0.2759598709305312 -0.15197527842116196 -0.09897617851825301
0.4914348147731272 -0.1153253364037658 -0.09897617851825301
0.5813946066447315 0.10820127781875927 -0.09897617851825301
0.5325280172882032 0.6177198845339048 -0.09897617851825301
0.352339426124467 0.48332748768550277 -0.09897617851825301
0.39551047906016995 0.6788031212295652 -0.09897617851825301
0.5765060924854888 0.4100183275327612 -0.09897617851825301
0.3475436731447166 -0.017582881572759928 -0.09897617851825301
0.12743067032750707 0.22654599061499853 -0.0983268502618071
0.2915808535570296 0.5751332270290032 -0.0983268502618071
0.11689300033718515 0.23901309313875968 -0.0983268502618071
0.12609490934281833 0.2854215112387428 -0.0983268502618071
0.1172825972910527 -0.030142745276013398 -0.0983268502618071
0.24796454695976386 -0.1237758798555117 -0.0983268502618071
0.12004688043992226 -0.02812982768103113 -0.0983268502618071
0.3512819486782552 -0.10060413721834238 -0.0983268502618071
0.4503045077862543 -0.10171727137224967 -0.0983268502618071
0.41004615588660875 -0.1385712879845289 -0.0983268502618071
0.27318631166371227 0.6091116470770221 -0.0983268502618071
0.22433827454308247 0.6030357898202784 -0.0983268502618071
0.17264246921203985 0.540162262360417 -0.0983268502618071
0.36735746108426565 0.6111338407899535 -0.0983268502618071
0.22456090137386395 0.3844811748185389 -0.0983268502618071
0.22145340186087278 0.0933502129820467 -0.0983268502618071
0.34274792016496625 -0.15625156879575577 -0.09786304436434574
0.510627102810078 0.5749755330238664 -0.09786304436434574
0.2851896082900122 0.6543698265513009 -0.09786304436434574
0.4377260918471023 -0.16713245515019903 -0.0971209549284076
0.5203113699490711 -0.12754198374289782 -0.0971209549284076
0.6546944906795239 0.36115173817623275 -0.0971209549284076
0.5325280172882032 0.5589835056793989 -0.0971209549284076
0.29107066706982215 0.25119263600609487 -0.0971209549284076
0.36390674520715316 0.47111084034637063 -0.0971209549284076
0.39071472608041946 0.6727736445625676 -0.0971209549284076
0.13320041569192634 0.21614746239391489 -0.09647162667196169
0.1308257294969242 0.2016303378033745 -0.09647162667196169
0.12320076054265951 0.5199959819387975 -0.09647162667196169
0.38233839157226746 -0.15422009896487496 -0.09647162667196169
0.4486811871451396 -0.13561220635872542 -0.09647162667196169
0.5584454908383436 0.05219207764132614 -0.09647162667196169
0.18967342176682078 0.5503659921045669 -0.09647162667196169
0.45381088037106215 0.5979617533020511 -0.09647162667196169
0.28738804824397896 0.6166624070876928 -0.09647162667196169
0.47284547440287605 0.6009208349278545 -0.09647162667196169
0.336365951015898 -0.1367995494562265 -0.09647162667196169
0.13439703490737667 -0.07161626862700773 -0.09647162667196169
0.18869015326420277 -0.047776645497494184 -0.09647162667196169
0.41129843180975445 -0.1158447990089225 -0.09647162667196169
0.2929351667776168 -0.12057561916302835 -0.09647162667196169
0.3158842825840046 0.41352470011756887 -0.09647162667196169
0.3195854536457462 0.3932285540446601 -0.09647162667196169
0.48663906179337685 0.6145103477234722 -0.09600782077450033
0.3859189731006691 -0.17131598434530051 -0.09600782077450033
0.4146934909791715 -0.1709171112734837 -0.09526573133856216
0.551961484391834 0.003909883715599168 -0.09526573133856216
0.6424778433403917 0.20232604664956658 -0.09526573133856216
0.47143550447459354 0.6910197685686971 -0.09526573133856216
0.4228471986565421 0.055717002462032525 -0.09526573133856216
0.33552182428251826 0.32450179615883656 -0.09526573133856216
0.40989773799942103 0.6745732114447175 -0.09526573133856216
0.11948103724501948 0.2689285735250171 -0.09461640308211626
0.14529647349771846 0.2787241540794009 -0.09461640308211626
0.1345732811484119 0.28969780161333647 -0.09461640308211626
0.1881150339513507 -0.09287713096663623 -0.09461640308211626
0.24067351825167135 -0.11868329110138597 -0.09461640308211626
0.3591573728171489 -0.15927558324720373 -0.09461640308211626
0.1683012460118017 0.5864408148091109 -0.09461640308211626
0.20698265786007852 0.5586031848434804 -0.09461640308211626
0.3127025741274197 0.6013660885894174 -0.09461640308211626
0.451723753832486 0.2548474264780904 -0.09461640308211626
0.5537332229201364 0.06351821765733244 -0.09461640308211626
0.5503659921045669 0.06463135181123975 -0.09461640308211626
0.12008398491171922 0.29565306933674035 -0.09461640308211626
0.2838909517771204 -0.11600249301405932 -0.09461640308211626
0.36749660285350405 -0.11608597807560236 -0.09461640308211626
0.22364256569689042 0.12161454437334174 -0.09461640308211626
0.35800713419144475 0.0337047745685166 -0.09461640308211626
0.4194892439589219 0.6719944506548324 -0.09415259718465492
0.4242849969386723 -0.17640857309942612 -0.09415259718465492
0.4194892439589219 -0.1723085289658678 -0.09341050774871673
0.5569613119664673 0.01106177065445326 -0.09341050774871673
0.6546944906795239 0.25119263600609487 -0.09341050774871673
0.4356482414264755 0.3367184434979686 -0.09341050774871673
0.29107066706982215 0.2145426939886987 -0.09341050774871673
0.40030623203992033 0.6820404863938454 -0.09341050774871673
0.49881860466071204 0.6284616291191096 -0.09341050774871673
0.1222545965118383 0.1940795777927037 -0.09276117949227085
0.1261505660505137 -0.009698181315916958 -0.09276117949227085
0.11793192554749854 -0.010950457239062662 -0.09276117949227085
0.4494232765810778 -0.09129091479731848 -0.09276117949227085
0.31447431265572207 0.6499543944074688 -0.09276117949227085
0.24051582424653453 0.6203450259135359 -0.09276117949227085
0.3574134626426943 0.6269681741292841 -0.09276117949227085
0.33530847356968607 -0.1376900567793523 -0.09276117949227085
0.3325163620669687 0.645548238381586 -0.09276117949227085
0.125631103445357 0.5334927335549228 -0.09276117949227085
0.29907595686000515 0.6060783565076249 -0.09276117949227085
0.2947161814238684 0.6288697783088757 -0.09276117949227085
0.14438741393869423 -0.07555861875542923 -0.09276117949227085
0.20320727785474313 -0.058991472098109635 -0.09276117949227085
0.44526757573982395 -0.1004371670952563 -0.09276117949227085
0.22797451277917946 0.13255108743548036 -0.09276117949227085
0.3168768272045719 0.08656937076116175 -0.09276117949227085
0.34864753118067465 0.4222906315795884 -0.09276117949227085
0.48184330881362636 -0.12692975995824893 -0.0922973735948095
0.29107066706982215 0.3367184434979686 -0.09155528415887132
0.4347855624571974 0.12902616261477412 -0.09155528415887132
0.5325280172882032 0.5688440190594273 -0.09155528415887132
0.3859189731006691 0.7154530632469615 -0.09155528415887132
0.6424778433403917 0.20232604664956658 -0.09155528415887132
0.45786454391487436 -0.15377484530331204 -0.09155528415887132
0.38821945035207744 -0.1153717169935119 -0.09090595590242542
0.12930444615325093 0.2056005162856437 -0.09090595590242542
0.13056599819434578 0.2011201513161671 -0.09090595590242542
0.11741246294234184 0.5117402369639852 -0.09090595590242542
0.14653019718496563 -0.07743239458117321 -0.09090595590242542
0.11320110539339268 0.25575648603711465 -0.09090595590242542
0.14340414543607607 0.5827489198653186 -0.09090595590242542
0.2873138393003852 0.6456966562687736 -0.09090595590242542
0.3003653372549477 0.6409936644685155 -0.09090595590242542
0.3444825542214717 0.617812645713397 -0.09090595590242542
0.5683523848081182 0.39161450952149457 -0.09090595590242542
0.5998726335995919 0.2519625537958807 -0.09090595590242542
0.4521226269043028 0.3173962898097286 -0.09090595590242542
0.12913747603016484 -0.06921375407815791 -0.09090595590242542
0.44767936640662304 -0.11319182927544354 -0.09090595590242542
0.22797451277917946 0.13255108743548036 -0.09090595590242542
0.21951469320948444 0.3823198393363689 -0.09090595590242542
0.32589321385122055 0.052257010466970774 -0.09090595590242542
0.45786454391487436 -0.1641919257602941 -0.09044215000496408
0.28817651826966323 0.20232604664956658 -0.08970006056902591
0.4360563906162415 0.2634092833452269 -0.08970006056902591
0.4958687991528577 0.693375902527801 -0.08970006056902591
0.48679675579851367 0.6421531792121689 -0.08970006056902591
0.6180445486621278 0.01906706044463623 -0.08970006056902591
0.4743760338644986 -0.15197527842116196 -0.08970006056902591
0.13171623682005001 0.2199692229889965 -0.08905073231258001
0.14317224248734547 0.22570186388161878 -0.08905073231258001
0.2272138711073429 0.092339116125581 -0.08905073231258001
0.30579186625524546 0.1274028419736594 -0.08905073231258001
0.49279840411166365 -0.09507557092060301 -0.08905073231258001
0.4548127011095787 -0.07118029108339409 -0.08905073231258001
0.23411530286156784 0.5721648692852506 -0.08905073231258001
0.5489838505301321 0.00115487668467875 -0.08905073231258001
0.4654431322793928 0.5690666458902087 -0.08905073231258001
0.2771472140280323 0.6140650940619092 -0.08905073231258001
0.5396799042270572 0.004883876100268049 -0.08905073231258001
0.562053900720593 0.08079034927879324 -0.08905073231258001
0.3500482249910079 -0.15228139031348648 -0.08905073231258001
0.4594971406739384 0.024298790968000375 -0.08905073231258001
0.23280737023072678 0.5881940011015151 -0.08905073231258001
0.4470022097963294 0.6676253991007465 -0.08858692641511866
0.28817651826966323 0.16567610463217042 -0.08784483697918048
0.4347855624571974 0.30006850148057246 -0.08784483697918048
0.4194892439589219 0.6834968369118741 -0.08784483697918048
0.6302611960012598 0.43446089832897444 -0.08784483697918048
0.4958687991528577 -0.20085114389563954 -0.08784483697918048
0.5077236778919699 -0.10310868906463366 -0.08784483697918048
0.14373808568224825 0.2691326481199 -0.0871955087227346
0.35138398597569664 0.4173093562408534 -0.0871955087227346
0.32936248196423157 0.09782130183357415 -0.0871955087227346
0.27638657235619557 -0.13014857288663068 -0.0871955087227346
0.44968300788365606 0.078369282494045 -0.0871955087227346
0.34904640425249145 0.6740815771934086 -0.0871955087227346
0.5355149272678544 -0.03600525181992496 -0.0871955087227346
0.47106445975662453 -0.042313012025399444 -0.0871955087227346
0.31213673093251687 0.6079985129231148 -0.0871955087227346
0.46586983370505736 -0.10656868105969541 -0.0871955087227346
0.39678130721921406 0.6633769370800005 -0.0871955087227346
0.30383460536795853 -0.11535316475761348 -0.0871955087227346
0.43632539803676906 -0.12131770859896651 -0.0871955087227346
0.46001660327909505 -0.1641919257602941 -0.08673170282527325
0.3370431076261915 0.3733683855153648 -0.08598961338933507
0.42386757163095706 0.055717002462032525 -0.08598961338933507
0.4470022097963294 0.7032364159078293 -0.08598961338933507
0.5447446646273354 0.5932865898556405 -0.08598961338933507
0.5936112539838634 -0.05424209970810549 -0.08598961338933507
0.39551047906016995 -0.18984966800785627 -0.08598961338933507
0.1429588917745133 0.2319725196152963 -0.08534028513288917
0.22814148290226555 0.4134319389380767 -0.08534028513288917
0.3128880964864042 0.42070441541027065 -0.08534028513288917
0.44385760581154143 -0.15533323311878225 -0.08534028513288917
0.45348621624283925 -0.09954665977213059 -0.08534028513288917
0.45811499909950354 0.4832903832137057 -0.08534028513288917
0.37629963878732053 0.681131426834821 -0.08534028513288917
0.3785815638028305 0.6682932795930908 -0.08534028513288917
0.49969983586588856 -0.087107385602217 -0.08534028513288917
0.5482603133300924 0.025653104188587537 -0.08534028513288917
0.45297602975563167 -0.11083569531633994 -0.08534028513288917
0.4648030801408963 0.48240915200852913 -0.08534028513288917
0.4482730379553735 -0.17640857309942612 -0.08487647923542783
0.29107066706982215 0.36115173817623275 -0.08413438979948966
0.4347855624571974 0.1045835918185607 -0.08413438979948966
0.38297844371076417 0.7032364159078293 -0.08413438979948966
0.6180445486621278 0.48332748768550277 -0.08413438979948966
0.5200516386464928 -0.09089204172550165 -0.08413438979948966
0.13152143834311625 0.281998623715478 -0.08348506154304376
0.14197562327189514 0.23140667642039353 -0.08348506154304376
0.35416682136046473 0.04145033305612116 -0.08348506154304376
0.3069421048809497 0.3698434606946585 -0.08348506154304376
0.4857671067061494 0.617692056180057 -0.08348506154304376
0.49997811940436543 -0.10160595795685895 -0.08348506154304376
0.41061199908151164 -0.12172585778873247 -0.08348506154304376
0.4565380590481349 0.48504356950610983 -0.08348506154304376
0.3482764864627055 0.6250201893599466 -0.08348506154304376
0.4629664087869492 -0.11772785095261562 -0.08348506154304376
0.47773398856211874 0.6176827800621078 -0.08348506154304376
0.43660368157524587 -0.1299073938199508 -0.08348506154304376
0.5452734033504413 0.4800066374596794 -0.08348506154304376
0.28817651826966323 0.14124280995390626 -0.08227916620964423
0.41035226777893324 0.42223497487189304 -0.08227916620964423
0.40989773799942103 -0.21306779123477168 -0.08227916620964423
0.6546944906795239 0.2145426939886987 -0.08227916620964423
0.44994273918623445 0.6773374945935873 -0.08227916620964423
0.1198984625527347 0.22170385704550194 -0.08162983795319834
0.3511799113808136 0.08444513975078875 -0.08162983795319834
0.3177487822917992 0.04236866873309468 -0.08162983795319834
0.41438737908684703 -0.13058455043024433 -0.08162983795319834
0.4502859555503558 0.4247209744822859 -0.08162983795319834
0.3426829873393216 0.670426786721413 -0.08162983795319834
0.6192133395237304 0.24942089747779247 -0.08162983795319834
0.440119330278003 0.029753148322145845 -0.08162983795319834
0.4456571726936915 -0.1507601069698132 -0.08162983795319834
0.5525551559405845 0.01673875483938019 -0.08162983795319834
0.3790824741720888 0.6686921526649077 -0.08162983795319834
0.4596733869149736 -0.10908250902393596 -0.08162983795319834
0.4051019850196707 0.7100821909543589 -0.081166032055737
0.4431618969653495 0.4974086347324295 -0.08042394261979882
0.30039316560879536 -0.005366234233627919 -0.08042394261979882
0.6424778433403917 0.09236694447942868 -0.08042394261979882
0.4377260918471023 0.7154530632469615 -0.08042394261979882
0.1316234756405577 0.2803381986025663 -0.07977461436335292
0.22186155105063876 0.13013002065073215 -0.07977461436335292
0.29380712186484403 0.08963048968440668 -0.07977461436335292
0.6131745867387834 0.23913368267209967 -0.07977461436335292
0.39588152377813896 -0.19507212241327102 -0.07977461436335292
0.4452304712680271 0.07373122351943145 -0.07977461436335292
0.33910240581092 0.6181929665493152 -0.07977461436335292
0.39280185261899564 0.6418563434377937 -0.07977461436335292
0.5859584566757512 0.14746708509783757 -0.07977461436335292
0.4580964468636051 0.6503439913613365 -0.07977461436335292
0.37091949037676886 -0.14487904819000325 -0.07977461436335292
0.4338857790161224 0.6887563957890858 -0.07931080846589157
0.33491887661581854 0.2863769513875133 -0.0785687190299534
0.42447979541560604 0.04350035512290038 -0.0785687190299534
0.5691779593055994 -0.02979952891189207 -0.0785687190299534
0.5325280172882032 0.6177198845339048 -0.0785687190299534
