0.0476543693176614 0.08654067560191456 -0.1949642205484471
0.35194770632884964 0.23007908781225483 -0.1949642205484471
0.44699010040058174 -0.10643128761087352 -0.1949642205484471
0.31358343538923444 -0.048336211400453855 -0.1949642205484471
0.7419400701210057 0.04895413078798438 -0.1949642205484471
0.8080680983693231 -0.09822787505227769 -0.19357922881777506
-0.11261048148617947 0.01328526683190784 -0.1928334640397209
0.02892501960595817 0.08466560987423549 -0.1928334640397209
0.7109162553539522 -0.09359347964579819 -0.1928334640397209
0.5211084655566225 0.22258947868408224 -0.1928334640397209
0.38999236379215585 0.2603784453663413 -0.1928334640397209
0.4981921793052721 -0.1329059372317965 -0.1928334640397209
0.8080680983693231 0.0868922504258544 -0.19144847230904882
0.6256540336572736 0.2104761279319738 -0.19144847230904882
0.21889261614144234 0.11527392712208721 -0.19070270753099466
0.5564470622538465 -0.20490419966165482 -0.19070270753099466
0.6711350313360339 0.1385737495450083 -0.19070270753099466
0.4816362012324698 0.2393159172775828 -0.19070270753099466
0.4868032857661307 -0.21583498055142017 -0.19070270753099466
0.8220991299792852 0.0728612188158923 -0.18931771580032264
0.6958091917070833 0.18512012547813209 -0.18931771580032264
0.02816860104536039 -0.08365350053259056 -0.18857195102226848
0.7764050566496518 0.007841183952112451 -0.18857195102226848
0.3706237871278348 0.2546254027927807 -0.18857195102226848
0.4879965094110173 0.19780878048759662 -0.18857195102226848
0.4614579370948327 -0.03667031951517778 -0.18857195102226848
0.8361301615892474 -0.07015515804980998 -0.18718695929159646
0.4306685055437391 0.09385982420938903 -0.1864411945135423
0.3472813495747392 -0.22771394808756867 -0.1864411945135423
0.7051525589978478 -0.11578530868418152 -0.1864411945135423
0.503220764665866 -0.19494291298335983 -0.1864411945135423
0.17917531481878593 0.06969704540043394 -0.1864411945135423
0.03906742058749485 -0.06663940981041178 -0.1864411945135423
0.5975813166548056 -0.22181175255839708 -0.18505620278287027
0.4526259513661625 -0.22444323684667394 -0.18431043800481609
0.7838307430825626 0.0070208426962528854 -0.18431043800481609
0.3632194082600113 0.22441127549904305 -0.18431043800481609
0.3591709708934314 -0.23598128334142643 -0.18431043800481609
0.24307670251548463 0.09537266133058458 -0.18431043800481609
0.5193825527845541 0.23853819115189767 -0.1829254462741441
0.42179390468489436 0.14271807095448058 -0.1829254462741441
0.4761814645701306 -0.21549405951002404 -0.1821796814960899
0.6809471650587183 -0.1403529312297947 -0.1821796814960899
0.49427158732921594 0.2155792897703732 -0.1821796814960899
0.17943100559983308 0.06962246892262847 -0.1821796814960899
0.22974882055340223 0.044277120251330446 -0.1821796814960899
0.6537160968771975 -0.22450715954193573 -0.18079468976541785
0.596707706486228 -0.18910464014945003 -0.1800489249873637
0.3542808847059049 0.2526118378920345 -0.1800489249873637
0.4627044296524374 0.12161292773554779 -0.1800489249873637
0.3761744078330665 -0.2416384418720944 -0.1800489249873637
0.219680996049671 0.0988564482223519 -0.1800489249873637
0.29535481345708187 -0.014031031609961936 -0.17866393325669166
0.4437300429422307 -0.014031031609961936 -0.17866393325669166
0.5039558756613768 0.13299116749214565 -0.17791816847863748
0.3591177019807133 -0.2569266198222049 -0.17791816847863748
0.31358343538923444 -0.048336211400453855 -0.17791816847863748
0.049582703958058576 -0.07438470971963154 -0.17791816847863748
0.27046757743515987 0.12261438329464903 -0.17791816847863748
0.7659643497568935 -0.07015515804980998 -0.17653317674796548
0.436272395161689 -0.11057560902034608 -0.1757874119699113
0.7873784526695917 -0.01028090015460394 -0.1757874119699113
0.494644469718243 0.20367901466913718 -0.1757874119699113
0.39018413187794126 -0.24477065393992187 -0.1757874119699113
0.034379756268297236 -0.09032276840490346 -0.1757874119699113
0.33098106228298396 0.16838303310208783 -0.17440242023923927
0.44407096398362683 0.07015515804980998 -0.17440242023923927
0.507727314681822 0.1955182172407159 -0.1736566554611851
0.411555619660465 -0.2615184000985098 -0.1736566554611851
0.6491136628183489 -0.1445611753345289 -0.1736566554611851
0.2198621103529127 -0.10202062163781027 -0.1736566554611851
0.03801269611567534 -0.07958375560092347 -0.1736566554611851
0.7379022865369693 -0.15705806225820806 -0.17227166373051309
0.6792425598517374 -0.13630449386321483 -0.17152589895245893
0.45751603755368914 0.22257882490153855 -0.17152589895245893
0.5153873843306925 0.20026980425517532 -0.17152589895245893
0.35260824084655473 -0.08736101685777413 -0.17152589895245893
0.20944271102524165 0.10000705673706409 -0.17152589895245893
0.7098402233170454 0.15435200149212575 -0.17014090722178685
0.3067330532136797 0.09485062598594675 -0.1693951424437327
0.3927303859058691 -0.25561620456933826 -0.1693951424437327
0.6630914255155926 0.16074427101830427 -0.1693951424437327
0.5091762291077557 -0.21092358679880632 -0.1693951424437327
0.03662770438500336 -0.08630629238595462 -0.1693951424437327
0.17662906079085808 -0.10661240191411535 -0.16801015071306066
0.4219004425103307 -0.10558963878992673 -0.16801015071306066
0.5349264215157118 0.22102337265016858 -0.1672643859350065
0.5020701561511538 -0.13576115095348962 -0.1672643859350065
0.5193399376543798 0.13823282850361202 -0.1672643859350065
0.42282732159162667 0.23642874220825896 -0.1672643859350065
0.036521166559567 0.09751407162185449 -0.1672643859350065
0.7238712549270075 0.12628993827220172 -0.16587939420433448
0.4223159400295324 -0.09062107431612518 -0.16513362942628032
0.4268118362629446 -0.2578108837733262 -0.16513362942628032
0.5091123064124939 0.2387619205853141 -0.16513362942628032
0.5110299872703475 -0.1262047080118527 -0.16513362942628032
0.5337331978708252 0.18812449215543584 -0.16513362942628032
0.242575974735934 -0.095852081545048 -0.16513362942628032
0.6687379302637171 0.16838303310208783 -0.1637486376956083
0.4441668480265195 0.028062063219924025 -0.1637486376956083
0.5152701927227127 0.13355581796695806 -0.1630028729175541
0.6546536297410368 -0.16952298783425634 -0.1630028729175541
0.5119142512214689 -0.21611197889755454 -0.1630028729175541
0.24228832260725597 0.10012424834504398 -0.1630028729175541
0.26704771323865434 0.10476929753406716 -0.1630028729175541
0.6677471284871594 -0.1699704467010887 -0.1616178811868821
0.4221454795088342 -0.2534108715828067 -0.16087211640882793
0.4178733127088382 0.23070766098232906 -0.16087211640882793
0.4171914706260459 -0.08736101685777413 -0.16087211640882793
0.5355976098159607 -0.14492340394101227 -0.16087211640882793
0.28593686968851206 0.10261723346025373 -0.16087211640882793
0.24165974943718177 0.10335234445576415 -0.16087211640882793
0.6537160968771975 -0.22450715954193573 -0.15948712467815587
0.5267656240872906 -0.13879747897842457 -0.15874135990010171
0.750100867549427 0.07763411339543907 -0.15874135990010171
0.4299227407656849 0.10311796123980435 -0.15874135990010171
0.5550833780882616 -0.08114986163483728 -0.15874135990010171
0.284871491434149 -0.12067539487170818 -0.15874135990010171
0.10793347094952555 -0.08200216423832773 -0.15874135990010171
0.43865884245146236 0.04209309482988596 -0.1573563681694297
0.47640519400354686 -0.2263609177045276 -0.1566106033913755
0.7399371590028029 0.09080218861936687 -0.1566106033913755
0.44934458634272423 0.13513257778341542 -0.1566106033913755
0.5163781861072504 0.04438365807676666 -0.1566106033913755
0.18506685656541383 -0.07562054849469274 -0.1566106033913755
0.21060397332249736 0.10073151395003097 -0.1566106033913755
0.7379022865369693 0.16838303310208783 -0.1552256116607035
0.43865884245146236 -0.036350706038868995 -0.1552256116607035
0.2895911171009775 0.11028795689166802 -0.15447984688264932
0.047483908796963244 -0.082311123932093 -0.15447984688264932
0.46756255449233314 0.12255046059938725 -0.15447984688264932
0.7910540076471444 -0.02327851485783373 -0.15447984688264932
0.5513332466329037 -0.20700299482275017 -0.15447984688264932
0.29535481345708187 0.0 -0.1530948551519773
0.17662906079085808 -0.1403209698821638 -0.1530948551519773
0.03118362150520797 0.0839944215739867 -0.15234909037392314
0.043861622732128826 -0.078646222737084 -0.15234909037392314
0.43986271987889264 0.029830591122166735 -0.15234909037392314
0.4465852566639238 0.25349610184315585 -0.15234909037392314
0.5649700882887512 0.22224855764268592 -0.15234909037392314
0.44591406836367503 0.05612412643984805 -0.15181640124674156
0.5106464510987768 0.1560352991340193 -0.1509640986432511
0.03512552104635133 -0.08296100466725456 -0.15021833386519695
0.176948674267167 0.08560314273807496 -0.15021833386519695
0.518956401482809 -0.1329485523619711 -0.15021833386519695
0.5045205261361891 0.2346282529583852 -0.15021833386519695
0.7372843671494388 0.10333103689067692 -0.15021833386519695
0.5250290575326786 0.21617590159281633 -0.15021833386519695
0.5835502850448436 -0.24124425191798013 -0.1488333421345249
0.18822037619832868 -0.06837597636502375 -0.1480875773564707
0.20882479163771098 0.10000705673706409 -0.1480875773564707
0.4265454916993539 0.09485062598594675 -0.1480875773564707
0.35260824084655473 0.08736101685777413 -0.1480875773564707
0.5237506036274429 0.21008193797785937 -0.1480875773564707
0.49271613507784595 0.2274795648716089 -0.1480875773564707
0.7538190376571543 0.09822787505227769 -0.1467025856257987
0.44492326658711734 -0.07015515804980998 -0.1467025856257987
0.24207524695638324 -0.09633150175951141 -0.14595682084774453
0.037799620464802765 -0.040015607233877995 -0.14595682084774453
0.46120224631378554 0.10447099162284544 -0.14595682084774453
0.7192475133030717 -0.11199256209864894 -0.14595682084774453
0.5546465730039728 -0.2278631010431796 -0.14595682084774453
0.5766785953042017 -0.17953754342526945 -0.14595682084774453
0.8361301615892474 0.026378765578030317 -0.1445718291170725
0.44586079945095675 0.05612412643984805 -0.1445718291170725
0.43879734162452944 0.11154510323181643 -0.14382606433901834
0.45291360349484056 -0.25344283293043757 -0.14382606433901834
0.5681449154867532 -0.1753399531030788 -0.14382606433901834
0.5839657825640453 0.175276030407817 -0.14382606433901834
0.7799953813668555 -0.12628993827220172 -0.14244107260834632
0.4372845045033339 -0.05973575872213894 -0.14244107260834632
0.4379983079337571 -0.12962457220835824 -0.14169530783029213
0.6375543087585093 -0.17825908952003366 -0.14169530783029213
0.48429964686837756 -0.22310086024617654 -0.14169530783029213
0.5873749929780072 -0.1856847759529445 -0.14169530783029213
0.7147409632871158 -0.1403209698821638 -0.14031031609962014
0.4572070778599239 -0.1406725447061035 -0.14031031609962014
0.4223159400295324 -0.09062107431612518 -0.13956455132156595
0.4190558825711813 -0.08549660491263873 -0.13956455132156595
0.6740541677529889 0.15898639689860525 -0.13956455132156595
0.7779924702486528 -0.040090183711683464 -0.13956455132156595
0.7575478615474251 0.09822787505227769 -0.1381795595908939
0.5653642782428655 -0.1705244433933576 -0.1381795595908939
0.22216332738233693 -0.04308389660644368 -0.13743379481283974
0.45482063057015054 -0.030437856727153725 -0.13743379481283974
0.8011005245857885 0.019613613662824585 -0.13743379481283974
0.5125747857391741 -0.23128296523968514 -0.13743379481283974
0.5686456432663041 -0.15780382703626217 -0.1360488030821677
0.560357000447359 -0.07015515804980998 -0.1360488030821677
0.2932027493832684 0.11100176032209123 -0.13530303830411353
0.46808458983697115 -0.12307249594402524 -0.13530303830411353
0.5850205070358647 0.20836667898833477 -0.13530303830411353
0.7773852046436659 -0.06341131369969162 -0.13530303830411353
0.5778611651665447 -0.19870369822126152 -0.13530303830411353
0.20377489871202986 -0.04209309482988596 -0.13391804657344153
0.2775097276965 0.11955674770462688 -0.13317228179538734
0.4356331682090711 -0.10741143560488756 -0.13317228179538734
0.4190558825711813 0.005721081225929906 -0.13317228179538734
0.4577930358998235 0.22974882055340223 -0.13317228179538734
0.6659359854547421 0.15768663542828212 -0.13317228179538734
0.8080680983693231 -0.08418618965977208 -0.13178729006471532
0.21112600866713535 -0.12628993827220172 -0.13178729006471532
0.2408926770940403 -0.1041194167989056 -0.13104152528666116
0.5150997322020147 0.09031211462235993 -0.13104152528666116
0.6627824658218273 0.16979998618039055 -0.13104152528666116
0.6635814995125996 -0.16004112137042475 -0.13104152528666116
0.7481512253439425 0.11225890666223978 -0.12965653355598913
0.20366836088659362 -0.014031031609961936 -0.12965653355598913
0.4223159400295324 0.09062107431612518 -0.12891076877793498
0.4590927973701465 0.1140807034772006 -0.12891076877793498
0.5933730725500717 0.2105187430621482 -0.12891076877793498
0.646162565053763 -0.1558328772656904 -0.12891076877793498
0.773773572361375 0.08418618965977208 -0.12752577704726292
0.17662906079085808 -0.04209309482988596 -0.12752577704726292
0.24078613926860395 -0.10422595462434196 -0.12678001226920874
0.45348890775219663 0.039664032409938155 -0.12678001226920874
0.6531834077500157 0.17747070961180486 -0.12678001226920874
0.659447831885671 -0.1641747889973535 -0.12678001226920874
0.7238712549270075 0.13757229398590706 -0.1253950205385367
0.440917444350712 -0.0740437886782354 -0.1253950205385367
0.2709683052147105 -0.12604490127369825 -0.12464925576048255
0.4506017326828726 0.0317695795451076 -0.12464925576048255
0.6794769430676972 -0.15964693141631034 -0.12464925576048255
0.5773923987346251 -0.19005282679583319 -0.12464925576048255
0.6594584856682144 0.2104761279319738 -0.12326426402981053
0.29828460365658044 0.13465315756895216 -0.12326426402981053
0.2738235189364036 0.12233738494851468 -0.12251849925175635
0.45409617335718366 -0.10401287897346939 -0.12251849925175635
0.5665148867575778 0.20438216431701683 -0.12251849925175635
0.6693665034337912 0.1726338923369966 -0.12251849925175635
0.6633471162966398 0.12263569085973625 -0.12251849925175635
0.440224948485376 0.024365200677284135 -0.12113350752108434
0.6313964224482905 0.22450715954193587 -0.12113350752108434
0.4632158112145317 -0.10524871774853058 -0.12038774274303017
0.5283104225561172 -0.23266795697035714 -0.12038774274303017
0.6497102746407921 0.14157811622231206 -0.12038774274303017
0.7850239667274492 0.04116621574859018 -0.12038774274303017
0.5835502850448436 -0.15435200149212575 -0.11900275101235815
0.7379022865369693 -0.16838303310208783 -0.11900275101235815
0.23446844622023072 0.11054364767271518 -0.11825698623430397
0.46653979136814455 -0.10617559682982636 -0.11825698623430397
0.8150463259354015 -0.007084765391514674 -0.11825698623430397
0.4467876785322527 -0.23006843402971117 -0.11825698623430397
0.33098106228298396 0.16838303310208783 -0.11687199450363192
0.6817781600971216 -0.2104761279319738 -0.11687199450363192
0.28858966154187615 0.09969809704329882 -0.11612622972557775
0.521065850426448 0.13815825202580653 -0.11612622972557775
0.45317994805843137 -0.23232703592896098 -0.11612622972557775
0.44830051565344825 0.26051694453940855 -0.11612622972557775
0.6846653351664455 0.10713443725875318 -0.11612622972557775
0.5348305374728193 0.07015515804980998 -0.11474123799490574
0.23707862294342036 -0.10032667021337303 -0.11399547321685156
0.44701140796566896 0.05049892925681083 -0.11399547321685156
0.5064488607765861 0.22601999666313144 -0.11399547321685156
0.8155896688451265 0.018793272406965017 -0.11399547321685156
0.7043002563943572 -0.10307534610962978 -0.11399547321685156
0.4372845045033339 -0.07951983290566168 -0.11261048148617954
0.6958091917070833 0.16668908167765029 -0.11261048148617954
0.4596361402798717 0.06770478806477497 -0.11186471670812537
0.6133808761670104 -0.19918311843572492 -0.11186471670812537
0.6565393492512598 -0.15091082973053302 -0.11186471670812537
0.678155874032287 -0.14354906599288397 -0.11186471670812537
0.4567170038629168 -0.1465427788876442 -0.11047972497745336
0.8361301615892474 -0.014031031609961936 -0.11047972497745336
0.44051260061405406 -0.1306047202023723 -0.10973396019939918
0.46118093874869814 -0.2379735406770854 -0.10973396019939918
0.6483572442577512 0.15840043885870547 -0.10973396019939918
0.7813910268800712 0.03753327590121193 -0.10973396019939918
0.17662906079085808 -0.028062063219924025 -0.10834896846872716
0.7636844402925564 -0.10368261171461676 -0.10834896846872716
0.2701266563937637 0.1251606373225769 -0.10760320369067299
0.4514753428514503 0.05083985029820713 -0.10760320369067299
0.7137608152931016 -0.13684783677294002 -0.10760320369067299
0.5878224518448397 -0.18841214428411404 -0.10760320369067299
0.7799953813668555 -0.11225890666223978 -0.10707051456349144
0.17662906079085808 0.08418618965977208 -0.10621821196000093
0.6537160968771975 -0.22450715954193573 -0.10621821196000093
0.4306685055437391 0.09897363983033194 -0.10547244718194676
0.4190558825711813 -0.08549660491263873 -0.10547244718194676
0.5867570735904767 0.19382426581627868 -0.10547244718194676
0.709073150973904 0.1247557935859188 -0.10547244718194676
0.7581764347174993 0.11461339260438212 -0.10493975805476524
0.5835502850448436 0.07015515804980998 -0.10408745545127475
0.7581764347174993 0.11861921484078743 -0.10408745545127475
0.46489910885642544 0.10311796123980435 -0.10334169067322058
0.6661916762357892 -0.1692246819230346 -0.10334169067322058
0.6100995111435722 0.18257387145020423 -0.10334169067322058
0.6880425842327765 -0.13930886054051872 -0.10334169067322058
0.7930143036351724 0.07015515804980998 -0.10280900154603902
0.42685445139311917 0.11225890666223978 -0.10195669894254855
0.794037066759361 0.07015515804980998 -0.10195669894254855
0.30197081241667667 0.09897363983033194 -0.10121093416449438
0.4171914706260459 -0.08736101685777413 -0.10121093416449438
0.5367375645481293 0.23672704811948053 -0.10121093416449438
0.5033273024913025 -0.2380800785025216 -0.10121093416449438
0.7659643497568935 0.11225890666223978 -0.10067824503731282
0.7912244681678426 0.08418618965977208 -0.09982594243382237
0.4254055369671854 -0.1423664961305409 -0.09982594243382237
0.241073791397282 -0.09336975021238193 -0.0990801776557682
0.5176140248823115 -0.09282640730265673 -0.0990801776557682
0.7465851193100288 -0.10832766090363995 -0.0990801776557682
0.462225009437974 0.22807617669405206 -0.0990801776557682
0.7404059254347227 -0.07786849661139886 -0.0990801776557682
0.28888796745309786 -0.014031031609961936 -0.09769518592509617
0.5835502850448436 0.08418618965977208 -0.09769518592509617
0.2769770385693185 -0.12185796473405126 -0.096949421147042
0.4568981181661585 -0.0553250927490757 -0.096949421147042
0.6364995842866898 0.17364600167864153 -0.096949421147042
0.7784186215503982 -0.08775520681188839 -0.096949421147042
0.7131428959055711 0.11886425183929089 -0.096949421147042
0.4413649032175445 0.004783548362090293 -0.09641673201986045
0.5835502850448436 0.014031031609961936 -0.09556442941636994
0.28888796745309786 -0.04209309482988596 -0.09556442941636994
0.4612981303566782 -0.00468766431919761 -0.09481866463831577
0.6725732919794244 -0.16652927493949596 -0.09481866463831577
0.6770478806477492 0.14152484730959394 -0.09481866463831577
0.7208136193369854 -0.11777756601984064 -0.09481866463831577
0.5647143975077042 0.21970230361475837 -0.09481866463831577
0.4461697591447222 0.01764266389225298 -0.09343367290764376
0.7535633468761072 0.12628993827220172 -0.09343367290764376
0.45291360349484056 0.07261618181738884 -0.09268790812958959
0.4190558825711813 -0.08549660491263873 -0.09268790812958959
0.6220743627226134 0.20243252211153245 -0.09268790812958959
0.5741536488413613 -0.19662621062525354 -0.09268790812958959
0.754458264609772 0.08350434757697961 -0.09268790812958959
0.5835502850448436 -0.09822787505227769 -0.09130291639891756
0.28888796745309786 -0.04209309482988596 -0.09130291639891756
0.4642066129910894 0.07775130500341897 -0.09055715162086339
0.4912139517391941 -0.24938374178131417 -0.09055715162086339
0.7804748015813189 0.07360698359394656 -0.09055715162086339
0.5825381757031987 0.1932489615589226 -0.09055715162086339
0.7668592674905585 -0.021818946649356283 -0.09055715162086339
0.8080680983693231 -0.09822787505227769 -0.08917215989019138
0.5835502850448436 -0.15435200149212575 -0.08917215989019138
0.21391729969356654 0.11685068693854471 -0.08842639511213721
0.45345694640456574 -0.05813769134059423 -0.08842639511213721
0.8215025181568417 6.392269526178835E-4 -0.08842639511213721
0.7431119862008049 0.07600408466626347 -0.08842639511213721
0.7713232023763398 0.06818420827923838 -0.08842639511213721
0.17662906079085808 -0.014031031609961936 -0.08704140338146518
0.7519333181469314 -0.15435200149212575 -0.08704140338146518
0.6552928566936548 0.18435305313499062 -0.08629563860341101
0.7500049835065343 -0.0687168974064199 -0.08629563860341101
0.4878153951077756 -0.2560849710012581 -0.08629563860341101
0.4491954333871133 0.07796438065429155 -0.08629563860341101
0.26978573535236744 -0.13010399242282167 -0.08629563860341101
0.8185194590446251 -0.04209309482988596 -0.08491064687273896
0.43828596006243514 -0.08418618965977208 -0.08491064687273896
0.2684753200995009 0.11659499615749756 -0.08416488209468478
0.5254445550518804 0.13431223652755586 -0.08416488209468478
0.521385463902757 -0.24674160371049364 -0.08416488209468478
0.7758830213050141 0.0552079011410958 -0.08416488209468478
0.5007597408982873 0.25897214607058194 -0.08416488209468478
0.5350649206887791 -0.1403209698821638 -0.08277989036401277
0.7416524179923275 0.08496391578545706 -0.08277989036401277
0.5647783202029658 0.21045482036688642 -0.0820341255859586
0.8154724772371466 0.027135184138628095 -0.0820341255859586
0.49694568674766737 -0.24889366778430708 -0.0820341255859586
0.45639739038660787 -0.07428882567673886 -0.0820341255859586
0.4171914706260459 -0.08736101685777413 -0.0820341255859586
0.7379022865369693 0.15705806225820793 -0.08064913385528658
0.5359172232922697 -0.24987381577832113 -0.08064913385528658
0.20238990698135786 0.06535030212263249 -0.08064913385528658
0.7745086833568855 0.05757304086578182 -0.0799033690772324
0.7274402720791237 0.09591600424030979 -0.0799033690772324
0.20904852107112723 0.11562550194602705 -0.0799033690772324
0.45591797017214447 0.13620860982032215 -0.0799033690772324
0.5931386893341115 -0.20221944646065973 -0.0799033690772324
0.7636844402925564 -0.08024429011862856 -0.07851837734656039
0.4372845045033339 -0.014031031609961936 -0.07851837734656039
0.7668059985778404 0.05800984595007066 -0.07777261256850622
0.7358674140711361 0.12261438329464903 -0.07777261256850622
0.23308345448955875 -0.09899494739541916 -0.07777261256850622
0.4626831220873502 -0.10389568736548935 -0.07777261256850622
0.4974037993970436 -0.22660595470303108 -0.07777261256850622
0.7576011304601432 0.07210480025529453 -0.0763876208378342
0.5835502850448436 0.11225890666223978 -0.0763876208378342
0.2467842188406682 -0.04317978064933636 -0.0763876208378342
0.7899566680451506 0.03840688606978975 -0.07564185605978002
0.4265454916993539 0.09485062598594675 -0.07564185605978002
0.4501542738160401 0.1306366815500032 -0.07564185605978002
0.5523986248872668 -0.23359483605165304 -0.07564185605978002
0.7333637751733827 0.09642738580240409 -0.07425686432910797
0.5835502850448436 0.0 -0.07425686432910797
0.24522876658929807 -0.029212671734636216 -0.07425686432910797
0.5113922158768309 0.24214982343418887 -0.0735110995510538
0.23602389847160085 0.10133877955501797 -0.0735110995510538
0.43891453323250934 -0.13570788204077153 -0.0735110995510538
0.5130861673012684 -0.25124815372644954 -0.0735110995510538
0.8406580191702903 -0.007404378867823464 -0.07212610782038179
0.43929806940408006 0.011942890231410284 -0.07212610782038179
0.7824777126995216 0.04014345262440157 -0.07138034304232761
0.5109554107925421 0.25744865516684273 -0.07138034304232761
0.2394118013204755 0.10560029257247042 -0.07138034304232761
0.47063084386489884 0.03392164361892104 -0.07138034304232761
0.5509603642438764 -0.21169065914194776 -0.07138034304232761
0.7369967150207609 0.14300572308315876 -0.06999535131165559
0.42776002290932774 0.1432827214292933 -0.06999535131165559
0.7934298011543742 0.032739073756577954 -0.06924958653360141
0.6605132101400341 0.15761205895047695 -0.06924958653360141
0.2676230174960105 0.125299136495644 -0.06924958653360141
0.4545223246589288 0.060928982367025555 -0.06924958653360141
0.6855069839873924 -0.16659319763475777 -0.06924958653360141
0.8220991299792852 0.08418618965977208 -0.06786459480292936
0.429198283552718 0.11225890666223978 -0.06786459480292936
0.7895837856561235 -0.06347523639495341 -0.06711883002487519
0.6888416179235487 0.1695336416168 -0.06711883002487519
0.31376454969247614 -0.08612517808271294 -0.06711883002487519
0.4579102275078034 -0.06328346830916805 -0.06711883002487519
0.46525068368036526 -0.024493046067807712 -0.06711883002487519
0.7416098028621531 -0.13344928014152171 -0.06711883002487519
0.21369357026015043 -0.12908122929863305 -0.0657338382942032
0.807844368935907 -0.07198760864731464 -0.0657338382942032
0.8088671320600953 -0.029660130601468732 -0.06498807351614903
0.3997192672544911 0.08713728742435788 -0.06498807351614903
0.4190558825711813 -0.013477034917693205 -0.06498807351614903
0.45878383767638126 -0.1145707774742077 -0.06498807351614903
0.4669126737571716 -0.03723496998999035 -0.06498807351614903
0.7009869300232883 -0.15572633944025419 -0.06498807351614903
0.20193179433198166 -0.09822787505227769 -0.06360308178547698
0.7519333181469314 -0.14301637686570245 -0.06360308178547698
0.7931954179384144 -0.02788094891668234 -0.06285731700742281
0.5518659357600851 0.20737587721177722 -0.06285731700742281
0.35745571190390696 0.02178698530172539 -0.06285731700742281
0.26793197718977574 -0.1171170315021354 -0.06285731700742281
0.4590714898050593 0.13197905815050073 -0.06285731700742281
0.4680739360544275 -0.07538616527873279 -0.06285731700742281
0.5662911573241616 -0.22127906343121556 -0.06285731700742281
0.5653642782428655 -0.24112706031000009 -0.06232462788024129
0.20194244811452536 0.06840793771265465 -0.06232462788024129
0.713782122858189 0.14073646740136544 -0.06072656049869666
0.31777037192888147 0.04896478457052806 -0.06072656049869666
0.4144214871647018 0.03600978499747269 -0.06072656049869666
0.4679354368813602 0.08130966837299175 -0.06072656049869666
0.4999820147726022 0.11747926010861891 -0.06072656049869666
0.537834904150123 -0.21638897724368908 -0.06072656049869666
0.17662906079085808 0.028062063219924025 -0.059341568768024607
0.5869275341111747 -0.2385381911518978 -0.059341568768024607
0.7206325050337437 -0.1352710769564827 -0.058595803989970434
0.4568981181661585 0.14122654139837237 -0.058595803989970434
0.21437541234294274 -0.11842744675500205 -0.058595803989970434
0.410948354055478 -0.04305193525881279 -0.058595803989970434
0.6444366522816947 0.18879568045568476 -0.058595803989970434
0.8301001206695522 -0.01197485157904118 -0.058595803989970434
0.8641922248091712 0.014031031609961936 -0.057210812259298374
0.4372845045033339 -0.05612412643984805 -0.057210812259298374
0.5703822098209158 0.20519185179033272 -0.0564650474812442
0.7954966349678385 -0.07836922439094948 -0.0564650474812442
0.5614543400493531 -0.21644224615640717 -0.0564650474812442
0.4515392655467121 -0.005625197183037224 -0.0564650474812442
0.2832095013573425 -0.10519544883581232 -0.0564650474812442
0.3145422758181613 0.06788590236801666 -0.0564650474812442
0.8449621473179172 0.0 -0.055080055750572225
0.44918477960456976 -0.04209309482988596 -0.055080055750572225
0.5314319808414009 0.2184238497095226 -0.05433429097251805
0.8273940599034697 -0.025963268058828693 -0.05433429097251805
0.4518269176753901 0.13128656228516458 -0.05433429097251805
0.44758671222302504 0.006498807351614897 -0.05433429097251805
0.23551251690950656 -0.10180754598693768 -0.05433429097251805
0.30881054080968784 0.06659679468023735 -0.05433429097251805
0.4001028034260618 0.01274192392218264 -0.052949299241846
0.2951097764585784 0.13761490911608149 -0.052949299241846
0.4427925100783911 -0.022671249252846744 -0.052949299241846
0.5975813166548056 -0.2385381911518978 -0.052949299241846
0.7762878650416719 -0.05368441023735656 -0.05220353446379183
0.6844522595155726 -0.1740401916327558 -0.05220353446379183
0.4562695449960843 -0.061472325276750756 -0.05220353446379183
0.3169819920206528 -0.0517454218144157 -0.05220353446379183
0.316225573460055 0.06908977979544695 -0.05220353446379183
0.8641922248091712 -0.014031031609961936 -0.050818542733119844
0.5398591228334129 -0.08418618965977208 -0.050818542733119844
0.20944271102524165 -0.12848461747618972 -0.050818542733119844
0.6541315943963989 0.16350360069710485 -0.05007277795506567
0.7956351341409058 -0.07949852534057447 -0.05007277795506567
0.5087713853710979 -0.24265055121373932 -0.05007277795506567
0.4690966991786161 0.07912564295154742 -0.05007277795506567
0.26758040236583586 0.11743664497844433 -0.05007277795506567
0.3955962534101059 0.019080924535643064 -0.05007277795506567
0.5400295833541112 0.028062063219924025 -0.04868778622439362
0.2015376043778674 0.04209309482988596 -0.04868778622439362
0.6767815360841584 0.1694377575739072 -0.047942021446339446
0.7950917912311807 -0.06587233746727048 -0.047942021446339446
0.7407788078237498 -0.1368797981205709 -0.047942021446339446
0.4522104538469609 -0.05999144950318609 -0.047942021446339446
0.3232357623737642 -0.041880019179013385 -0.047942021446339446
0.3263786282241354 0.07622781409967973 -0.047942021446339446
0.44984531412227485 -0.028062063219924025 -0.04740933231915793
0.6204549877759816 -0.2385381911518978 -0.04740933231915793
0.7222944951105502 0.11235479070513246 -0.045811264937613214
0.794878715580308 0.07470432319594049 -0.045811264937613214
0.6727437525001223 -0.168201918798846 -0.045811264937613214
0.4653039525930834 -0.06458322977949102 -0.045811264937613214
0.23021758698532196 -0.09664046145327666 -0.045811264937613214
0.39389164820312483 0.023534205638880885 -0.045811264937613214
0.8641922248091712 0.014031031609961936 -0.045278575810431695
0.17662906079085808 -0.12628993827220172 -0.045278575810431695
0.6576366888532535 0.16665712033001956 -0.043680508428887065
0.7825629429598705 0.047622407970030506 -0.043680508428887065
0.599680111815901 -0.22880063390701907 -0.043680508428887065
0.46118093874869814 -0.068684936058789 -0.043680508428887065
0.40179675485049904 -0.07011254291963556 -0.043680508428887065
0.3600978499747274 0.08009513716301778 -0.043680508428887065
0.7866007265439069 0.08418618965977208 -0.04314781930170547
0.42182586603252525 0.07308494824930857 -0.04314781930170547
0.5844878179086833 0.20438216431701683 -0.04154975192016084
0.8316662267034658 -0.0029191364169549004 -0.04154975192016084
0.5832200177859913 -0.19586979206465577 -0.04154975192016084
0.46534656772325794 0.11897078966472725 -0.04154975192016084
0.40843406137518123 -0.07928544968970173 -0.04154975192016084
0.38950228979514895 0.027231068181520778 -0.04154975192016084
0.7380727470576677 0.142078844001863 -0.041017062792979314
0.45035669568436915 0.014031031609961936 -0.041017062792979314
0.17662906079085808 0.08418618965977208 -0.041017062792979314
0.714155005247216 0.12983764785923083 -0.03941899541143468
0.6147019452024206 -0.2175182781933139 -0.03941899541143468
0.5289070343785603 -0.1402890085345329 -0.03941899541143468
0.3205083940425947 -0.03069354750820088 -0.03941899541143468
0.2386127676297033 0.10639932626324262 -0.03941899541143468
0.6479950156512675 0.20508531396489652 -0.03888630628425309
0.3013315854640589 0.04209309482988596 -0.03888630628425309
0.19620005932350823 0.0 -0.03888630628425309
0.5500121775974932 0.22476285032298304 -0.03728823890270846
0.6870517824562187 -0.16300287291755408 -0.03728823890270846
0.5318048632304279 -0.13910643867218983 -0.03728823890270846
0.3449481711976841 -0.08461234096151724 -0.03728823890270846
0.20361509197387537 -0.04134733005183187 -0.03728823890270846
0.39407276250636664 0.07024038831015914 -0.03728823890270846
0.33098106228298396 0.16838303310208783 -0.03675554977552694
0.794037066759361 -0.1016051241186088 -0.03675554977552694
0.7614471459583939 0.06144036392911986 -0.03675554977552694
0.7868457635424103 0.043723123559061564 -0.035157482393982226
0.5414465364324139 -0.24649656671199016 -0.035157482393982226
0.450793500768658 0.12986960920686172 -0.035157482393982226
0.3991546167796785 -0.02619765127478863 -0.035157482393982226
0.3163427650680349 0.05559143731266653 -0.035157482393982226
0.7675091482257201 0.08418618965977208 -0.03462479326680071
0.7526684291424421 -0.11229086800987068 -0.03377249066331025
0.7238712549270075 0.18241406471204993 -0.03377249066331025
0.2011540682062967 0.11225890666223978 -0.03377249066331025
0.5716500099436078 0.22908828603569698 -0.03302672588525608
0.8373979617119394 0.00176852790224271 -0.03302672588525608
0.7482790707344661 -0.13147833037094994 -0.03302672588525608
0.45767584429184366 0.06381615743634957 -0.03302672588525608
0.40074203037867956 -0.06890866549220527 -0.03302672588525608
0.37036809634678763 0.020678991917187774 -0.03302672588525608
0.7636844402925564 -0.0722326456458181 -0.03249403675807448
0.7416524179923275 -0.09822787505227769 -0.031641734154584024
0.33098106228298396 0.15705806225820793 -0.031641734154584024
0.4236902779776608 0.03575409421642554 -0.031641734154584024
0.2091550588965636 -0.05021127712813278 -0.030895969376529848
0.4004011093372834 -0.02748675896256793 -0.030895969376529848
0.3289781511647813 0.03734150781542656 -0.030895969376529848
0.6534177909659759 -0.18498162630506484 -0.030895969376529848
0.8361514691543344 0.009258137030415326 -0.030895969376529848
0.6674914377061123 0.15084690703527107 -0.030895969376529848
0.3919526597801841 0.009279444595502537 -0.03036328024934833
0.429198283552718 -0.029756014644361416 -0.029510977645857868
0.19066009240082016 0.14301637686570245 -0.029510977645857868
0.7857164625927855 -0.10423660840688564 -0.029510977645857868
0.68793604640734 0.17284696798786903 -0.028765212867803695
0.8219393232411306 0.0016939514244373912 -0.028765212867803695
0.46197997243947053 -0.128793577169955 -0.028765212867803695
0.35474965113782464 0.002812598591518536 -0.028765212867803695
0.3432116046430723 0.08393049887872492 -0.028765212867803695
0.23900695758381754 0.09922933061137894 -0.028765212867803695
0.7691924458676137 -0.1153058884697181 -0.0282325237406221
0.6958091917070833 0.17556368253649518 -0.027380221137131643
0.6817781600971216 -0.2104761279319738 -0.027380221137131643
0.19586979206465577 0.028062063219924025 -0.027380221137131643
0.6789336001579719 0.14813019248664522 -0.02663445635907747
0.784374085992288 0.0959053504577661 -0.02663445635907747
0.5841788582149181 -0.21617590159281633 -0.02663445635907747
0.4116195423557268 0.05215026555107364 -0.02663445635907747
0.38512358516971656 0.023811203985015253 -0.02663445635907747
0.363400522563253 0.013807302176545829 -0.02663445635907747
0.6810537028841546 -0.18602569699434066 -0.02610176723189595
0.1974891670112877 -0.06756628889170771 -0.02610176723189595
0.6958091917070833 0.17559564388412593 -0.025249464628405414
0.2467842188406682 0.014031031609961936 -0.025249464628405414
0.7670829969239746 0.11424051021535507 -0.02450369985035124
0.7746791438775837 0.08914019854256051 -0.02450369985035124
0.5301215655885343 0.13614468712506037 -0.02450369985035124
0.32784885021515636 -0.03851342389522597 -0.02450369985035124
0.3096308820655474 -0.05967183602687715 -0.02450369985035124
0.21178654318484044 0.11746860632607523 -0.02450369985035124
0.41245053739413007 0.024812659544116503 -0.023971010723169723
0.41418710394874186 -0.011271701931161658 -0.02311870811967926
0.1958165231519375 0.006466846003984002 -0.02311870811967926
0.7745939136172346 0.08607190916999469 -0.02237294334162509
0.7480127261708752 -0.12557613484177851 -0.02237294334162509
0.6175784664892011 0.19290804051752627 -0.02237294334162509
0.458645338503314 0.029521631428401474 -0.02237294334162509
0.34948668256127097 0.08420749722485929 -0.02237294334162509
0.3428067609064144 -0.07405444246077893 -0.02237294334162509
0.22118317938832288 0.03847080876505154 -0.02237294334162509
0.8080680983693231 0.08546464356500784 -0.020987951610953032
0.5835502850448436 -0.09822787505227769 -0.020987951610953032
0.5835502850448436 0.1420042675240575 -0.020987951610953032
0.6823854257021084 -0.17715109613549607 -0.02024218683289886
0.6266022203036566 0.2017719875938272 -0.02024218683289886
0.5286193822498825 0.1410986960078488 -0.02024218683289886
0.39481852728442074 0.03189742493563118 -0.02024218683289886
0.3771225944794497 -0.023630089681773568 -0.02024218683289886
0.23467086808855978 -0.0975353791869417 -0.02024218683289886
0.41662682015123337 0.028062063219924025 -0.01970949770571734
0.4221348257262907 -0.040111491276770675 -0.01885719510222688
0.7141017363344979 0.16254476026817805 -0.01885719510222688
0.8190841095194374 0.006892997305729309 -0.01811143032417271
0.5976878544802422 0.19105428235493443 -0.01811143032417271
0.6264104522178713 -0.19719086110006595 -0.01811143032417271
0.4102452044075985 0.05083985029820713 -0.01811143032417271
0.3246527154520671 -0.029564246558576052 -0.01811143032417271
0.3879148761961479 -0.03686208760096315 -0.01811143032417271
0.21356572486962686 0.05690185256553304 -0.01811143032417271
0.8031247432690783 0.08418618965977208 -0.016726438593500655
0.5476683454378944 0.028062063219924025 -0.016726438593500655
0.19952403947712108 -0.009769518592509633 -0.016726438593500655
0.7522742391883277 -0.11631799781136319 -0.015980673815446482
0.7728360394975355 0.08942785067123857 -0.015980673815446482
0.45672765764546047 -0.13820086715598112 -0.015980673815446482
0.3364357989453229 0.07563120227723642 -0.015980673815446482
0.3390459756685125 0.01703539828726599 -0.015980673815446482
0.29008119109798447 0.11395285808667702 -0.015980673815446482
0.24366266055538427 0.033506146099719414 -0.014595682084774426
0.5835502850448436 -0.11225890666223978 -0.014595682084774426
0.7648030874596377 -0.12628993827220172 -0.014595682084774426
0.6715505288552357 0.18588719782127355 -0.013849917306720253
0.6686527000033679 -0.16410021251954818 -0.013849917306720253
0.5359385308573568 0.1338328163130926 -0.013849917306720253
0.3201674730011985 -0.06807767045380202 -0.013849917306720253
0.3265277811797461 0.01082424306432914 -0.013849917306720253
0.21012455310803396 0.12263569085973625 -0.013849917306720253
0.8309204619254117 0.04209309482988596 -0.012464925576048273
0.30291899906305997 -0.09822787505227769 -0.012464925576048273
0.24479196150500923 0.028062063219924025 -0.012464925576048273
0.7923431153349239 -0.040090183711683464 -0.011719160797994102
0.6437761177639898 0.18355401944421842 -0.011719160797994102
0.46128747657413455 -0.1382967511988738 -0.011719160797994102
0.30975872745607097 -0.0015980673815447087 -0.011719160797994102
0.32367256745805306 -0.0012571463401484032 -0.011719160797994102
0.429198283552718 -0.028062063219924025 -0.011186471670812506
0.4441668480265195 -0.05612412643984805 -0.010334169067322046
0.197478513228744 -0.017397626893749355 -0.010334169067322046
0.7799953813668555 -0.12628993827220172 -0.010334169067322046
0.7506655180242393 0.11807587193106221 -0.009588404289267874
0.6621219313041221 -0.1681486498861279 -0.009588404289267874
0.40828490841957027 -0.05050958303935451 -0.009588404289267874
0.3115592167059446 0.05497351792513586 -0.009588404289267874
0.2343938697424254 -0.09780172375053255 -0.009588404289267874
0.7912244681678426 0.09232567952310611 -0.008203412558595894
0.429198283552718 0.032973456972537896 -0.008203412558595894
0.23997645179528806 -0.029127441474287065 -0.008203412558595894
0.6693345420861605 0.15975346924174672 -0.007457647780541722
0.715049922980881 0.11561484816348352 -0.007457647780541722
0.5060866321701029 0.10986180558992271 -0.007457647780541722
0.389097446058491 0.07538616527873279 -0.007457647780541722
0.31998635869795666 0.026389419360574 -0.007457647780541722
0.747160423567385 0.13607011064725488 -0.006924958653360127
0.28888796745309786 0.028062063219924025 -0.006072656049869666
0.2127986525264854 -0.03064027859548277 -0.006072656049869666
0.7779392013359346 0.06520114916702169 -0.005326891271815494
0.7215274227674088 -0.1101068425884262 -0.005326891271815494
0.5066512826449152 0.14025704718690188 -0.005326891271815494
0.32303334050543514 -0.06911108736053416 -0.005326891271815494
0.32370452880568396 -0.040409797187992404 -0.005326891271815494
0.7715788931573869 0.12153835125774232 -0.003941899541143438
0.2467842188406682 -0.028062063219924025 -0.003941899541143438
0.707688159243232 0.13236259432207145 -0.003196134763089266
0.6467591768762064 -0.20061072529657148 -0.003196134763089266
0.537291561240398 -0.1134734378722136 -0.003196134763089266
0.3170459147159146 0.04552361280893517 -0.003196134763089266
0.31422266234185237 0.02687949335758094 -0.003196134763089266
0.7659643497568935 0.11860856105824374 -0.002663445635907747
0.2467842188406682 0.014031031609961936 -0.0018111430324172862
0.7835750523015155 0.05888345611864848 -0.001065378254363114
0.6656483333260641 -0.19180004713298868 -0.001065378254363114
0.46128747657413455 0.13431223652755586 -0.001065378254363114
0.3050391017892425 -0.0340281814443574 -0.001065378254363114
0.41347330051831865 0.004325435712714244 -0.001065378254363114
0.7763944028671084 0.12628993827220172 -5.326891271815191E-4
0.2467842188406682 0.05612412643984805 3.1961347630894173E-4
0.7783120837249617 0.06520114916702169 0.001065378254363114
0.7617880669997902 -0.11418724130263697 0.001065378254363114
0.5370997931546126 0.11483712203779838 0.001065378254363114
0.3181432543179085 0.057466503040345604 0.001065378254363114
0.3551864562221135 0.06959050757499757 0.001065378254363114
0.7763944028671084 -0.12628993827220172 0.001598067381544633
0.5835502850448436 0.0 0.002450369985035094
0.26054890588703944 0.13604880308216782 0.002450369985035094
0.7130470118626783 -0.16128761392802948 0.003196134763089266
0.5097621871476555 0.11317513196099203 0.003196134763089266
0.40962728502006784 0.049124591308682526 0.003196134763089266
0.3214246193413469 0.0469938347999563 0.003196134763089266
0.28850443128152714 0.13349189527169628 0.003196134763089266
0.46847877979108543 0.14765077227218196 0.004581126493761321
0.33098106228298396 0.15705806225820793 0.004581126493761321
0.7691498307374393 -0.11487973716797295 0.005326891271815494
0.4596148327147845 -0.13599553416944957 0.005326891271815494
0.3927730010360437 0.07201956999494553 0.005326891271815494
0.35292785432286367 -0.07185976325679105 0.005326891271815494
0.7840331649508916 0.11225890666223978 0.005859580398997013
0.24431254129054583 -0.05612412643984805 0.006711883002487549
0.766262655668115 -0.10700659186822961 0.007457647780541722
0.6953723866227945 0.14577570654450273 0.007457647780541722
0.5376005209341632 0.11483712203779838 0.007457647780541722
0.42235855515970694 0.004154975192016091 0.007457647780541722
0.4135159156484932 -0.04830425005282296 0.007457647780541722
0.7920980783364203 0.09822787505227769 0.007990336907723241
0.5354484568603498 -0.14814084626918889 0.008842639511213701
0.8341272504710445 0.012986960920686111 0.009588404289267874
0.7152949599793845 0.13931951432306242 0.009588404289267874
0.5194464754798159 -0.06351785152512798 0.009588404289267874
0.36726784562659104 -0.07534355014855837 0.009588404289267874
0.38945967466497433 0.06457257599694749 0.009588404289267874
0.7967324737428998 -0.09822787505227769 0.010121093416449468
0.4496855073841204 -0.0375226221186684 0.01097339601993993
0.4649417239866 0.13425896761483774 0.011719160797994102
0.8145882132860253 -0.0021840254214443343 0.011719160797994102
0.543065911379046 -0.10970199885176825 0.011719160797994102
0.44551987840956064 0.015916751120184692 0.011719160797994102
0.2108383565384573 -0.11776691223729696 0.011719160797994102
0.8115731928261778 0.08418618965977208 0.013104152528666082
0.4229445131996066 0.07015515804980998 0.013104152528666082
0.8199470659054718 0.011452816234403342 0.013849917306720253
0.7402993876092865 0.11787345006273317 0.013849917306720253
0.37421411184503844 0.07393725085279904 0.013849917306720253
0.4213890609482364 -0.04569407332963332 0.013849917306720253
0.23788831041673625 0.10029470886574213 0.013849917306720253
0.46070151853423474 0.02541992514910349 0.01523490903739231
0.5443124039366507 0.14032096988216367 0.01523490903739231
0.8074395251992489 0.06774740319494939 0.015980673815446482
0.4597533318878516 0.12789865943628995 0.015980673815446482
0.30403764623014107 0.05373767915007467 0.015980673815446482
0.42832467338414015 0.03517878995906959 0.015980673815446482
0.8297911609757865 0.04646114567277478 0.016513362942628
0.5554882218249197 0.05612412643984805 0.017365665546118538
0.7641212453768453 0.11217367640189063 0.01811143032417271
0.7473628454357137 -0.1106501854981514 0.01811143032417271
0.4238713922809025 -0.029510977645857795 0.01811143032417271
0.33718156372337715 -0.08472953256949728 0.01811143032417271
0.23108054337135608 -0.1139315505215898 0.01811143032417271
0.4441668480265195 0.011324970843879765 0.01949642205484469
0.5429061046408914 -0.14374083407866933 0.01949642205484469
0.280396902765824 -0.12128266047669517 0.02024218683289886
0.43452517482453346 -0.035828670694231006 0.02024218683289886
0.45234895302002814 -0.11660564994004109 0.02024218683289886
0.8217049400251708 -0.049785125826387625 0.02024218683289886
0.17662906079085808 0.12797323591409543 0.021627178563570916
0.40113622033279395 0.09653392362784045 0.021627178563570916
0.7806985310147353 0.09551116050365184 0.02237294334162509
0.5387724370139628 0.11483712203779838 0.02237294334162509
0.34951864390890186 -0.08191693397797858 0.02237294334162509
0.40742195203353626 0.0634219674822353 0.02237294334162509
0.23600259090651365 0.07143361195504576 0.02237294334162509
0.5554882218249197 -0.04209309482988596 0.02375793507229707
0.37255212176823194 0.10324580663032792 0.02375793507229707
0.7394364312232522 -0.1353776147819189 0.02450369985035124
0.5273409283446466 0.1305621050721977 0.02450369985035124
0.4179372354041 0.06709752245978798 0.02450369985035124
0.30523086987502784 -0.05444082879795434 0.02450369985035124
0.8538047868291311 -0.006615998959594791 0.025036388977532836
0.30291899906305997 -0.09822787505227769 0.025888691581023297
0.17662906079085808 -0.11225890666223978 0.025888691581023297
0.7777367794676057 -0.07925348834207084 0.02663445635907747
0.46431315081652563 -0.1394686672786732 0.02663445635907747
0.44096005948088657 -0.009641673201986056 0.02663445635907747
0.41528444355073596 -0.062324627880241214 0.02663445635907747
0.38523012299515297 -0.09936782978444621 0.027167145486258988
0.4703218841711336 0.148364575702605 0.028019448089749526
0.7772893206007732 -0.06718275272013698 0.028765212867803695
0.836311275892489 0.017450895806467612 0.028765212867803695
0.5281186544703318 -0.1033416906732206 0.028765212867803695
0.4308922349771554 0.04967858800095126 0.028765212867803695
0.4007952992913978 0.07151884221539476 0.028765212867803695
0.2358321303858155 0.07403313489569172 0.028765212867803695
0.29346909394685927 -0.13919166893253884 0.030150204598475675
0.38908679227594734 -0.11138529649366195 0.030150204598475675
0.8005678354586069 0.0447032715530756 0.030895969376529848
0.5187220182668493 -0.10008163321486956 0.030895969376529848
0.32242607490044817 0.07841183952112406 0.030895969376529848
0.31363670430195273 0.06385877256652414 0.030895969376529848
0.23720646833394396 0.10493975805476517 0.030895969376529848
0.43580362872976924 -0.1464042797145771 0.032280961107201904
0.4527537967566861 0.038140541506198916 0.032280961107201904
0.7791856938935394 -0.08116051541738081 0.03302672588525608
0.5173157189710899 -0.11951413257445245 0.03302672588525608
0.42534161427192363 -0.05504809440294133 0.03302672588525608
0.38175698988592915 0.0805106346822194 0.03302672588525608
0.200972953903055 0.09759930188220349 0.03302672588525608
0.42713144973925354 -0.08418618965977208 0.03441171761592806
0.8174114656600876 0.04541707498349896 0.035157482393982226
0.5397845463556077 0.11483712203779838 0.035157482393982226
0.3205616629553128 -0.07788980417648622 0.035157482393982226
