0.27900795942737866 0.24632792362691472 -0.266135528805623
0.10410659032129324 0.24414542562969568 -0.26563297992468443
0.3046882072433407 -0.15260255733186734 -0.26563297992468443
0.31578017897262833 -0.18096067275625935 -0.26563297992468443
0.5870776027124633 0.23687282539554166 -0.2646996748600842
-0.17882842964713416 0.4543544432565811 -0.2646996748600842
0.08201597736917829 -0.07541822848942725 -0.2641971259791456
0.3278700691940653 0.09298590151309492 -0.2641971259791456
0.08649584167925942 0.21606730172468377 -0.2641971259791456
0.48193001828065457 -0.008974087159617717 -0.26326382091454537
-0.21664882257262708 0.020532711421205333 -0.26326382091454537
0.1097566755969885 -0.3504416932179357 -0.2627612720336068
0.26954568192627776 0.1840980136272617 -0.2627612720336068
-0.06630773520498341 -0.259257788406492 -0.2627612720336068
0.47895062134366134 0.11815642117839069 -0.2618279669690065
0.22776233211109762 0.43544424679383475 -0.2618279669690065
0.47184314431324426 -0.271512801831666 -0.261325418088068
0.32883927060730395 0.06388114203702272 -0.261325418088068
0.18144168382801482 -0.28172172338444706 -0.261325418088068
0.20282154907708813 -0.2749373134917761 -0.2609664546016832
-0.21664882257262708 -0.02788428362236417 -0.2603921130234677
0.48193001828065457 -0.18863531209516443 -0.2603921130234677
0.09852829774287486 -0.3287172230219331 -0.2598895641425291
0.45436880179603645 -0.11486831564310677 -0.2598895641425291
0.09813343790785163 0.2094551943054775 -0.2598895641425291
0.48270537941124536 -0.17530340821083637 -0.25895625907792885
-0.18828352787850738 0.2179626289327951 -0.25895625907792885
0.3071722345691229 -0.26556836649713517 -0.25845371019699026
0.06225144780883622 -0.24979551090539104 -0.25845371019699026
0.3057650977024949 0.1401537036240457 -0.25845371019699026
0.6154500766763107 -0.0657118558175848 -0.25752040513239005
-0.15991823318438775 0.5110850326448205 -0.25752040513239005
0.47360924466625687 -0.14135264166857062 -0.25752040513239005
0.10555680280628744 -0.3551943697776692 -0.2570178562514514
0.33115099545962146 -0.0049249790331982535 -0.2570178562514514
0.0821236664150937 -0.19540536344838003 -0.2570178562514514
0.1197861154065773 0.2202384574364742 -0.2560845511868512
0.22776233211109762 0.49217483618207397 -0.2560845511868512
0.5870776027124633 -0.03733938185373735 -0.2560845511868512
0.3233255914564348 0.09925340398537197 -0.2555820023059126
0.009139210363354655 -0.29132758628010186 -0.2555820023059126
-0.05795106524194739 0.08686198443537183 -0.2555820023059126
0.19233263600492695 -0.35478515140319067 -0.2555820023059126
0.4741046142774679 0.02756121648461792 -0.25464869724131234
-0.008629482212688383 0.312520790516255 -0.25464869724131234
0.10067489939145537 0.1838395599170647 -0.2541461483603738
0.3070142906351137 -0.25485689606341544 -0.2541461483603738
0.18866402917407515 -0.3112500597744532 -0.2541461483603738
0.09728628407998376 0.20177337569684478 -0.2541461483603738
0.45390932853346405 0.20720090361098156 -0.2541461483603738
0.4741046142774679 0.02440951707416023 -0.25321284329577354
-0.08391130457728951 0.13285956558070838 -0.25321284329577354
0.08500973284562666 -0.19807605178708226 -0.25271029441483495
0.3908896988637647 -0.2503913902927897 -0.25271029441483495
0.46964628777656975 0.15658705203073756 -0.25271029441483495
0.05933666429939235 -0.04736164239359842 -0.25271029441483495
-0.09372536629504738 -0.2525523504808256 -0.25235133092845025
0.5587123080183437 0.18959733423867547 -0.2517769893502347
0.09611606311436963 -0.31376280417914615 -0.2512744404692961
0.2834662859282767 0.27014156131367634 -0.2512744404692961
0.4667602213460368 0.1802499250532176 -0.2512744404692961
0.07627256158702286 -0.04034749586964129 -0.2512744404692961
0.3747148041672696 -0.24514334412184524 -0.2512744404692961
-0.05697468455898091 0.1746357361261608 -0.2512744404692961
0.2372174303424709 0.43544424679383475 -0.2503411354046959
0.0865173794884425 -0.23808612197952184 -0.2498385865237572
0.3226076644836654 -0.13577434909015224 -0.2498385865237572
0.30661225153036276 -0.25721887580382685 -0.2498385865237572
0.06795178797262537 0.08078114297601481 -0.2498385865237572
-0.09372536629504738 0.5110850326448205 -0.248905281459157
0.03865318821390543 0.28301399193543203 -0.248905281459157
0.3159022265579991 -0.2525523504808256 -0.2484027325782184
0.4868549973138526 0.26627193493044926 -0.2484027325782184
0.114487814347539 -0.35802300205038073 -0.2484027325782184
0.22776233211109762 0.444899345025208 -0.24746942751361814
0.1078972447375157 0.1927346751096778 -0.2469668786326796
0.09754473779018076 0.20386972245733148 -0.2469668786326796
0.5776225044810901 0.47326463971932764 -0.24603357356807934
0.23186169512561106 0.25548867179945256 -0.24553102468714075
-0.0802355184767101 0.15934389160617213 -0.24553102468714075
0.30799067131808006 0.18070221904606235 -0.24553102468714075
-0.046449875138181294 0.37870647813586755 -0.24459771962254048
0.03865318821390543 -0.31662733280049615 -0.24459771962254048
0.3102162449336653 0.1375907043312589 -0.2440951707416019
0.11489703272201758 0.19391207534501967 -0.2440951707416019
0.5492572097869705 0.35216471795258236 -0.24316186567700168
-0.09372536629504738 0.5110850326448205 -0.24316186567700168
-0.0802355184767101 0.06936610410898114 -0.24265931679606303
-0.0802355184767101 -0.23449648711567475 -0.24265931679606303
0.23223501715145112 0.25302618228285356 -0.24265931679606303
-0.15991823318438775 0.2746932183210344 -0.24172601173146283
0.6154500766763107 -0.1129873469744509 -0.24172601173146283
0.11161610645646129 0.21001517734423766 -0.24122346285052423
0.34123069015730406 0.312520790516255 -0.24029015778592397
-0.08806092247989676 0.18850608524006596 -0.23978760890498543
-0.15991823318438775 0.5034534689242816 -0.23885430384038517
0.03865318821390543 -0.32101386660411724 -0.23885430384038517
0.21376993541182168 0.27467885978157913 -0.23835175495944658
0.43682266658155194 0.2591142030119381 -0.2374184498948463
0.3178765257331148 -0.2890661163158782 -0.23691590101390772
-0.21664882257262708 0.12340446734933509 -0.2359825959493075
0.2939551990004379 -0.3777444559923566 -0.2359825959493075
0.15309074767335054 0.24524385389803305 -0.23548004706836886
-0.15046313495301447 0.36925137990449447 -0.23454674200376865
0.08009911235188387 -0.29214602302905895 -0.23404419312283006
-0.018084580444061662 0.40707177282998736 -0.2331108880582298
0.4168786552780176 0.29360341478378094 -0.2331108880582298
0.11744567347534894 0.21580884801448677 -0.23260833917729126
0.410998833371036 0.24926424494554178 -0.231675034112691
-0.15046313495301447 0.462668037601251 -0.231675034112691
-0.0802355184767101 0.15683832647120693 -0.2311724852317524
0.4889513440743393 0.24568178935142224 -0.23023918016715214
-0.030763170783169508 0.24568178935142224 -0.23023918016715214
0.3075311980555077 0.18853480231897665 -0.22973663128621355
-0.036994776906808115 0.5205401308761937 -0.2288033262216133
0.3790582623525247 0.2652381200896613 -0.2288033262216133
-0.08243237501338449 0.22485472787138155 -0.22830077734067472
0.44935049225637835 -0.225665985350611 -0.22830077734067472
-0.15046313495301447 0.37870647813586755 -0.22736747227607448
0.5492572097869705 0.3976166745986141 -0.22736747227607448
0.2827698967646904 0.22570906096897717 -0.2268649233951359
-0.08008475381242851 -0.24716789818505497 -0.2268649233951359
0.30607380630078573 0.20359691020767903 -0.2268649233951359
0.5776225044810901 0.48271973795070094 -0.22593161833053563
-0.012204758537080114 0.23493442256906416 -0.22593161833053563
0.30493230241408226 -0.35759942513644677 -0.22542906944959704
0.20782550007729098 0.2902219787420369 -0.22542906944959704
0.22538599383123092 0.30306569228488195 -0.22507010596321234
0.14266644802873862 0.6434635871537734 -0.22449576438499683
0.28942507980226284 0.21508374177198966 -0.22399321550405824
0.3692370213650391 0.18069503977633464 -0.22399321550405824
0.36831089557016644 -0.2628617818097944 -0.22399321550405824
0.23280935872966663 0.30306569228488195 -0.22363425201767348
0.25613480607494504 0.4165340503310882 -0.22305991043945797
0.21683548358554713 -0.3462418204272346 -0.22255736155851938
0.47902959331066597 -0.10220408384345428 -0.22255736155851938
0.06484316418053375 -0.1188815274208878 -0.22255736155851938
-0.18828352787850738 -0.018429185390990893 -0.22162405649391917
0.5492572097869705 0.4543544432565811 -0.22162405649391917
-0.08528254509527912 -0.24899861196561707 -0.22112150761298058
0.3669899099402707 -0.2440951707416019 -0.22112150761298058
0.14742630385819983 -0.38719955422372987 -0.2201882025483803
0.3034102972318112 0.36925137990449447 -0.2201882025483803
0.5246538524301625 0.5205401308761937 -0.2201882025483803
0.27482244517613297 0.23545850925918588 -0.21968565366744172
0.48523966162512144 0.2131309804060569 -0.21875234860284146
-0.15046313495301447 0.462668037601251 -0.21875234860284146
0.2975089375156465 -0.37009135446263464 -0.21824979972190287
0.39796845881527104 0.2056788984287103 -0.21731649465730266
0.34123069015730406 -0.34937916129823693 -0.21731649465730266
-0.03818653568160533 -0.13334775592219156 -0.21731649465730266
0.32667113114954033 -0.18881479383835673 -0.21681394577636406
0.38851336058389796 0.20186670620330474 -0.21544988452810213
-0.21664882257262708 -0.07516695404895798 -0.21544988452810213
0.33668621241967356 0.14189826616787535 -0.2153780918308252
0.27536806967543764 -0.3770983217168642 -0.2139422378852864
-0.008629482212688383 0.34088608521037483 -0.21358327439890165
0.029198089982532253 -0.08462205228033126 -0.21358327439890165
0.3514252531706297 0.05981049610142018 -0.21250638393974755
-0.15991823318438775 0.1801422360073022 -0.21157307887514729
8.256160186847932E-4 0.2085075307014218 -0.21157307887514729
0.2710317907599104 -0.38092487248172513 -0.2110705299942087
0.2845001007690647 -0.3955203278381274 -0.21013722492960848
0.14266644802873862 0.4638095414879544 -0.21013722492960848
0.07827557784104962 -0.36922984209531134 -0.2096346760486699
0.5776225044810901 0.37870647813586755 -0.20841420019496185
0.3128653954631844 0.3881615763672408 -0.20841420019496185
0.3087732117183988 -0.3717066901513658 -0.20819882210313104
0.35640766636164956 1.579439340093118E-4 -0.2067629681575922
0.6154500766763107 -0.0657118558175848 -0.20669117546031524
0.1521215462601119 0.6234190660740512 -0.20669117546031524
0.17511674719791626 -0.3817074128820438 -0.20532711421205335
0.010280714250058071 0.08558407442384229 -0.20496815072566868
0.06701848290802516 0.3219758887476283 -0.20496815072566868
0.20211080137404638 0.32359840370608717 -0.20389126026651452
-0.18828352787850738 0.34088608521037483 -0.20295795520191431
-0.018084580444061662 -0.056249578316483806 -0.20295795520191431
0.15706806310249313 -0.37895057330660925 -0.2024554063209757
0.16932307652766712 -0.23398675896500848 -0.2024554063209757
0.2845001007690647 -0.3955203278381274 -0.20152210125637546
-0.027539678675434838 0.05721877972972255 -0.20152210125637546
0.2807166256225699 -0.38598625763974953 -0.20101955237543684
-0.018084580444061662 0.35979628167312117 -0.19979907652172882
0.03865318821390543 -0.28318629440889664 -0.19979907652172882
0.15578297382123585 0.29481671136776133 -0.19958369842989804
0.21775443011069198 -0.10353224874307772 -0.19958369842989804
0.2352790275159935 -0.38292070946602413 -0.19814784448435918
0.05054923815269465 -0.046658073960284395 -0.19814784448435918
0.435788851740764 0.5205401308761937 -0.19807605178708226
0.3317755919259308 0.35979628167312117 -0.19807605178708226
0.20412817616752849 0.33323298368065285 -0.19671199053882032
0.35450515988381054 0.009842778796668677 -0.19671199053882032
0.3790582623525247 -0.16971793636269025 -0.19635302705243565
0.20701424259806153 -0.3306628051181382 -0.19527613659328152
0.13671483342448018 -0.3865964955666035 -0.19527613659328152
0.6154500766763107 -0.02788428362236417 -0.19434283152868126
0.24667252857384406 0.5867329977655341 -0.19434283152868126
0.3617131466904156 0.02804940682610111 -0.19384028264774267
0.23563081173265044 0.30244827508830013 -0.19384028264774267
0.6154500766763107 0.06667387796109583 -0.19290697758314246
0.23038994483143369 -0.109110541321496 -0.19240442870220387
0.3368226185444998 0.17953917735017585 -0.19240442870220387
-0.027539678675434838 0.09503917265521546 -0.1914711236376036
-0.008629482212688383 0.1801422360073022 -0.1914711236376036
0.0843994949187727 -0.380623343153162 -0.190968574756665
0.1533204843046367 -0.38024284185759416 -0.190968574756665
0.11772566499472903 -0.39665465245510306 -0.19003526969206475
-0.027539678675434838 0.06667387796109583 -0.19003526969206475
0.17113943176877366 -0.3863811174747727 -0.18953272081112615
0.5776225044810901 0.2073660268147185 -0.18859941574652594
0.11429397406489125 0.4165340503310882 -0.18859941574652594
0.21349712316216932 -0.3489125087659368 -0.18809686686558735
0.2107546421261901 -0.38119050546164984 -0.18809686686558735
0.35068578838867737 0.28414831655240763 -0.1871635618009871
0.40742355704664435 0.33143098697900153 -0.1871635618009871
0.19682685885446344 0.34001021430359607 -0.1866610129200485
-0.046449875138181294 0.37870647813586755 -0.1857277078554483
0.029198089982532253 -0.2642760979461502 -0.1857277078554483
0.2786848922896324 -0.3848447537530461 -0.1852251589745097
0.14634941339904575 -0.3829063509265687 -0.1852251589745097
0.4168786552780176 0.18959733423867547 -0.18429185390990943
0.1436715457906158 -0.10388403295973468 -0.18378930502897084
0.0705937592324168 -0.38100384444872976 -0.18378930502897084
0.6154500766763107 -0.09407715051170444 -0.18242524378070896
0.12374907229626443 0.42598914856246145 -0.18242524378070896
0.11058947088540103 0.2691221050123438 -0.18235345108343198
0.14419563248073752 -0.10674856158108466 -0.18091759713789318
0.19164342611106827 -0.39253375163140664 -0.18091759713789318
0.5776225044810901 0.444899345025208 -0.18055863365150845
0.25613480607494504 0.3976166745986141 -0.18055863365150845
0.3713046510466149 0.02837247396384736 -0.17948174319235433
0.029198089982532253 -0.10353224874307772 -0.17854843812775412
0.10483887583351797 0.39944020910944833 -0.17854843812775412
0.08906602024177396 0.24275982657225081 -0.17804588924681553
-0.008629482212688383 0.2085075307014218 -0.17711258418221526
-0.018084580444061662 0.2073660268147185 -0.17711258418221526
0.3209277153673849 -0.3879103019267716 -0.17661003530127667
-0.008629482212688383 0.255783021858288 -0.1756767302366764
8.256160186847932E-4 0.15176976204345483 -0.1756767302366764
0.31334640653494 -0.39000664868725826 -0.1751741813557378
-0.008629482212688383 0.24632792362691472 -0.173738327410199
-0.036994776906808115 0.1706799585062013 -0.173738327410199
0.31335358580466754 -0.3905953488049292 -0.173738327410199
0.2076460183340986 -0.37449942607543885 -0.17230247346466016
0.1947305120939767 0.3433342161875184 -0.17230247346466016
-0.18828352787850738 -0.008974087159617717 -0.17185017947181547
0.1332041705276377 0.3976166745986141 -0.17185017947181547
0.3479863829710643 -0.26209359994893117 -0.17086661951912135
0.3245747843890536 -0.30014372950571033 -0.17086661951912135
0.6154500766763107 4.810110717554598E-4 -0.1699333144545211
0.1521215462601119 0.6056431942282805 -0.1699333144545211
0.02357672178574771 0.05133177855301338 -0.1694307655735825
0.23247911232219276 -0.05912846547728924 -0.1694307655735825
0.03858139551662845 0.11603135733899328 -0.1694307655735825
0.033936408002810385 0.1335415962048393 -0.16799491162804364
0.1326585460283329 -0.16211508972106214 -0.16799491162804364
0.06767897572297302 0.20537018983041957 -0.16799491162804364
0.38851336058389796 -0.12358394909252748 -0.16777953353621286
0.19686275520310198 -0.38125511888919905 -0.16655905768250484
0.21061105673163627 0.34825919522071663 -0.16655905768250484
0.34301114904977215 -0.1281930402577071 -0.16655905768250484
-0.008629482212688383 0.2085075307014218 -0.16562575261790458
-0.008629482212688383 0.17900073212059886 -0.16562575261790458
0.36418999474647007 0.12970068690052294 -0.16512320373696598
0.2660134812202522 -0.19190187982126528 -0.16512320373696598
0.30025859782135345 0.12059737288580674 -0.16512320373696598
0.276114713727118 0.11812052482975226 -0.16368734979142718
0.055696774547451366 0.17466445320507148 -0.16368734979142718
0.13701636275304335 -0.22358399712957963 -0.16368734979142718
-0.17882842964713416 0.40707177282998736 -0.16347197169959635
0.35566102230996927 0.03529328998134453 -0.16225149584588833
0.31801293185794105 0.25167647957404693 -0.16225149584588833
0.14182647347059837 -0.10487477218215652 -0.16225149584588833
0.3601408866200504 0.312520790516255 -0.16131819078128806
0.21424376721384952 0.10304405840159443 -0.16131819078128806
-0.09372536629504738 0.5034534689242816 -0.16131819078128806
0.330224869664749 -0.39040868779200916 -0.16081564190034947
0.21877388641202453 -0.37243897566359063 -0.16081564190034947
-0.17882842964713416 0.40707177282998736 -0.15988233683574926
0.3090603825075065 0.10371890975599773 -0.15988233683574926
0.5492572097869705 0.42598914856246145 -0.15988233683574926
0.12143016817421926 -0.3716636145329996 -0.15937978795481067
0.24662227368575027 0.3224353620102007 -0.15937978795481067
0.1256300409649203 -0.059666910706866326 -0.15937978795481067
0.38851336058389796 0.04775650222862165 -0.1584464828902104
-0.15046313495301447 0.35979628167312117 -0.1584464828902104
0.18540464071770205 -0.3502047773169218 -0.1579439340092718
0.35267444610324855 -0.2769259712063473 -0.1579439340092718
0.09145671706109611 0.2581378223289717 -0.1579439340092718
0.22166713211228534 -0.40392007341952957 -0.1575849705228871
0.34123069015730406 0.3503411834417479 -0.1570106289446716
0.34422444563375254 -0.39665465245510306 -0.1570106289446716
0.04698114109803065 -0.22339733611665963 -0.156508080063733
0.09001368384582951 0.25741989535620236 -0.156508080063733
0.10806954721098037 -0.016354376439687367 -0.156508080063733
0.34123069015730406 0.30306569228488195 -0.15557477499913275
0.038832669957097825 0.0565080320266808 -0.15507222611819416
0.13357031328375013 0.3206549031177326 -0.15507222611819416
0.36276132007065887 0.04591860917833194 -0.15507222611819416
-0.09372536629504738 0.5110850326448205 -0.1541389210535939
0.5587123080183437 0.1706799585062013 -0.1541389210535939
0.09847086358505323 0.11975739832766649 -0.1536363721726553
0.3816212616453115 0.02756121648461792 -0.1536363721726553
0.05090102236935171 -0.28798922585672404 -0.1536363721726553
0.6154500766763107 0.009936109303128738 -0.1527030671080551
0.05756338467665189 0.3503411834417479 -0.1527030671080551
0.21273612057103378 -0.35059245788221727 -0.1522005182271165
0.020109134507271392 0.0969344998633267 -0.1522005182271165
0.04749086924869692 0.12200450975243478 -0.1522005182271165
-0.17882842964713416 0.29360341478378094 -0.15126721316251623
0.5870776027124633 0.30306569228488195 -0.15126721316251623
0.306863525970832 0.12298806970512888 -0.15076466428157764
0.3583676069973101 -0.16966768147459638 -0.15076466428157764
0.2719938129034214 -0.07487978325985027 -0.15076466428157764
0.010280714250058071 0.19905243247004864 -0.14983135921697743
0.5870776027124633 -0.08462205228033126 -0.14983135921697743
0.21601704683658998 -0.34794330735269813 -0.14932881033603884
0.3568312432755835 0.16387401080434716 -0.14932881033603884
0.19961241550880882 -0.10128513731830943 -0.14932881033603884
0.07647358113939834 0.36925137990449447 -0.14839550527143858
0.03652094510478028 0.008773067607242238 -0.14789295639049999
0.027618650642439443 -0.08600765133777623 -0.14789295639049999
0.2546989521294062 -0.21712983364438257 -0.14789295639049999
0.26698268263349095 -0.008974087159617717 -0.14695965132589972
0.6154500766763107 0.07612897619246901 -0.14695965132589972
0.35619946753954645 0.08206623225727208 -0.14645710244496113
0.10485323437297343 0.12223424638372096 -0.14645710244496113
0.179912499376016 -0.22805668216993313 -0.14645710244496113
-0.16811695921341446 0.3503411834417479 -0.14552379738036092
0.019742991751158977 0.2274177271641684 -0.14552379738036092
0.44811565786321494 0.23687282539554166 -0.14552379738036092
-0.17882842964713416 0.48271973795070094 -0.14552379738036092
0.3815710067572176 0.06052124380446193 -0.14502124849942233
0.36622890734913516 0.022607520372508957 -0.14502124849942233
0.5297870302854639 0.019391207534501916 -0.14466228501303757
-0.034474853232387366 0.12340446734933509 -0.14466228501303757
-0.1458396852483794 0.24702431279050113 -0.14408794343482206
0.32232049369455773 -0.08643840752143789 -0.14408794343482206
0.3695959848514237 0.24632792362691472 -0.14408794343482206
0.4629695669298141 0.21415043670738945 -0.14408794343482206
0.1805370958423254 -0.3621151857951664 -0.14358539455388347
0.3633930958066959 -0.13902655827679763 -0.14358539455388347
0.12944941246005368 -0.05276763249855213 -0.14358539455388347
0.5334987127346817 0.1175892588699029 -0.14322643106749877
-0.16069359431497865 0.24702431279050113 -0.14322643106749877
-0.034474853232387366 0.2112643702768565 -0.14265208948928326
0.3790582623525247 0.2179626289327951 -0.14265208948928326
0.2766675174961504 0.12532851163635714 -0.14214954060834467
0.016749236274710495 0.06758564521651296 -0.14214954060834467
0.253952308077726 -0.10649010787088765 -0.14214954060834467
-0.16811695921341446 0.3503411834417479 -0.14179057712195992
0.6154500766763107 -0.056249578316483806 -0.1412162355437444
-0.014918522494148514 0.03830140399724837 -0.1412162355437444
0.28989173233456295 -0.025543841691135917 -0.14071368666280581
0.09702783036978675 0.11948458607801413 -0.14071368666280581
0.33261556648407115 0.23288833069667134 -0.14071368666280581
-0.036994776906808115 0.255783021858288 -0.14035472317642111
0.5669110340473704 0.48271973795070094 -0.13978038159820555
0.09063828031213894 0.09503917265521546 -0.13978038159820555
-0.16069359431497865 0.30306569228488195 -0.13978038159820555
0.1265848838387037 -0.053011727669293775 -0.13927783271726696
0.045071455350464064 -0.05148972248702259 -0.13927783271726696
0.026979695636674673 -0.09068853520023283 -0.13927783271726696
0.5483454425315532 0.48271973795070094 -0.13891886923088226
-0.16504423176996139 0.2652381200896613 -0.13834452765266675
0.1314165323654419 -0.004716780211095046 -0.13834452765266675
0.41371259732810445 0.10449427088658875 -0.13834452765266675
0.5561852050741953 0.032644139451825385 -0.13784197877172816
0.04862519386567261 0.20252719901825258 -0.13784197877172816
0.3501329846196449 -0.2707230821616196 -0.13784197877172816
-0.16504423176996139 0.032644139451825385 -0.13784197877172816
0.5372103951838996 0.48271973795070094 -0.1374830152853434
0.38851336058389796 -0.05382298514852322 -0.1369086737071279
0.010280714250058071 -0.0657118558175848 -0.1369086737071279
-0.035494309533720014 0.23058378511408154 -0.1364061248261893
0.3322709615371418 -0.3434419052334339 -0.1364061248261893
0.25408871420255214 0.3456315825003805 -0.1364061248261893
0.0686553564059394 -0.38671136388224664 -0.1364061248261893
-0.036994776906808115 0.48271973795070094 -0.1360471613398046
0.40742355704664435 0.1801422360073022 -0.1354728197615891
0.04278844757705733 0.009936109303128738 -0.1354728197615891
-0.16965332293514102 0.2085075307014218 -0.1354728197615891
0.5580302773942127 0.2384091891172682 -0.1349702708806505
0.18638102140066842 -0.3752747872060298 -0.1349702708806505
0.3687631895630113 0.07331470245921293 -0.1349702708806505
0.29462287108511354 -0.028910919193424443 -0.1349702708806505
-0.09739397312589917 0.2400388833454546 -0.1349702708806505
0.5934312564214727 0.028846305765875192 -0.13403696581605024
0.3128653954631844 0.3881615763672408 -0.13403696581605024
-0.02869554110159361 0.4638095414879544 -0.13403696581605024
0.4928927631548435 0.31954211630993995 -0.13353441693511164
0.3381651419835787 -0.2938331514150671 -0.13353441693511164
0.024553102468714085 0.14295361881784643 -0.13353441693511164
0.3382153968716726 -0.382970964354118 -0.13353441693511164
-0.1665518784127771 0.11038845133302565 -0.13353441693511164
-0.057369544394004136 0.23832303788053585 -0.13353441693511164
-0.18828352787850738 0.2179626289327951 -0.13260111187051138
0.04447557596306546 -0.018429185390990893 -0.13260111187051138
0.4629695669298141 0.5016299344134473 -0.13260111187051138
0.4346473478540607 0.11656980256857026 -0.1320985629895728
0.5587553836367098 0.3426091099450213 -0.1320985629895728
0.19178701150562213 -0.3553020588235847 -0.1320985629895728
0.37783060722908907 0.09678373519904511 -0.1320985629895728
0.12340446734933519 -0.07503054792413176 -0.1320985629895728
-0.0409720923359506 0.13121551281306643 -0.1320985629895728
-0.05788645181439814 0.49217483618207397 -0.1317395995031881
0.5736164719730368 0.2546486972413124 -0.13116525792497258
0.14266644802873862 0.5110850326448205 -0.13116525792497258
-0.03471894840312901 0.4791444616263091 -0.13116525792497258
-0.1645057865403843 0.22265787133470705 -0.130662709044034
-0.04240794628148946 0.12090608148409752 -0.130662709044034
0.2569819599028129 -0.10487477218215652 -0.130662709044034
0.20510455685049486 0.3868549492768006 -0.130662709044034
0.35876246683233326 -0.17353730785782354 -0.130662709044034
0.5596312545434885 0.276839819969615 -0.130662709044034
0.44069229296477924 0.5016299344134473 -0.13030374555764923
0.4168786552780176 0.4165340503310882 -0.12972940397943372
0.35748455682080377 0.07612897619246901 -0.12972940397943372
0.5755117991811481 0.24545205272013615 -0.12922685509849513
0.1427382407260156 -0.39791820392717725 -0.12922685509849513
0.17937405414643892 0.38238226423644694 -0.12922685509849513
0.13281648996234222 -0.2318473365861556 -0.12922685509849513
-0.04339150623418356 0.4624598387791479 -0.12922685509849513
0.25613480607494504 0.444899345025208 -0.12829355003389492
-0.16614266003829853 0.2450284758062022 -0.1277910011529563
0.21685702139473023 -0.38570626612036946 -0.1277910011529563
0.3842775914445584 -0.01657693380124583 -0.1277910011529563
0.03240004428108384 0.11466011682100367 -0.1277910011529563
0.4299880018007871 0.33756926259618 -0.1277910011529563
0.24667252857384406 0.624553390691027 -0.12685769608835606
-0.027539678675434838 0.5016299344134473 -0.12685769608835606
-0.17098148783476444 0.3221122948724545 -0.12635514720741747
0.36388128614817916 0.17851254177911557 -0.12635514720741747
0.3647858741338687 0.1260895142274928 -0.12635514720741747
0.5676576780990505 0.3373610637740769 -0.12635514720741747
-0.027539678675434838 0.49217483618207397 -0.1254218421428172
-0.008629482212688383 0.1706799585062013 -0.1254218421428172
0.4346832442026991 0.11116381246361653 -0.1249192932618786
-0.08215238349400442 0.4691150218167204 -0.1249192932618786
0.3545913111205429 0.21949899265452164 -0.1249192932618786
0.1304114346035647 -0.05450501577265415 -0.1249192932618786
-0.027539678675434838 0.5016299344134473 -0.1239859881972784
-0.014918522494148514 0.07612897619246901 -0.1239859881972784
0.5625532173226601 0.3695959848514238 -0.1234834393163398
0.36335719945805744 0.12827201222471182 -0.1234834393163398
0.07469312224693016 0.15050621057138064 -0.1234834393163398
0.18473696863302647 -0.36099521971764614 -0.1234834393163398
0.4168786552780176 -0.02788428362236417 -0.12255013425173954
8.256160186847932E-4 0.019391207534501916 -0.12255013425173954
-0.030497537803244882 0.34065634857908855 -0.12204758537080095
0.3649151009889672 -0.026347919900637628 -0.12204758537080095
0.13903373754652537 -0.21346122681353089 -0.12204758537080095
0.0026491505295191484 0.01131452909084597 -0.12168862188441626
0.22776233211109762 0.42598914856246145 -0.12111428030620074
0.5680022830459799 0.3431834515232369 -0.12061173142526214
-0.17184300020208773 0.24595460160107468 -0.12061173142526214
0.3032020984097081 0.13884707653360534 -0.12061173142526214
0.2591357408211212 -0.23799279147306188 -0.12061173142526214
0.44296812146845815 0.5088092041411415 -0.11967842636066188
-0.018084580444061662 -0.056249578316483806 -0.11967842636066188
0.43262279379085083 0.4760430171039453 -0.11917587747972329
-0.1689282166926439 0.22265069206497934 -0.11917587747972329
0.03300310293821007 -0.10462349774168714 -0.11917587747972329
0.19142086874950973 -0.386093946685665 -0.11917587747972329
0.6154500766763107 -0.056249578316483806 -0.11824257241512302
0.12374907229626443 0.05721877972972255 -0.11824257241512302
0.5625245002437493 0.20830651114904644 -0.11774002353418443
0.37374560275403096 -0.0995477540442074 -0.11774002353418443
0.37526760793630226 0.02104961884159933 -0.11774002353418443
0.18375340868033235 -0.3793885087599986 -0.11774002353418443
0.6154500766763107 -0.008974087159617717 -0.11680671846958422
0.03712400376190662 0.07612897619246901 -0.11680671846958422
0.5167494764599713 0.4996197388896929 -0.11630416958864563
0.30860090924493416 0.2957212993534506 -0.11630416958864563
0.3859647198305664 0.031746730735863614 -0.11630416958864563
0.2142365879441218 -0.3615408442169509 -0.11630416958864563
0.38851336058389796 0.23687282539554166 -0.11537086452404537
-0.21664882257262708 -0.09407715051170444 -0.11537086452404537
0.18876453895026293 -0.39513982654255964 -0.11486831564310677
0.3620721101768002 0.2043148371804484 -0.11486831564310677
0.026620732150289983 -0.08464359008951435 -0.11486831564310677
0.4599111980258165 0.5185801902405331 -0.11393501057850657
-3.302464074738765E-4 4.810110717554598E-4 -0.11393501057850657
-0.08907319951150158 0.5077825685700812 -0.11343246169756797
0.26197155236356034 -0.19975600090336265 -0.11343246169756797
0.367995007702148 0.011436576676216843 -0.11343246169756797
0.4238569054533362 0.34369317967390317 -0.11343246169756797
0.2845001007690647 0.36925137990449447 -0.11249915663296771
-0.16746364566819424 0.2424152216253215 -0.11199660775202912
0.253952308077726 -0.10649010787088765 -0.11199660775202912
0.008808963955880779 0.0859502171799546 -0.11199660775202912
0.4464428880166622 0.49412759754800695 -0.11199660775202912
0.6154500766763107 -0.018429185390990893 -0.11106330268742885
0.06701848290802516 0.12340446734933509 -0.11106330268742885
0.18535438582960814 -0.37547580675840525 -0.11056075380649026
0.014911343224420785 0.1144088423805343 -0.11056075380649026
0.31563659357807433 0.1589705695803321 -0.11056075380649026
-0.12145170598340234 0.5205401308761937 -0.10962744874189005
0.029198089982532253 0.24632792362691472 -0.10962744874189005
0.42521378743187055 0.2468089346986703 -0.10912489986095146
0.0194127453436851 -0.057304930966454885 -0.10912489986095146
0.29742278627891416 0.11523445839921918 -0.10912489986095146
0.19542690125756312 -0.3587983631809717 -0.10912489986095146
-0.004774214368916568 0.06652311329681425 -0.1081915947963512
0.48809701097674374 0.5006104781121147 -0.1076890459154126
-0.036607096341512615 0.4760430171039453 -0.1076890459154126
0.013525744166975825 -0.054411685266194096 -0.1076890459154126
0.29706382279252963 -0.012814996463934076 -0.1076890459154126
0.36273260299174814 -0.07973296959577145 -0.1067557408508124
0.39985660675365464 0.08558407442384229 -0.1067557408508124
0.43303919143505726 0.46729148730588616 -0.10625319196987379
0.37397533938531724 -0.002010195523754377 -0.10625319196987379
0.30428616813858994 0.15792239620008872 -0.10625319196987379
0.18664665438059316 -0.3675211759001201 -0.10625319196987379
0.03865318821390543 0.255783021858288 -0.10531988690527354
-0.18740047770200102 0.11323862141492017 -0.10481733802433495
0.12863815498082423 -0.0537152961026078 -0.10481733802433495
0.4006176093447902 0.04362124286546975 -0.10481733802433495
0.4950250062639686 0.5006104781121147 -0.10481733802433495
0.3980833271309143 0.10449427088658875 -0.10388403295973468
-0.15851109631775961 0.4760430171039453 -0.10338148407879609
0.1285448244743642 -0.06052124380446193 -0.10338148407879609
0.36648018178960445 0.12975812105834447 -0.10338148407879609
0.4279921648164882 0.2143658147992203 -0.10338148407879609
0.38614420157375884 -0.056788023546060884 -0.10244817901419588
-0.19463718158751672 0.028846305765875192 -0.10244817901419588
0.1448561252956854 -0.10649010787088765 -0.10194563013325728
0.027963255589368775 -0.026125362539079065 -0.10194563013325728
0.5686484173214723 0.3189031613041752 -0.10194563013325728
0.41371259732810445 0.1187523005657893 -0.10101232506865702
0.10860081317082973 -0.1129873469744509 -0.10101232506865702
0.2548353582542323 -0.2170580409471056 -0.10050977618771842
0.06412523720776438 0.27258969229082014 -0.10050977618771842
0.43084233489838275 0.3126141210227151 -0.10050977618771842
0.035881990099015514 -0.03979469210060885 -0.09957647112311821
0.3658268682443842 0.08558407442384229 -0.09957647112311821
0.20652605225657825 -0.36298387743221744 -0.09907392224217962
0.3895184583457751 0.1173308051597059 -0.09907392224217962
0.3635438604709776 0.15612039949843745 -0.09907392224217962
0.3128653954631844 -0.10353224874307772 -0.09814061717757937
0.11763233448826907 -0.10353224874307772 -0.09814061717757937
0.5565944234486738 0.47114675514965776 -0.09763806829664076
0.20315897475428973 0.4057364286606362 -0.09763806829664076
0.059214616714021576 0.25413178982091844 -0.09763806829664076
0.2812909672007854 -0.10353224874307772 -0.09670476323204051
0.10483887583351797 -0.09225361600087009 -0.09670476323204051
-0.18235345108343198 9.692014132387501E-4 -0.0962022143511019
0.3942065214779593 0.09707808525788066 -0.0962022143511019
0.499641276698876 0.508794845601686 -0.0962022143511019
0.38656059921796504 -0.02788428362236417 -0.0952689092865017
0.26813136578992197 -0.008974087159617717 -0.0952689092865017
0.14188390762842 -0.11046024403030252 -0.0947663604055631
0.01360471613398043 0.1453012400188024 -0.0947663604055631
0.5686484173214723 0.24051989441721017 -0.0947663604055631
0.38872155940600106 -0.0188958379232911 -0.09383305534096285
-0.17599979737442267 0.13285956558070838 -0.09383305534096285
0.27514551231387924 -0.05735518585454878 -0.09333050646002425
0.3042215547110406 0.16051411257178635 -0.09333050646002425
0.4209493012136203 0.11323862141492017 -0.09333050646002425
0.38851336058389796 0.24062758346312568 -0.09239720139542404
-0.19397668877256885 -0.13189754343719734 -0.09239720139542404
0.10630344685796764 -0.03053343415188332 -0.09189465251448545
0.09966262235985054 0.3337427118313191 -0.09189465251448545
0.5601553412336102 0.49647521874896294 -0.09189465251448545
0.41371259732810445 0.03830140399724837 -0.09096134744988518
-0.030497537803244882 0.2424152216253215 -0.09045879856894659
0.12165990480550544 -0.1043291476828517 -0.09045879856894659
0.048567759707851085 0.15996848807248154 -0.09045879856894659
0.5708021982397806 0.3440306053511048 -0.09045879856894659
0.029198089982532253 0.30306569228488195 -0.08952549350434633
-0.16876309348890697 0.2143658147992203 -0.08902294462340773
0.11877383837497238 -0.020432201645017644 -0.08902294462340773
0.36345770923424525 0.16395298277135187 -0.08902294462340773
-0.14886933707346642 0.5194058062592181 -0.08808963955880753
0.14266644802873862 0.3976166745986141 -0.08808963955880753
-0.04410943320695304 0.4995982010805099 -0.08758709067786893
0.025055651349652628 0.12932018560495517 -0.08758709067786893
0.35440465010762295 0.16986152175724412 -0.08758709067786893
0.6154500766763107 -0.008974087159617717 -0.08665378561326867
-0.014918522494148514 0.07612897619246901 -0.08665378561326867
0.5811977808054819 -0.026268947933633022 -0.08615123673233008
0.3749732578774666 0.10396300492673928 -0.08615123673233008
-0.05107332484281638 0.5006104781121147 -0.08615123673233008
0.11667749161448566 -0.1023907448563743 -0.08521793166772987
0.24667252857384406 0.11394936911796191 -0.08521793166772987
0.5625316795134768 0.11666313307503032 -0.08471538278679128
0.014480587040759118 0.1473688697003783 -0.08471538278679128
0.38773082018357924 0.06345756512308878 -0.08471538278679128
-0.14212800279916152 0.5205401308761937 -0.08378207772219101
0.25613480607494504 0.42484764467575814 -0.08378207772219101
0.5749661746818432 0.31674938038586686 -0.08327952884125242
0.28136275989806236 -0.021523450643627165 -0.08327952884125242
0.039895201876796536 0.22321785437346722 -0.08327952884125242
-0.16374478394924866 0.2883481893431088 -0.08327952884125242
0.2845001007690647 -0.00531983886822138 -0.08234622377665216
-0.18828352787850738 -0.08462205228033126 -0.08234622377665216
0.2610597851081432 -0.23547286779864124 -0.08184367489571356
0.09159312318592223 0.12221270857453788 -0.08184367489571356
-0.08671839904081788 0.5006104781121147 -0.08184367489571356
-0.21664882257262708 -0.08462205228033126 -0.08091036983111335
0.38851336058389796 -0.09407715051170444 -0.08091036983111335
0.5268578882365645 0.4976597982540324 -0.08040782095017476
0.3796469624701956 0.09734371823780527 -0.08040782095017476
0.3897194778981504 0.07383878914933455 -0.08040782095017476
-0.11264274202752156 0.5205401308761937 -0.08004885746379002
0.22776233211109762 0.42598914856246145 -0.0794745158855745
-0.024646432975174045 0.23982350525362375 -0.0789719670046359
0.12848021104681492 -0.05829567018887672 -0.0789719670046359
0.05372247537233553 0.2730204484744818 -0.0789719670046359
0.5441024941224861 0.503467827463737 -0.0789719670046359
0.021207562775608643 0.055847539211732945 -0.0780386619400357
0.019742991751158977 0.2652381200896613 -0.0780386619400357
-0.03423793733137355 0.4178550359609839 -0.0775361130590971
0.37986951983175415 0.07350854274186067 -0.0775361130590971
0.5686484173214723 0.3189031613041752 -0.0775361130590971
-0.21664882257262708 0.08558407442384229 -0.07660280799449684
0.3756122128832314 0.0499677173047514 -0.07660280799449684
-0.026419712597914504 0.2468089346986703 -0.07610025911355825
0.3587409290231501 0.1733219297659927 -0.07610025911355825
0.12066198631335598 0.35394517684505045 -0.07610025911355825
0.5223636653870279 0.5205401308761937 -0.07566950292989658
0.21128590808603956 0.49935410590976814 -0.07516695404895798
-0.21664882257262708 0.15176976204345483 -0.07516695404895798
0.2721373982979754 -0.08413386193884798 -0.0746644051680194
0.12038917406370363 0.12743203766657157 -0.0746644051680194
0.4279921648164882 0.3126141210227151 -0.0746644051680194
0.3695959848514237 0.29360341478378094 -0.07373110010341918
0.08592867937077152 0.35979628167312117 -0.07373110010341918
-0.1259459288329388 0.49647521874896294 -0.07322855122248059
0.27233123858062314 -0.063148856524798 -0.07322855122248059
0.030361131678418654 0.20550659595524562 -0.07322855122248059
0.18083862517088858 0.5016299344134473 -0.07286958773609585
-0.014918522494148514 0.08558407442384229 -0.07229524615788033
0.5112286180393744 0.5190683805820164 -0.07229524615788033
0.45909276127685933 0.5156295103824509 -0.07179269727694174
0.28236067839021184 0.1293273648746828 -0.07179269727694174
0.04792880470208632 0.18114015449945164 -0.07179269727694174
-0.027202252998233232 0.10874439856538368 -0.07179269727694174
0.16157664449148507 0.1128078652312585 -0.07085939221234153
0.009088955475260861 0.1801422360073022 -0.07085939221234153
0.42749679520527717 0.11540676087268385 -0.07035684333140294
0.21346122681353089 -0.22263633352552398 -0.07035684333140294
0.013159601410863407 0.14273106145628786 -0.07035684333140294
-0.059695627785777035 0.5011632818811471 -0.07035684333140294
0.5934312564214727 0.05721877972972255 -0.06942353826680267
0.22776233211109762 0.4638095414879544 -0.06942353826680267
0.5019817186301042 0.5205401308761937 -0.06942353826680267
0.11359758490130496 0.35332058037874114 -0.06892098938586408
0.3656258486920088 0.1779453794706278 -0.06892098938586408
-0.16747082493792198 0.31700783409606387 -0.06892098938586408
-0.04731856677523225 0.5183576328789747 -0.06856202589947938
-0.12393573330918455 0.5205401308761937 -0.06798768432126381
0.2822242722653857 -0.1023907448563743 -0.06798768432126381
0.5129372842345656 0.5074379636231519 -0.06748513544032522
0.18897273777236606 0.1251633884326202 -0.06748513544032522
0.2720656056006984 -0.05787209327494278 -0.06748513544032522
-0.034245116601101175 0.4551010873082614 -0.06748513544032522
0.3128653954631844 0.15176976204345483 -0.06655183037572501
0.5587123080183437 0.5205401308761937 -0.06655183037572501
-0.19463718158751672 0.09503917265521546 -0.06655183037572501
0.11323862141492017 0.12478288713705243 -0.06604928149478641
0.03290977243175011 0.18207345956405196 -0.06604928149478641
0.269610295353827 -0.06377345299110732 -0.06604928149478641
0.21001517734423766 0.6052196173143465 -0.06604928149478641
0.18994193918560479 0.6304906467558301 -0.06511597643018616
-0.17599979737442267 0.12047532530043596 -0.06511597643018616
0.4178119603426178 0.3139638237315217 -0.06461342754924757
0.001500467373088105 0.12879609891483346 -0.06461342754924757
0.3821597068748885 0.11591648902335012 -0.06461342754924757
-0.029198089982532153 0.2143658147992203 -0.06461342754924757
0.6154500766763107 0.028846305765875192 -0.06368012248464736
0.22533573894313702 0.5252569110872888 -0.06368012248464736
0.0953837776021448 -0.034044097048725804 -0.06368012248464736
0.5811977808054819 -0.05243020682135053 -0.06317757360370875
0.03536508267862151 0.19027218559307868 -0.06317757360370875
-0.026039211302346734 0.11643339644374413 -0.06317757360370875
0.26133259735779557 -0.21675651161854242 -0.06317757360370875
-0.11574418654988546 0.5177330364126652 -0.06224426853910849
0.3034102972318112 -0.03733938185373735 -0.06224426853910849
0.1622084202275221 -0.0638739627672951 -0.0617417196581699
0.5703355457074806 0.3126141210227151 -0.0617417196581699
0.2233111848799273 0.4151340927341879 -0.0617417196581699
0.2103884993700778 0.6182715296792947 -0.0617417196581699
-0.16371606687033793 0.11731644662025044 -0.0617417196581699
0.07688997878360465 0.19216033353146228 -0.06080841459356964
0.23916301243867602 0.6056431942282805 -0.06080841459356964
0.2749875683798699 -0.08358823743954326 -0.060305865712631045
-0.17895047723250498 0.34369317967390317 -0.060305865712631045
0.20949826992384366 0.6314239518204303 -0.060305865712631045
0.21906105720113234 0.6023120130746303 -0.060305865712631045
0.44242967623888113 0.49647521874896294 -0.060305865712631045
-0.19463718158751672 0.028846305765875192 -0.059372560648030835
0.24667252857384406 0.5678228013027875 -0.059372560648030835
0.29368956602051316 -0.07683254462578303 -0.058870011767092244
-0.01937684899504656 -0.06510879716045848 -0.058870011767092244
0.1699548522637042 0.5151413200409678 -0.058870011767092244
0.18503849796158964 0.6212293888071044 -0.058870011767092244
0.4205903377272355 0.21850107416237208 -0.058870011767092244
0.16969639855350718 0.11043152695139181 -0.05793670670249198
0.32561577849956913 0.19360336674672876 -0.05793670670249198
0.2597675165571583 -0.22634801597474194 -0.05743415782155339
0.22583110855434793 0.1273099900812008 -0.05743415782155339
0.025931522256431316 0.21777596791987497 -0.05743415782155339
0.214186333056028 0.5172376668014544 -0.05743415782155339
0.4238569054533362 0.24545205272013615 -0.05743415782155339
0.41371259732810445 -0.008974087159617717 -0.05650085275695318
0.2649868456491919 0.20254155755770803 -0.05650085275695318
0.27008412715585484 -0.1987293653323024 -0.05599830387601458
-0.027202252998233232 0.04861083532621725 -0.05599830387601458
0.19376131068073807 0.5211072931846815 -0.05599830387601458
0.34267372337257057 0.2283510322287686 -0.05599830387601458
0.4279921648164882 0.2143658147992203 -0.05599830387601458
0.24394440607732032 0.11394936911796191 -0.05506499881141432
0.31142236224791797 0.2099792809955992 -0.05506499881141432
0.43290996457995873 0.11595956464171629 -0.05456244993047573
0.20321640891211126 0.5157515579678218 -0.05456244993047573
0.19545561833647382 0.42196157824522496 -0.05456244993047573
0.3610167575268292 0.2218178967765669 -0.05456244993047573
-0.014918522494148514 4.810110717554598E-4 -0.053629144865875465
0.24022554435837473 0.415837661167502 -0.053629144865875465
0.49992126821825617 0.49996434383662225 -0.053126595984936874
0.2009764767570707 0.4347119612816099 -0.053126595984936874
-0.0053772730260429015 0.10849312412491431 -0.053126595984936874
0.1515759217608071 0.2445905403528128 -0.053126595984936874
0.27504500253769154 0.02998780965257861 -0.052193290920336664
0.3048174340984392 -0.02788428362236417 -0.052193290920336664
0.5014217355913441 0.4977315909513093 -0.051690742039398066
0.27944589488076804 -0.08261903602630452 -0.051690742039398066
0.40140732901483667 0.1093187401435992 -0.051690742039398066
0.06903585770150716 0.2980689205544066 -0.051690742039398066
-0.16371606687033793 0.46729148730588616 -0.051690742039398066
-0.008629482212688383 0.1801422360073022 -0.05075743697479781
0.4273675683501787 0.1113361149370812 -0.05025488809385921
0.10542757595118896 -0.031545711183488236 -0.05025488809385921
0.16480013659921974 0.5911410693783381 -0.05025488809385921
0.0501471990479438 0.23428110902384391 -0.05025488809385921
0.5042001129759617 0.5183576328789747 -0.049321583029259
0.27735672739000894 0.22041075990993886 -0.049321583029259
0.5716924276860147 0.21850107416237208 -0.04881903414832041
0.11791950527737678 -0.02127935547288552 -0.04881903414832041
0.4032021464467602 0.13537230998540128 -0.04881903414832041
0.01982914298789131 0.14940060303331576 -0.04881903414832041
0.06701848290802516 0.22259325790715792 -0.04788572908372015
0.2845001007690647 -0.006116737807995464 -0.04788572908372015
0.1001938883196999 0.1254003043336341 -0.04738318020278155
0.36485048756141786 0.2356954251601997 -0.04738318020278155
0.1818006473143996 0.203855363917876 -0.04738318020278155
-0.18740047770200102 -0.07541104921969963 -0.04738318020278155
0.1601120734670355 0.5299952291075669 -0.046449875138181294
0.42344050780913 0.23982350525362375 -0.045947326257242696
0.10693522259400469 -0.02786274581318109 -0.045947326257242696
0.23271602822320667 0.5093476493707184 -0.045947326257242696
0.2434274986569263 0.22172456627010684 -0.045947326257242696
0.3128653954631844 0.19905243247004864 -0.04501402119264249
0.3128653954631844 -0.10353224874307772 -0.04501402119264249
0.5625388587832046 0.36958162631196834 -0.044511472311703895
0.16837541292361147 0.24142448240289965 -0.044511472311703895
0.22524240843667695 0.41510537565527716 -0.044511472311703895
-0.1701917681647181 0.315737103354262 -0.044511472311703895
0.1601120734670355 0.5678228013027875 -0.04357816724710364
0.4269080950876063 0.22064767581095268 -0.04307561836616504
0.28789589535026405 0.12802073778424244 -0.04307561836616504
0.38567036977173097 0.18292779266164758 -0.04307561836616504
0.16641547228795098 0.23743998770402935 -0.04307561836616504
-0.027202252998233232 0.07177833873748637 -0.04307561836616504
0.4057077115817254 0.10487477218215652 -0.04214231330156483
0.4178119603426178 0.34369317967390317 -0.04163976442062624
0.23166785484296332 0.6233185562978635 -0.04163976442062624
0.3434347259637061 0.2946228710851135 -0.04163976442062624
0.20218259407132336 0.5188171061415472 -0.04163976442062624
0.5934312564214727 -0.03733938185373735 -0.04070645935602597
0.10483887583351797 0.2085075307014218 -0.04070645935602597
-0.026843289511848546 0.22315324094591807 -0.04020391047508738
0.03307489563548705 0.23624822892923214 -0.04020391047508738
0.185497971224162 0.4674853275885338 -0.04020391047508738
0.3731138270179939 0.20900290031263283 -0.04020391047508738
0.38851336058389796 -0.13189754343719734 -0.03927060541048712
0.24765608852653817 0.2565296659099683 -0.03927060541048712
-0.01901788550866187 0.3200159481119678 -0.038768056529548525
0.19608739407251097 0.24612690407453935 -0.038768056529548525
0.3696175226606069 0.23507082869389037 -0.038768056529548525
0.16179920185304364 0.291370661898468 -0.038768056529548525
0.4945583537316685 -0.07467158443774707 -0.038768056529548525
0.24667252857384406 0.5678228013027875 -0.037834751464948316
0.1853184894809697 0.11905382989435247 -0.037834751464948316
0.11096997218096889 -0.07732791423699395 -0.037332202584009724
0.1677579957270298 0.6243021162505575 -0.037332202584009724
0.23011713258178132 0.24512180631266206 -0.037332202584009724
0.1611458883078234 0.23695897663227378 -0.037332202584009724
0.5811977808054819 -0.07910837312946213 -0.037332202584009724
