0.4942373250688234 0.44209497406916703 -0.2472564726884233
0.29718383866723885 0.07639192682736774 -0.24655489372254616
0.507346829174071 -0.14107750748124218 -0.24655489372254616
0.559594417018609 0.2658683603974789 -0.24655489372254616
0.5285946492834936 -0.3429618661907237 -0.24655489372254616
0.6239392307462002 0.37913327316001916 -0.24655489372254616
0.6383316221033375 0.3577451372574212 -0.24655489372254616
0.37469829184001013 0.29075436857280745 -0.24655489372254616
0.42423978938759327 0.34803327985835025 -0.24655489372254616
0.3466050655349573 -0.10454528847235275 -0.24655489372254616
0.49160139266845626 -0.2607668790598864 -0.24655489372254616
0.5675723721162979 -0.1476523046471768 -0.24655489372254616
0.38600373574728786 -0.021418203572564274 -0.24655489372254616
0.34894032123566276 0.08323733302299785 -0.24655489372254616
0.18488109134361572 -0.41152617627023347 -0.24655489372254616
0.27657746218376106 0.40816861979067853 -0.24605376588977676
0.25585081502041856 -0.3076624216504471 -0.24605376588977676
0.70671552616305 0.13848166530749667 -0.24525196135734573
0.5253373183704926 -0.42914583087040564 -0.24525196135734573
0.22475082171874936 -0.27020812742926187 -0.24525196135734573
0.6702634876074036 0.13269865011733778 -0.24455038239146856
0.63478363704733 0.3330796253285111 -0.24455038239146856
0.5655478156719095 0.09506394987635568 -0.24455038239146856
0.6021301474640759 0.4062843791394654 -0.24455038239146856
0.6960615484383726 -0.09286900996882576 -0.24455038239146856
0.1516462934743489 -0.46159886932055216 -0.24455038239146856
0.14964178214327128 -0.42273139461095727 -0.24455038239146856
0.36067673507912223 0.3034228801852178 -0.24455038239146856
0.3929694126227825 0.33584585096539826 -0.24455038239146856
0.6260339450871764 0.24815850278740825 -0.24455038239146856
0.3646757351846221 -0.42914583087040564 -0.24404925455869914
0.2092058363462426 0.31008788036105106 -0.24404925455869914
0.71058423303203 0.17808078665293509 -0.24324745002626807
0.2143874981370782 0.30025575228211543 -0.24324745002626807
0.5978906059988468 -0.36653491944419647 -0.24324745002626807
0.06058134370349308 -0.46715136570763716 -0.24324745002626807
0.25574056689720936 0.3541871296447585 -0.2425458710603909
0.43635706038395733 -0.3936058449703997 -0.2425458710603909
0.17524941439778782 -0.045552519998738716 -0.2425458710603909
0.6963522025813789 -0.04079180558742931 -0.2425458710603909
0.22853934813448604 -0.2440091643320776 -0.2425458710603909
0.20511663323084425 -0.3956905367547204 -0.2425458710603909
0.19663755030038593 -0.3878729425635177 -0.2425458710603909
0.5142223030396671 0.20530205052896883 -0.2425458710603909
0.5580008305104022 0.17766986183006392 -0.2425458710603909
0.7145130752409421 0.3549688890638786 -0.2425458710603909
0.6730898485842232 -0.2502933073550058 -0.24204474322762154
0.1470158722995596 -0.04632425686120358 -0.24124293869519048
0.41990002235581014 0.07045857328737802 -0.24124293869519048
0.6941973529004704 0.17808078665293509 -0.24124293869519048
0.6145380726034463 -0.3977451608690749 -0.24124293869519048
0.24029580709125622 -0.3103384442774357 -0.24124293869519048
0.6711955853763549 0.3743926038620208 -0.24124293869519048
0.626184283437007 -0.07189179888909852 -0.24124293869519048
0.6257733586141362 0.35563037780313417 -0.24054135972931331
0.5647861013660997 -0.14212987593005796 -0.24054135972931331
0.21697331775416825 0.2252369157165357 -0.24054135972931331
0.18605373047229617 -0.07569034786149051 -0.24054135972931331
0.7011129169926881 -0.022640955484521615 -0.24054135972931331
0.24941633364765947 -0.4478779892593259 -0.24054135972931331
0.16140826365669692 -0.34521694143818615 -0.24054135972931331
0.39864217968973215 0.3525534529099302 -0.24054135972931331
0.3786572017188884 0.19386631338517116 -0.24054135972931331
0.7007521049530941 0.35804581395708285 -0.24054135972931331
0.6186172531621891 -0.3367378585077278 -0.24004023189654392
0.631375967784498 -0.40273639408345807 -0.23923842736411288
0.665262231836365 0.379484062642958 -0.23923842736411288
0.2817591239745966 -0.03793537694064375 -0.23923842736411288
0.35949407339378636 0.16743683148491284 -0.23923842736411288
0.25065913067292755 0.13848166530749667 -0.23923842736411288
0.546063965533835 -0.28393903004714355 -0.23923842736411288
0.3214083581033118 -0.42914583087040564 -0.23923842736411288
0.6577753820147904 0.4141019733306681 -0.23923842736411288
0.34541238129296614 0.11372595036868818 -0.23853684839823572
0.3189327866094309 0.3660337916114271 -0.23853684839823572
0.16391390282054394 -0.061338046730974934 -0.23853684839823572
0.23567540847312235 0.3177751813157336 -0.23853684839823572
0.21872726516886112 -0.3757556715671535 -0.23853684839823572
0.19710861046318914 -0.4116264018367873 -0.23853684839823572
0.47079456505187073 0.3580157462871165 -0.23853684839823572
0.4875723248929904 0.1817289972754961 -0.23853684839823572
0.6882138865772038 0.33946399391799326 -0.23853684839823572
0.6325786745831447 0.2968881732459049 -0.2380357205654663
0.12404417244541031 -0.4496920720139511 -0.2380357205654663
0.4890556632779878 0.4684943882994593 -0.23723391603303523
0.5389780179784757 -0.44552268844530973 -0.23723391603303523
0.33225276440444174 0.1326084471074394 -0.23723391603303523
0.07378105081863923 -0.3103384442774357 -0.23723391603303523
0.30542238023796786 0.0432272868546887 -0.2365323370671581
0.564294996089986 -0.33105506888412284 -0.2365323370671581
0.7191735640856975 -0.03377601592865778 -0.2365323370671581
0.1824255649630456 -0.06690056567471522 -0.2365323370671581
0.40385390915053393 -0.42702104885946335 -0.2365323370671581
0.12339270626280997 -0.4134705522613788 -0.2365323370671581
0.10567282609608389 -0.3891758749287181 -0.2365323370671581
0.3772440212304786 0.1843448845625526 -0.2365323370671581
0.6993289019080291 0.33000270043530705 -0.2365323370671581
0.6445255621163672 -0.3386521668289069 -0.2360312092343887
0.37738433702365415 0.4716715387592171 -0.23522940470195766
0.6420199229525203 0.21935367495982303 -0.23522940470195766
0.5564272891155063 -0.41701853731738614 -0.23522940470195766
0.3439490880212795 0.45868230533383425 -0.23522940470195766
0.318030756510446 -0.41933374790478073 -0.23522940470195766
0.11193692400570142 -0.43716387619471603 -0.2345278257360805
0.15321983486924481 -0.3497270919331108 -0.2345278257360805
0.29134068813714764 0.04224507630246068 -0.2345278257360805
0.5566177176919586 0.11441750677790999 -0.2345278257360805
0.5749790414846296 0.4324933647933053 -0.2345278257360805
0.18058141453845422 -0.13217747717125766 -0.2345278257360805
0.6653925250728852 0.2434779688293419 -0.2345278257360805
0.49746458831185836 0.35003779118942774 -0.2345278257360805
0.7323632486441882 0.3100678352477402 -0.2345278257360805
0.7234832634475142 0.08972192717903384 -0.2340266979033111
0.6281988173247403 0.019674278714526688 -0.23322489337088004
0.7206067896874181 -0.17515420010956162 -0.23322489337088004
0.32840410264877273 0.45529468118431315 -0.23322489337088004
0.2102381596817475 0.019674278714526688 -0.23322489337088004
0.14335763912034302 -0.3480032121883839 -0.23252331440500287
0.17181167746498968 -0.4492109892944925 -0.23252331440500287
0.5801807483887759 0.04996244492710944 -0.23252331440500287
0.3643149231450281 -0.01068404539464369 -0.23252331440500287
0.2517916795749864 0.4182112215593772 -0.23252331440500287
0.2565824616562618 0.4129293342019878 -0.23252331440500287
0.6837939390921778 -0.13664753743956073 -0.23252331440500287
0.39687820971838383 0.1672464029084604 -0.23252331440500287
0.6911104054506109 0.38241064918633105 -0.23252331440500287
0.6178755839696906 -0.36313727273801993 -0.2320221865722335
0.7170888723013769 0.331987166653074 -0.2312203820398024
0.17860697087734276 -0.324319910811702 -0.2312203820398024
0.4197196163360132 -0.12403916116708259 -0.2312203820398024
0.5305189801613281 -0.4450115380558849 -0.2312203820398024
0.25169145400843246 -0.3445053399156536 -0.23051880307392525
0.10578307421929325 -0.39756475484927795 -0.23051880307392525
0.3158157714896053 0.0974292732470273 -0.23051880307392525
0.6401958176412395 -0.2319520286756457 -0.23051880307392525
0.4292610902719426 -0.4715813357493186 -0.23051880307392525
0.37544998358916415 -0.4282738684413869 -0.23051880307392525
0.5009023252446565 -0.03329493320919914 -0.23051880307392525
0.38349809658344086 0.17481343318327836 -0.23051880307392525
0.6736310666436142 0.37498393470468866 -0.23051880307392525
0.1988425127645713 -0.3427313473876498 -0.23001767524115585
0.6111404258972695 0.23087961511351907 -0.22921587070872482
0.6790632923508345 -0.019924842630911446 -0.22921587070872482
0.6545982315550323 -0.40273639408345807 -0.22921587070872482
0.5350191080995973 0.2368630814367858 -0.22851429174284765
0.663087337042146 -0.30090721846471546 -0.22851429174284765
0.30450030502567216 0.058471595527533934 -0.22851429174284765
0.5444302887990068 0.11818598808033594 -0.22851429174284765
0.7217894513727539 -0.111190243534875 -0.22851429174284765
0.6488152163648734 -0.30917582770541063 -0.22851429174284765
0.2909297633142767 -0.34412448276274876 -0.22851429174284765
0.3086496434810028 0.4295567556932765 -0.22851429174284765
0.6092962754726782 0.16488107953778894 -0.22801316391007825
0.6030722677896824 -0.38953668696831206 -0.2272113593776472
0.25858697298733946 -0.12442001831998731 -0.2272113593776472
0.4301931880408937 0.07088954322355978 -0.2272113593776472
0.5976099744124956 0.21319982517341474 -0.22650978041177006
0.3325133508774818 0.13940374051979249 -0.22650978041177006
0.5209574611120878 0.11246310823010938 -0.22650978041177006
0.4802157683079355 -0.12336764987117152 -0.22650978041177006
0.3454624940762432 -0.43364595880867485 -0.22650978041177006
0.726931022936968 -0.0841493856786381 -0.22650978041177006
0.6645305852005219 0.2218492915670146 -0.22650978041177006
0.11490360077569635 -0.4486998389050678 -0.22650978041177006
0.5097823104413303 -0.46649989952503695 -0.22600865257900063
0.69947924025786 0.3330896478851665 -0.22520684804656962
0.07378105081863923 -0.3103384442774357 -0.22520684804656962
0.6677979386701783 -0.3103384442774357 -0.22520684804656962
0.544540536922216 0.10933607055362833 -0.22450526908069246
0.5113057390529493 -0.14480589855704654 -0.22450526908069246
0.6549690661512817 0.3889152884556779 -0.22450526908069246
0.6953599694724956 -0.17805071898296876 -0.22450526908069246
0.19040352006073458 -0.10569788248772233 -0.22450526908069246
0.23769996491751072 -0.40746704082480134 -0.22450526908069246
0.2793436878206481 0.1358858231337513 -0.22450526908069246
0.5434981910300556 0.17027321501838755 -0.22450526908069246
0.41490878914142704 -0.4951443664461361 -0.22400414124792303
0.518191235475201 -0.08593340076329715 -0.22320233671549197
0.26103247681125413 -0.3728791978070571 -0.22320233671549197
0.7073970600156165 -0.3445354075856198 -0.22320233671549197
0.1013230365076455 -0.42197970286180314 -0.2225007577496148
0.44451542150144324 0.10980713071643154 -0.2225007577496148
0.5109349044566999 -0.15734411693293704 -0.2225007577496148
0.6149389748696618 -0.3603409794311667 -0.2225007577496148
0.5960765232442214 -0.3621550621857919 -0.2225007577496148
0.6201005915471864 -0.3322978659093909 -0.2225007577496148
0.4038839768205001 0.35944897188883707 -0.2225007577496148
0.6017994030944479 -0.40273639408345807 -0.22199962991684544
0.27657746218376106 -0.4061340407896347 -0.22119782538441438
0.45514935411280993 0.3720773932746262 -0.22119782538441438
0.5630121088380962 -0.05952396397634958 -0.22119782538441438
0.10291662301585225 -0.4218995224085601 -0.2204962464185372
0.28921590612620535 0.05028316674008182 -0.2204962464185372
0.5430772436505292 0.11804567228716055 -0.2204962464185372
0.22099236297297883 0.3650114908325775 -0.2204962464185372
0.6137262455143597 -0.36193456593937334 -0.2204962464185372
0.6925135633823651 0.34427482111257973 -0.2204962464185372
0.49547009953743615 0.1718066661866621 -0.2204962464185372
0.6963522025813789 0.3295416628291593 -0.21999511858576778
0.350984922793362 0.0856728142902571 -0.21919331405333678
0.5305189801613281 -0.474377629056172 -0.21919331405333678
0.1783964971875796 -0.3430821368705884 -0.21849173508745962
0.3707694496310979 -0.03743424910787437 -0.21849173508745962
0.5202358370328999 -0.1725984481624377 -0.21849173508745962
0.1501629550893515 -0.04222503118914981 -0.21849173508745962
0.6386623664729651 -0.3679982127158831 -0.21849173508745962
0.20266110685027414 0.13526442462111712 -0.21849173508745962
0.5880885455898771 0.20558268211531988 -0.21849173508745962
0.2907694024077905 0.18161874915228687 -0.21849173508745962
0.37738433702365415 -0.5117417202674586 -0.21718880272225916
0.20577812197009976 -0.3103384442774357 -0.21718880272225916
0.35102501301998346 0.13848166530749667 -0.21718880272225916
0.24195955149605075 -0.40612401823297933 -0.216487223756382
0.5787174551170893 -0.037474339334495975 -0.216487223756382
0.3897421493797475 -0.01460286504690033 -0.216487223756382
0.21386632519099794 -0.2808220149273179 -0.216487223756382
0.16839398564550243 -0.06328242272212009 -0.216487223756382
0.598572139851413 -0.019253331335000373 -0.216487223756382
0.3616389005180394 0.3238388280922433 -0.216487223756382
0.44241068460381183 -0.5215437806764281 -0.2159860959236126
0.6149991102095941 0.2440793222286652 -0.21518429139118156
0.6625160513127887 -0.36313727273801993 -0.21518429139118156
0.5789980867034401 -0.037634700240982095 -0.2144827124253044
0.3882888786647163 -0.12188431148617412 -0.2144827124253044
0.6762269088173595 -0.2539715856475333 -0.2144827124253044
0.66809861536984 -0.33313976066844353 -0.2144827124253044
0.5894917035216314 -0.3968631758834007 -0.2144827124253044
0.09412684082907698 -0.379514130312924 -0.2144827124253044
0.286700244405703 0.2069156821504863 -0.2144827124253044
0.5815738837638749 0.16710608711528488 -0.2144827124253044
0.5667906126971776 -0.4687449522158439 -0.213981584592535
0.2717866801024856 -0.09228770168281318 -0.21317978006010393
0.4372290228129761 -0.5249414273826046 -0.21317978006010393
0.43159634597264807 -0.40799823632753685 -0.21247820109422674
0.4381009852419949 -0.41276897329550155 -0.21247820109422674
0.15206724085387524 -0.05616640749679464 -0.21247820109422674
0.6599903670356311 0.27587087193955606 -0.21247820109422674
0.4332400452641317 -0.4984618326990694 -0.21247820109422674
0.23826122809021258 -0.41619668767164425 -0.21247820109422674
0.5392987397914482 0.2612279166660343 -0.21247820109422674
0.7102234209924361 0.2863745113144028 -0.21247820109422674
0.5225911378469162 0.5344929238751894 -0.2111752687290263
0.25858697298733946 0.11208225107720467 -0.2111752687290263
0.35949407339378636 -0.49752973493011843 -0.2111752687290263
0.2431422131813865 0.33829135478931294 -0.21047368976314915
0.5115162127427124 -0.022781271277697007 -0.21047368976314915
0.5441396346560006 -0.4691558770387148 -0.21047368976314915
0.4832225353045519 -0.49053399038465745 -0.21047368976314915
0.7297473613571318 -0.03462793324436571 -0.21047368976314915
0.2372589724246737 -0.39428737882296605 -0.21047368976314915
0.4223054359531034 0.35796563350383964 -0.21047368976314915
0.6988578417452258 0.3042647749442704 -0.21047368976314915
0.2717866801024856 0.28368846613075877 -0.20917075739794871
0.3113858014479237 -0.030588842912244264 -0.20917075739794871
0.546063965533835 -0.48813859934401965 -0.20917075739794871
0.6052672076972122 -0.29745945897526205 -0.20846917843207155
0.2035731595059144 -0.1345227554286184 -0.20846917843207155
0.23840154388338797 0.40670532651899177 -0.20846917843207155
0.42853946619275474 -0.2557455781755369 -0.20846917843207155
0.19228776071194753 -0.1344826652019968 -0.20846917843207155
0.2415586492298352 -0.36477094947284816 -0.20846917843207155
0.3400002006990567 0.24662505161913395 -0.20846917843207155
0.5490005746338636 -0.48643476471260383 -0.20796805059930215
0.21898785164190132 -0.485332283480511 -0.20716624606687112
0.6545982315550323 0.20448020088322708 -0.20716624606687112
0.5622002817490098 0.0048809850911739295 -0.20716624606687112
0.6301632384291963 -0.2673015859991994 -0.20646466710099395
0.2284090548979661 0.17984475662428326 -0.20646466710099395
0.6645205626438665 0.3348335727432041 -0.20646466710099395
0.20782272352779899 0.2623604655680931 -0.20646466710099395
0.6237387796130923 -0.3958007848779296 -0.20646466710099395
0.18229527172652565 -0.33034346736159015 -0.20646466710099395
0.4339516467866642 0.3651016938424761 -0.20646466710099395
0.0838737653706149 -0.36313727273801993 -0.20596353926822453
0.2833627330394588 0.19015796742267752 -0.20516173473579352
0.6017994030944479 -0.011626165720250107 -0.20516173473579352
0.30319737266047175 0.07899779155776869 -0.20446015576991633
0.2726887102014704 0.05515412927460046 -0.20446015576991633
0.5754400790907774 -0.4479080569292921 -0.20446015576991633
0.6333504114456096 0.4266702593765249 -0.20446015576991633
0.18934112905526349 -0.1328489884671686 -0.20446015576991633
0.2961014025484569 -0.42221022166487715 -0.20446015576991633
0.0921624197246208 -0.3575045958976919 -0.20446015576991633
0.3720523368829876 0.32518185068406547 -0.20446015576991633
0.03417190691654551 -0.38953668696831206 -0.20315722340471587
0.37738433702365415 0.3638488742605526 -0.20315722340471587
0.5054325208528919 -0.36568300212848853 -0.20315722340471587
0.1560862860726858 -0.0381458506304069 -0.2024556444388387
0.5810627333744501 -0.07006769357781788 -0.2024556444388387
0.449727150962245 0.11323484509257424 -0.2024556444388387
0.16773249690624678 0.030218008315994985 -0.2024556444388387
0.6237287570564369 0.3627463930284598 -0.2024556444388387
0.10985223222138071 -0.357664956804178 -0.2024556444388387
0.4095166536608281 0.15599107178445973 -0.2024556444388387
0.5902834854974071 0.17925342578161538 -0.2024556444388387
0.23218755875704733 -0.47772516297907164 -0.20115271207363827
0.5225911378469162 0.5344929238751894 -0.20115271207363827
0.36493632165766215 -0.13776004122830884 -0.2004511331077611
0.4427113613034733 -0.521383419769942 -0.2004511331077611
0.3154248917800452 0.11613136396598141 -0.2004511331077611
0.40303205950479215 -0.506379652456826 -0.2004511331077611
0.14816846631492933 -0.47774520809238236 -0.2004511331077611
0.21145088903704942 0.21750952453523165 -0.2004511331077611
0.6807971946522167 0.2209272163547188 -0.2004511331077611
0.3765925550478784 0.33726905401046336 -0.2004511331077611
0.5978906059988468 -0.0067251355157653065 -0.19995000527499168
0.6341622385346961 -0.018782271172197162 -0.19914820074256065
0.44241068460381183 -0.08593340076329715 -0.19914820074256065
0.19437245249626825 -0.2433376530361665 -0.19844662177668349
0.39531469088014326 -0.1160912737393598 -0.19844662177668349
0.5925586058581802 -0.43774518448072863 -0.19844662177668349
0.14179412028210256 -0.32470076796460684 -0.19844662177668349
0.3152344632035928 0.32293679799325836 -0.19844662177668349
0.452152609672849 0.39516936380864026 -0.19844662177668349
0.5299176267620048 0.3344727607036101 -0.19844662177668349
0.5965676285203355 -0.032402925666869614 -0.19794549394391409
0.25858697298733946 0.06086698656817172 -0.19714368941148305
0.3308696515859981 0.31008788036105106 -0.19714368941148305
0.49016816706673577 -0.5052571261114226 -0.1964421104456059
0.2738813944434616 -0.1345227554286184 -0.1964421104456059
0.6577954271281009 -0.31192200822898697 -0.1964421104456059
0.19065408397711933 -0.4900128174385774 -0.1964421104456059
0.3355201178740982 0.334492805816921 -0.1964421104456059
0.24185932592949683 0.24286659287336343 -0.1964421104456059
0.40179928503617934 0.3648411073694359 -0.1964421104456059
0.43204736102214053 -0.09811080709959366 -0.1959409826128365
0.6963522025813789 0.19327498254250328 -0.19513917808040546
0.2059885956598629 0.09888254396205853 -0.19513917808040546
0.29448777092693956 -0.11775501814415419 -0.1944375991145283
0.4546983390633176 0.11860693545986226 -0.1944375991145283
0.7367531284592481 -0.0951741979995649 -0.1944375991145283
0.5307294538510912 -0.37890275435694526 -0.1944375991145283
0.23003270907613887 -0.4176599809433309 -0.1944375991145283
0.24791295014935122 0.3324782719291878 -0.1944375991145283
0.38023074311378424 0.34884510694743653 -0.1944375991145283
0.6023305985971835 0.2692158943203785 -0.1944375991145283
0.5885996959793018 -0.29713873716228967 -0.1931346667493278
0.3308696515859981 0.31008788036105106 -0.1931346667493278
0.6024508692770482 -0.30717131637433304 -0.19243308778345064
0.3391382608266933 -0.4823255164838946 -0.19243308778345064
0.6342223738746284 -0.37814104005113586 -0.19243308778345064
0.6432927876477547 -0.3246506551813298 -0.19243308778345064
0.20043609927277806 -0.47766502763913926 -0.19243308778345064
0.40395413471708785 0.45927363617650213 -0.19243308778345064
0.35619665225416375 0.14862449264274938 -0.19243308778345064
0.387376826009076 0.1959610277261473 -0.19243308778345064
0.1809722942480144 -0.4951443664461361 -0.1911301554182502
0.6149991102095941 0.12528195819235066 -0.1911301554182502
0.19257841485495375 0.19128049376808093 -0.1911301554182502
0.5433077624536035 -0.17049371126480614 -0.19042857645237304
0.43607642879760655 -0.42330268034031443 -0.19042857645237304
0.5827765905625215 0.09995495752418504 -0.19042857645237304
0.20862452806023002 -0.4710701853598939 -0.19042857645237304
0.2318768595007304 0.2259886074656897 -0.19042857645237304
0.6888853978731146 0.25284905930212975 -0.19042857645237304
0.5559161387260814 0.26447522502237986 -0.19042857645237304
0.5062243028286675 0.2192434268366138 -0.19042857645237304
0.4456780380734683 -0.38953668696831206 -0.1891256440871726
0.597459636062665 0.25352057059804084 -0.1891256440871726
0.12753202216148535 -0.47337537339063307 -0.18842406512129545
0.48077703148063716 -0.08680536319231594 -0.18842406512129545
0.580621740881613 -0.02660988792005529 -0.18842406512129545
0.1472864813292551 -0.12156358967320174 -0.18842406512129545
0.6702835327207145 -0.33494382086641333 -0.18842406512129545
0.6744428937327005 0.24712617945190318 -0.18842406512129545
0.6580459910444857 0.2254674345196096 -0.18842406512129545
0.4191282854933453 0.3384016029125222 -0.18842406512129545
0.223708475826589 0.250092856221898 -0.18842406512129545
0.6017994030944479 -0.44234553798555176 -0.18712113275609502
0.2849863872176316 0.25727902934381136 -0.18712113275609502
0.19573552020140098 -0.31652236173381015 -0.18641955379021785
0.2916012746101877 -0.11176152926423215 -0.18641955379021785
0.2741119132465356 0.057629700768481305 -0.18641955379021785
0.306975876519553 -0.13026316885007852 -0.18641955379021785
0.42461062398384253 -0.40275643919676896 -0.18641955379021785
0.37148105115363045 0.44926110207776954 -0.18641955379021785
0.54761746181542 0.43891782360940895 -0.18641955379021785
0.5481687024314665 0.3036433764316365 -0.18641955379021785
0.1781058430445734 -0.48617417823956366 -0.18591842595744842
0.5149639722321658 -0.27073932293199754 -0.1851166214250174
0.6017994030944479 0.2557054879489153 -0.1851166214250174
0.2391532356325421 -0.3216037979580918 -0.18441504245914023
0.4379005341088872 -0.1669056359821773 -0.18441504245914023
0.12401410477544415 -0.47238314028174977 -0.18441504245914023
0.5898424930045699 0.08430974658512437 -0.18441504245914023
0.27144591317620237 -0.2834278796577187 -0.18441504245914023
0.6136460650611165 0.054552775875277154 -0.18441504245914023
0.32549756121871015 0.4278028082785838 -0.18441504245914023
0.4437637297522891 0.17275880906892396 -0.18441504245914023
0.10915065325550362 -0.3103384442774357 -0.18391391462637083
0.6082539295805179 -0.03996995594168755 -0.18311211009393977
0.1397795863943695 -0.31611143691093924 -0.18311211009393977
0.7278330530359526 -0.1280782514992039 -0.1824105311280626
0.5240544311186027 -0.4940619303273541 -0.1824105311280626
0.1557455191464027 -0.3178453392123213 -0.1824105311280626
0.2698022138847187 -0.1175746121243572 -0.1824105311280626
0.37424727679051767 -0.3765173858729629 -0.1824105311280626
0.2677375672137087 0.3641295058469034 -0.1824105311280626
0.5430972887638401 0.4330446054093517 -0.1824105311280626
0.5303285515848758 0.2660988792005528 -0.1824105311280626
0.7206067896874181 -0.3499375656228739 -0.18110759876286217
0.19257841485495375 0.09888254396205853 -0.18110759876286217
0.35949407339378636 0.2121775243945651 -0.18110759876286217
0.43159634597264807 -0.4266201465932479 -0.180406019796985
0.5710501992757173 -0.34312222709721 -0.180406019796985
0.6111203807839589 -0.402395627157175 -0.180406019796985
0.10397901402132334 -0.4476073802296304 -0.180406019796985
0.4038438865938785 -0.2892008722912223 -0.180406019796985
0.6732101192640878 0.25413194655401955 -0.180406019796985
0.4613232490125291 0.39453794273935067 -0.180406019796985
0.3628917200999629 0.21983475767928168 -0.180406019796985
0.19257841485495375 0.00647457159938069 -0.17910308743178455
0.4372290228129761 0.3584266711099877 -0.17910308743178455
0.5168181452134128 0.23887761532451876 -0.17840150846590738
0.4930446408268322 0.39088973211678935 -0.17840150846590738
0.6426012312385327 -0.2375345927326969 -0.17840150846590738
0.5848412372335313 -0.09991486729756344 -0.17840150846590738
0.19467312919592988 -0.31717382791641036 -0.17840150846590738
0.3823755702380373 -0.5092160359903009 -0.17840150846590738
0.4241896766043162 -0.3100878803610509 -0.17840150846590738
0.39281907427295165 -0.06242048284975674 -0.17840150846590738
0.5853022748396793 -0.33832142245927915 -0.17840150846590738
0.6941973529004704 -0.3475822648088576 -0.17709857610070695
0.5661291239579219 0.08884996475001504 -0.17709857610070695
0.17480842190495077 -0.49195719342972255 -0.17639699713482979
0.2964221243614294 -0.4427364176951118 -0.17639699713482979
0.5746984098982786 0.10213987487505967 -0.17639699713482979
0.16518676751577815 -0.4867554865255762 -0.17639699713482979
0.5862443951652858 -0.3392635427848855 -0.17639699713482979
0.20122788124855365 -0.14996751523457139 -0.17639699713482979
0.6428217274849511 -0.40359833395582156 -0.17639699713482979
0.5816039514338411 0.4377752521506946 -0.17639699713482979
0.4048762099293835 0.34454543014227507 -0.17639699713482979
0.4942373250688234 0.3682086864056464 -0.1758958693020604
0.23282900238299223 0.24154361539485217 -0.17509406476962935
0.6406267875774212 -0.40328763469950446 -0.1743924858037522
0.7144729850143203 -0.17762977160344245 -0.1743924858037522
0.5835783950949524 -0.0270408578562369 -0.1743924858037522
0.6884844956068993 -0.12936113875109356 -0.1743924858037522
0.5497422438263625 -0.37781029568150803 -0.1743924858037522
0.3559360657811237 -0.21713868993898225 -0.1743924858037522
0.5240844987885691 0.2863845338710582 -0.1743924858037522
0.5214184987182356 0.4339466355083367 -0.1743924858037522
0.4720173169638281 0.4236835374932193 -0.1743924858037522
0.665262231836365 -0.38953668696831206 -0.17389135797098276
0.2144476334770105 0.2347182543125328 -0.1730895534385517
0.6468908854870388 -0.3955201532915787 -0.17238797447267454
0.3793287130147993 -0.4949539378696836 -0.17238797447267454
0.5930096209076725 -0.4392485679790368 -0.17238797447267454
0.6186473208321553 -0.2650866009783586 -0.17238797447267454
0.5365425367112164 -0.3650716261725098 -0.17238797447267454
0.5859838086922455 -0.13512410882794174 -0.17238797447267454
0.191756565209212 -0.47105014024658304 -0.17238797447267454
0.1894513771784727 -0.31938881293725113 -0.17238797447267454
0.4754450313399708 0.3635882877875124 -0.17238797447267454
0.6177252456198595 0.3666952803506827 -0.17238797447267454
0.3690856601129928 0.39112025091986324 -0.17238797447267454
0.2123729642493451 0.23087961511351907 -0.1710850421074741
0.6799653224498194 -0.31276390298803963 -0.17038346314159694
0.5597948681517166 -0.3452570316648076 -0.17038346314159694
0.5867956357813322 -0.4254274623512567 -0.17038346314159694
0.5941020795831099 -0.1360461840402374 -0.17038346314159694
0.4628065873975265 -0.43725407920461457 -0.17038346314159694
0.4582062338927033 -0.2465649162792015 -0.17038346314159694
0.21856690426237502 -0.22305199836566109 -0.17038346314159694
0.1436783609333154 -0.3215637077314703 -0.17038346314159694
0.5480584543082573 0.2991031582667457 -0.17038346314159694
0.5313708974770363 0.22460549464724638 -0.17038346314159694
0.6508598179225725 -0.34004530220400586 -0.1690805307763965
0.350984922793362 0.5344929238751894 -0.1690805307763965
0.5540118529615577 0.292758879903885 -0.16837895181051935
0.4831623999646195 0.1644300644882963 -0.16837895181051935
0.584751034223633 -0.13424212384226764 -0.16837895181051935
0.35022320848755245 -0.3350841366595887 -0.16837895181051935
0.5689554849347415 -0.29382127090935617 -0.16837895181051935
0.4745830914676074 -0.5030120734206156 -0.16837895181051935
0.24508658917253182 -0.42252092092119414 -0.16837895181051935
0.09944881841308795 -0.3103584893907464 -0.16837895181051935
0.35652739662379157 -0.08593340076329715 -0.1670760194453189
0.47057406880545216 0.15690312444009985 -0.16637444047944172
0.49968959588935447 0.1793837190181355 -0.16637444047944172
0.35470329131251094 -0.17489361363652156 -0.16637444047944172
0.5736861316760844 -0.17465307227679225 -0.16637444047944172
0.6748738636688822 -0.3537260920386105 -0.16637444047944172
0.43368103775696876 -0.5155603143531614 -0.16637444047944172
0.2434629349943589 -0.5016690508287937 -0.16637444047944172
0.046359335809497464 -0.3813683032941708 -0.16637444047944172
0.6545982315550323 0.2704887590156129 -0.1650715081142413
0.4372290228129761 -0.2853020977522763 -0.1650715081142413
0.40090727749384986 0.44410950795689996 -0.1650715081142413
0.22485104728530328 -0.4790782081275489 -0.16436992914836412
0.4806968510273941 -0.5073819081223647 -0.16436992914836412
0.39836154810338126 -0.42582836461747214 -0.16436992914836412
0.5013232726241829 -0.2844602029932238 -0.16436992914836412
0.552859258946188 -0.1700126285453475 -0.16436992914836412
0.6060389445596771 -0.019253331335000373 -0.16436992914836412
0.3360012005935568 0.26697084162957174 -0.16436992914836412
0.5927089442080109 -0.2817240450263027 -0.16306699678316366
0.25858697298733946 0.05927340005996496 -0.16306699678316366
0.5225911378469162 0.5476926309903356 -0.16306699678316366
0.2542572285122118 -0.41545501847914557 -0.1623654178172865
0.6949690897629353 -0.25205727732635413 -0.1623654178172865
0.7038089847329876 -0.12335762731451609 -0.1623654178172865
0.5260789875629911 -0.2528590818587852 -0.1623654178172865
0.5909249291233518 -0.011485849927074717 -0.1623654178172865
0.6792637434839424 0.2045904490064363 -0.1623654178172865
0.39636705932895905 0.16618401190298934 -0.1623654178172865
0.350984922793362 0.3496870017064892 -0.16106248545208604
0.3587223365313215 -0.15855684628823893 -0.16106248545208604
0.5487700558307897 0.2967278123394188 -0.16036090648620888
0.3982112097535504 0.3424707609146098 -0.16036090648620888
0.2951292145528843 -0.13518424416787406 -0.16036090648620888
0.56969715412724 -0.18026570400380956 -0.16036090648620888
0.35971456964020493 -0.3958508976612065 -0.16036090648620888
0.6628868859090381 -0.30643966973848974 -0.16036090648620888
0.18706600869449036 -0.3227163017468399 -0.16036090648620888
0.07452272001113791 -0.4258985225140599 -0.16036090648620888
0.25858697298733946 0.1516813724226428 -0.15905797412100844
0.22945140079012644 0.23121035948314703 -0.15835639515513128
0.676236931374015 0.2544727134803027 -0.15835639515513128
0.4017191045829363 -0.18082696717651128 -0.15835639515513128
0.5973694330527664 -0.1299725147070723 -0.15835639515513128
0.5963170646039507 -0.40924103335280493 -0.15835639515513128
0.18549246729959448 -0.14457537975397264 -0.15835639515513128
0.232488235456709 -0.43353571068546565 -0.15835639515513128
0.1192834580341009 -0.5199501941682214 -0.15835639515513128
0.6017893805377925 -0.1425207556396181 -0.15705346278993085
0.21511914477292143 0.1793636739048246 -0.15635188382405368
0.6762569764873259 0.22068667499498945 -0.15635188382405368
0.5883491320629174 0.08387877664894261 -0.15635188382405368
0.5568883267216541 -0.33241813658925556 -0.15635188382405368
0.2288300022774924 -0.23945892361053134 -0.15635188382405368
0.24295178460493408 -0.32430988825504664 -0.15635188382405368
0.22669519770989466 -0.3608320847072806 -0.15635188382405368
0.23511414530042066 0.2440793222286652 -0.15585075599128426
0.36985739697545766 0.3587874831495814 -0.15504895145885325
0.5758810715836146 -0.274988886953882 -0.15504895145885325
0.19875230975467278 -0.33656747504458623 -0.1543473724929761
0.5165976489669941 -0.4044702963848402 -0.1543473724929761
0.3534304266172767 -0.49327014835157834 -0.1543473724929761
0.4761867005324695 0.12648466499099728 -0.1543473724929761
0.36689072020546276 -0.12222507841245724 -0.1543473724929761
0.6896270670656135 0.2220798103700885 -0.1543473724929761
0.47200729440717265 0.3496669565931783 -0.1543473724929761
0.3245855085630699 0.09888254396205853 -0.1530444401277756
0.39916335263581226 -0.04632425686120358 -0.1530444401277756
0.506855723897957 0.33697839986745715 -0.15234286116189844
0.6793138562672193 -0.32977218163223315 -0.15234286116189844
0.5585620936831039 -0.17514417755290618 -0.15234286116189844
0.43555525585152627 0.13519426672452936 -0.15234286116189844
0.3493312009452229 -0.4907444640744206 -0.15234286116189844
0.2292509496570187 -0.4328140866062777 -0.15234286116189844
0.1309998267642495 -0.4589028015802529 -0.15234286116189844
0.2717866801024856 -0.13873222922388143 -0.151039928796698
0.3566476673036562 -0.09753952137023653 -0.151039928796698
0.4213532930708414 0.36344797199433687 -0.15033834983082084
0.5454626121345116 -0.17747943325361162 -0.15033834983082084
0.5553749206666905 0.12791789059271777 -0.15033834983082084
0.717610045247457 -0.18359319281339834 -0.15033834983082084
0.4757256629263217 -0.5017993440653136 -0.15033834983082084
0.15821106808362811 -0.32533218903389616 -0.15033834983082084
0.599634530856884 -0.024404925455869933 -0.1490354174656204
0.40213002940580717 -0.061839174563744305 -0.1490354174656204
0.4109699243758595 0.325893452206598 -0.14833383849974324
0.5118870473389617 -0.08107246078543395 -0.14833383849974324
0.5798800716891142 -0.15213238747213528 -0.14833383849974324
0.6387826371528299 -0.4039090332121385 -0.14833383849974324
0.16726143674344357 -0.2091106220580164 -0.14833383849974324
0.09136061519218977 -0.38423475449761185 -0.14833383849974324
0.39577572848629117 0.36164391179636723 -0.14783271066697382
0.47531473810345065 -0.03441745955460255 -0.14703090613454278
0.40379377381060155 0.4684943882994593 -0.14703090613454278
0.34977219343806 0.2658282701708574 -0.14632932716866562
0.2687799131058691 -0.12487103336947979 -0.14632932716866562
0.5628216802616437 -0.32682554997554897 -0.14632932716866562
0.4025209091153673 -0.42397419163622535 -0.14632932716866562
0.22091218251973577 -0.43908820707255064 -0.14632932716866562
0.27657746218376106 -0.42409446231609 -0.14582819933589622
0.17937870773980777 -0.0711401071399444 -0.1450263948034652
0.4203811050752688 0.36944146087425905 -0.1450263948034652
0.47446282078774277 0.33849180592242084 -0.14432481583758802
0.4617041061654338 -0.14754205652396757 -0.14432481583758802
0.5916365306458844 -0.31031839916412496 -0.14432481583758802
0.5478580031751494 -0.3829318221324113 -0.14432481583758802
0.34045121574854914 -0.3769984685924216 -0.14432481583758802
0.07285897560634354 -0.42044625169352884 -0.14432481583758802
0.2849863872176316 0.24662505161913395 -0.14302188347238756
0.6677979386701783 -0.41899298097849746 -0.14302188347238756
0.2656628979860435 0.0563768811865578 -0.1423203045065104
0.6184268245857366 -0.02048610580361315 -0.1423203045065104
0.5885596057526804 -0.138361394627632 -0.1423203045065104
0.13839647357592588 -0.3428415955108591 -0.1423203045065104
0.16461548178642102 -0.32218510624410435 -0.1423203045065104
0.20864457317354076 -0.21525444928776927 -0.1423203045065104
0.22962178425326799 -0.21793047191475784 -0.14101737214130994
0.25858697298733946 0.23087961511351907 -0.14101737214130994
0.4735106779054809 0.38928612305192734 -0.14101737214130994
0.31467320003089105 0.1283087703022779 -0.14031579317543277
0.2814484247182797 -0.3224256476038337 -0.14031579317543277
0.2739214846700832 -0.4031673640196398 -0.14031579317543277
0.5906442975370011 0.09011280688859398 -0.14031579317543277
0.39485365327399546 -0.09372092728453367 -0.14031579317543277
0.45659260227118587 0.3734905737630358 -0.13981466534266337
0.2849863872176316 -0.06111755048455634 -0.13901286081023234
0.42168403744046923 -0.21793047191475784 -0.13901286081023234
0.41703357115236916 0.360892220047213 -0.13831128184435518
0.49538991908419294 -0.4260588834205462 -0.13831128184435518
0.25681298045933587 -0.4094114168159466 -0.13831128184435518
0.1851015875900343 -0.48625435869280687 -0.13831128184435518
0.6404964943409012 0.0034978722727304684 -0.13831128184435518
0.6529845999335148 -0.4126487026156369 -0.13831128184435518
0.4553498052459178 -0.037474339334495975 -0.13700834947915475
0.3113858014479237 0.24662505161913395 -0.13700834947915475
0.48052646756425255 0.3567729492618485 -0.13630677051327758
0.5105039345205182 -0.06092712190810391 -0.13630677051327758
0.5713909662020007 0.10816343142494789 -0.13630677051327758
0.38808842753160855 -0.498321516905894 -0.13630677051327758
0.4242297668309378 -0.4426061244585918 -0.13630677051327758
0.34188444135026963 -0.3454073700146384 -0.13630677051327758
0.5490005746338636 0.0048809850911739295 -0.13500383814807715
0.36730164502833373 0.33850182847907595 -0.13500383814807715
0.7129796240726676 -0.18443508757245097 -0.13430225918219996
0.2929142295320435 -0.41373113873441886 -0.13430225918219996
0.5642549058633642 0.1340617178224705 -0.13430225918219996
0.5328341907487227 0.27281399215966295 -0.13430225918219996
0.07940370510231184 -0.4217592066153847 -0.13430225918219996
0.23283902493964753 -0.40453043172477254 -0.13430225918219996
0.1884691666262447 -0.17628674901162045 -0.1329993268169995
0.2849863872176316 0.16488107953778894 -0.1329993268169995
0.4763069712123341 0.3393036330115071 -0.13229774785112233
0.4027313828051305 -0.07793540055229746 -0.13229774785112233
0.30157371848229886 -0.16968188417571967 -0.13229774785112233
0.21621160344835882 -0.35239309200344393 -0.13229774785112233
0.7081988645480477 -0.26470574382545387 -0.13229774785112233
0.3160563128493345 -0.44327763575450274 -0.13229774785112233
0.6677979386701783 -0.4179807027563033 -0.1309948154859219
0.25680295790268043 0.05033327952335886 -0.1309948154859219
0.07846158477670542 -0.4153247252426255 -0.13029323652004474
0.5309800177674759 0.2196543516594847 -0.13029323652004474
0.491671550565044 -0.06369334754499112 -0.13029323652004474
0.3013832899058464 -0.18183924539870547 -0.13029323652004474
0.5358710254153053 -0.39225279982192224 -0.13029323652004474
0.21096980631759077 -0.227181291707681 -0.13029323652004474
0.40613905206796247 0.4156855372822196 -0.1297921086872753
0.2849863872176316 0.25727902934381136 -0.1289903041548443
0.6446458327962319 -0.44100251539372975 -0.1289903041548443
0.41541993953085166 0.16725642546511585 -0.1282887251889671
0.3959761796193989 -0.09572543861561132 -0.1282887251889671
0.30193453052189284 -0.18311211009393968 -0.1282887251889671
0.22909058875053245 -0.35220266342699164 -0.1282887251889671
0.23971449880524381 -0.4218995224085601 -0.1282887251889671
0.11530450304191193 -0.44353822222754297 -0.1282887251889671
0.43071436098697397 0.33917333977498704 -0.12698579282376668
0.5177301978690529 -0.08593340076329715 -0.12698579282376668
0.4201004734889179 0.3400653473173166 -0.12628421385788952
0.4005865556808775 -0.0772137764731095 -0.12628421385788952
0.5494415671267009 -0.18503644097177427 -0.12628421385788952
0.5516866198175077 -0.4654675761895319 -0.12628421385788952
0.6990783379916443 -0.3024907824162668 -0.12628421385788952
0.6137763582976367 -0.38712125081436355 -0.12628421385788952
0.6361467047524627 -0.08593340076329715 -0.12498128149268908
0.2717866801024856 0.13848166530749667 -0.12498128149268908
0.44804336144413986 0.1730795308818962 -0.12427970252681192
0.3591933966941247 0.23728402881631214 -0.12427970252681192
0.5627515223650562 0.1285192439920411 -0.12427970252681192
0.4587274068387836 -0.19306450885274012 -0.12427970252681192
0.39428236754463836 -0.43030844744243063 -0.12427970252681192
0.22091218251973577 -0.3522928664368901 -0.12427970252681192
0.4890556632779878 -0.16762726006136514 -0.1237785746940425
0.6017994030944479 0.17808078665293509 -0.12297677016161145
0.4825911142352625 0.3756053332173228 -0.12227519119573428
0.44133827104168516 0.18085703484647744 -0.12227519119573428
0.5912256058230135 0.1030318824173892 -0.12227519119573428
0.4261641202654277 -0.17953405736796615 -0.12227519119573428
0.44030594770618026 -0.4566777940027566 -0.12227519119573428
0.20857441527695314 -0.3456980241576448 -0.12227519119573428
0.38022072055712886 -0.21394149436591342 -0.12177406336296491
0.5166678068635818 0.19128049376808093 -0.12097225883053384
0.1637435193574024 -0.4731548771442146 -0.12027067986465667
0.21586081396542015 -0.4318218534973942 -0.12027067986465667
0.12743179659493142 -0.37087468647597954 -0.12027067986465667
0.2885043046036728 -0.12676529657734806 -0.12027067986465667
0.5104037089539643 -0.07613134035432768 -0.12027067986465667
0.4828316555949917 0.40826884535723235 -0.12027067986465667
0.2862692744695213 0.06682038522147217 -0.12027067986465667
0.4553898954725392 -0.052217520174571694 -0.11896774749945624
0.5268006116421791 -0.38815357414986845 -0.11896774749945624
0.3661891412395856 0.3251618055707546 -0.11826616853357907
0.6187876366253307 0.053811106682778456 -0.11826616853357907
0.33187190725153687 -0.18276132061100114 -0.11826616853357907
0.3567278477568993 -0.4066652362923703 -0.11826616853357907
0.14424964666267254 -0.33377118173773285 -0.11826616853357907
0.18536217406307437 -0.24480094630785318 -0.11826616853357907
0.5305189801613281 -0.37633697985316594 -0.11696323616837863
0.6281988173247403 0.1516813724226428 -0.11696323616837863
0.34457048653391364 -0.477504666732653 -0.11626165720250146
0.4512405570172087 -0.5144478105644134 -0.11626165720250146
0.15194697017401057 -0.3517316032641883 -0.11626165720250146
0.5915062374093646 -0.027291421772621657 -0.11626165720250146
0.4194490073063177 -0.0911852204507205 -0.11626165720250146
0.3620698704542211 0.2088901258115978 -0.11626165720250146
0.4645705573688748 0.3340217456541178 -0.11626165720250146
0.1838487680081108 -0.3367378585077278 -0.11495872483730103
0.32411444840026654 0.11240297289017705 -0.11495872483730103
0.2069908513254018 -0.38281155145254664 -0.11425714587142387
0.2919821317630925 -0.44003032739815706 -0.11425714587142387
0.15419202286481754 -0.35563037780313433 -0.11425714587142387
0.28774259029786337 -0.12859942444528413 -0.11425714587142387
0.38682558539302964 -0.0939113558609861 -0.11425714587142387
0.36422472013512963 0.3142973541563139 -0.11425714587142387
0.41304459360352475 0.33845171569579907 -0.11425714587142387
0.35800071245213355 -0.08593340076329715 -0.1129542135062234
0.4961917236166241 0.48010050890639855 -0.1129542135062234
0.36500647955424975 0.3132048954808768 -0.11225263454034623
0.6134957267112858 -0.019253331335000373 -0.11225263454034623
0.593741267543516 -0.03065900080883203 -0.11225263454034623
0.1707993992427955 -0.35985989671170804 -0.11225263454034623
0.12269112729693288 -0.3745830324384731 -0.11225263454034623
0.6678580740101107 -0.2576097737134392 -0.11225263454034623
0.5408823037429993 -0.36878999469165874 -0.11094970217514578
0.3245855085630699 0.1474318084007582 -0.11094970217514578
0.40622925507786084 0.39275392765469164 -0.11024812320926862
0.40133824743003144 0.24234541992728306 -0.11024812320926862
0.4233377592886083 -0.17405171887746893 -0.11024812320926862
0.1013130139509902 -0.40246578505376274 -0.11024812320926862
0.11792039032896817 -0.4429068011582535 -0.11024812320926862
0.13753453370356253 -0.36716634051348596 -0.11024812320926862
0.40095739027712674 -0.05952396397634958 -0.1097469953764992
0.33778521567821584 -0.21793047191475784 -0.10894519084406819
0.48409449773357066 0.3387123021688393 -0.10894519084406819
0.48062669313080636 0.3240893920086281 -0.10824361187819102
0.27772003364247533 0.0960862506552053 -0.10824361187819102
0.32819362895900955 -0.1916613509209858 -0.10824361187819102
0.2050865655608781 -0.4128792214187108 -0.10824361187819102
0.10668510431827821 -0.443177410187949 -0.10824361187819102
0.6431324267412682 -0.27941885699556357 -0.10824361187819102
0.6677979386701783 -0.38953668696831206 -0.10694067951299058
0.6092662078027121 -0.03220247453376175 -0.10694067951299058
0.38083209651310757 0.3496870017064892 -0.10694067951299058
0.4995192124262129 0.3657732051383869 -0.10623910054711341
0.40395413471708785 -0.08027065625300292 -0.10623910054711341
0.5888903501223081 0.11724386775472952 -0.10623910054711341
0.16774251946290222 -0.3679881901592277 -0.10623910054711341
0.13623160133836212 -0.33712873821728795 -0.10623910054711341
0.6609525324745484 -0.2734554357856077 -0.10623910054711341
0.4735106779054809 0.4684943882994593 -0.10493616818191298
0.6413985244398861 0.21767990799837322 -0.10493616818191298
0.17877735434048445 -0.44814859828902137 -0.10423458921603582
0.14100233830632683 -0.42674041727311257 -0.10423458921603582
0.2328590700529584 -0.37729914529208325 -0.10423458921603582
0.30432992156253064 -0.18186931306867163 -0.10423458921603582
0.4999401598057392 -0.19597105028280257 -0.10423458921603582
0.4973743853019599 0.1957004412531071 -0.10423458921603582
0.45277400818548297 0.35020817465256926 -0.1037334613832664
0.2530845893835315 0.06079682867158396 -0.10293165685083534
0.651050246499025 -0.252648608169022 -0.10293165685083534
0.5143525962761872 -0.418511898259039 -0.10223007788495816
0.08690057748054215 -0.44547257566203285 -0.10223007788495816
0.5969585082298955 -0.03951894089219507 -0.10223007788495816
0.2861389812330012 -0.11793542416395118 -0.10223007788495816
0.5163170173806433 0.29930360939985357 -0.10223007788495816
0.476457309562165 0.4218995224085602 -0.10223007788495816
0.41562039066395956 -0.08958161138585845 -0.10092714551975773
0.24538726587219348 0.12528195819235066 -0.10092714551975773
0.1426159699278443 -0.4010225368953868 -0.10022556655388057
0.6215638848188733 -0.2991733161633333 -0.10022556655388057
0.5473368302290693 -0.36887017514490195 -0.10022556655388057
0.30042112446692926 -0.18505648608508501 -0.10022556655388057
0.27955416151041124 0.11173146159426597 -0.10022556655388057
0.39840163833000286 0.2511151570007476 -0.10022556655388057
0.18948144484843887 -0.439769740925117 -0.09892263418868014
0.44354323350587066 -0.07272367109149572 -0.09892263418868014
0.47838164043999953 0.4009624015554546 -0.09822105522280296
0.35873235908797696 0.26020561588718466 -0.09822105522280296
0.30157371848229886 -0.17814092199286727 -0.09822105522280296
0.5872967636141014 0.12073171747080455 -0.09822105522280296
0.6623857580762689 -0.38356324320170077 -0.09822105522280296
0.14962173702996054 -0.3548586409406695 -0.09822105522280296
0.16774251946290222 -0.4544828540952267 -0.09691812285760253
0.45796569253297403 -0.20396905049380226 -0.09691812285760253
0.48859462567183987 0.43646229722883884 -0.09621654389172536
0.38943145012343056 0.3402958661203905 -0.09621654389172536
0.2860187105531365 -0.14084698867816828 -0.09621654389172536
0.5836685981048509 -0.18160872659563157 -0.09621654389172536
0.24599864182817208 -0.41396165753749276 -0.09621654389172536
0.14983221071972372 -0.4018944993244056 -0.09621654389172536
0.6281988173247403 -0.11233281499358928 -0.09491361152652493
0.6131048470017259 -0.040350813094592264 -0.09491361152652493
0.39747956311770716 0.4240042593061915 -0.09421203256064775
0.49298450548689987 0.23611138968763182 -0.09421203256064775
0.31135573377795756 -0.193114621636017 -0.09421203256064775
0.6058886062098464 -0.32111269268197784 -0.09421203256064775
0.24886509303161305 -0.298752368783807 -0.09421203256064775
0.09957911164960805 -0.44638462831767306 -0.09421203256064775
0.4199902253657087 -0.1957806217063503 -0.09290910019544728
0.4993688740763821 0.4818143660944698 -0.09290910019544728
0.40191955571604404 0.3528441070529364 -0.09220752122957011
