0.4697472765138186 0.5781719270795233 -0.09511777054501354
0.4252917286035379 0.3375527911674708 -0.09386874931563458
0.3364767113390828 0.1399480248241077 -0.09386874931563458
0.5964364605952882 -0.04715535533686128 -0.09319619942289205
0.4186623082322188 -0.08682619115305941 -0.09319619942289205
0.3737071518301866 0.01592021674677648 -0.09319619942289205
0.5872225270647157 0.1664176670313313 -0.09319619942289205
0.48021023127377005 -0.1276211460756985 -0.09319619942289205
0.41274386917608463 0.18075258760235746 -0.09319619942289205
0.5473595341363054 0.3084986358009939 -0.09319619942289205
0.4921143643753127 0.5927470440408147 -0.09319619942289205
0.5180843980907844 0.18996652113293003 -0.09271580664236169
0.5009824151039033 0.21586929985912764 -0.0919471781935131
0.3871005025513734 0.25382993737663767 -0.0919471781935131
0.43134467763822065 0.17015512286385753 -0.09127462830077057
0.6244337518445982 0.15775138127056337 -0.09127462830077057
0.512271645446367 -0.1339815464899207 -0.09127462830077057
0.3561151682071645 0.08406873659281501 -0.09127462830077057
0.6046127457199151 -0.028679448997663174 -0.09127462830077057
0.581361735142245 0.1623727598192655 -0.09127462830077057
0.5627513188244986 0.28438291821836925 -0.09127462830077057
0.5236857779117686 0.18523945617251125 -0.09079423552024019
0.3871005025513734 0.24270404057955425 -0.0900256070713916
0.5470136513343236 0.3278200334339254 -0.0900256070713916
0.5921705727041784 -0.00611059616834642 -0.08935305717864907
0.47135178840079 -0.08657638690718365 -0.08935305717864907
0.3741010739102216 0.03671161628813097 -0.08935305717864907
0.6131637372133556 0.14135077174325641 -0.08935305717864907
0.4684021767283335 -0.12260584544696151 -0.08935305717864907
0.5159994934232827 0.18034905766671208 -0.08935305717864907
0.5850991909747714 0.15142941227878368 -0.08935305717864907
0.5593597457939541 0.2797999710921096 -0.08935305717864907
0.4638768767357374 0.6040266665276679 -0.08935305717864907
0.5685352479020843 0.2887352768099744 -0.08810403594927012
0.40720013648876413 0.17518003134820517 -0.08810403594927012
0.5698707398319586 0.17596787550827506 -0.08743148605652759
0.5201404791914545 -0.09020815632799326 -0.08743148605652759
0.46662472344037115 -0.08036971218273124 -0.08743148605652759
0.3570183066345616 0.1885349506469495 -0.08743148605652759
0.6405557335591974 0.17783179949673292 -0.08743148605652759
0.5011265329380623 -0.13003271783396103 -0.08743148605652759
0.3826712811148834 0.015113156875485423 -0.08743148605652759
0.4203148593972432 0.31719374512859366 -0.08743148605652759
0.5516062063161938 -0.0977407151267094 -0.08618246482714861
0.5769132979945338 0.2791370290549776 -0.08618246482714861
0.6045358828750301 0.13248272101466588 -0.08550991493440611
0.5247138184621037 -0.10987543676290663 -0.08550991493440611
0.42277447043355876 -0.08618246482714864 -0.08550991493440611
0.3880997195348766 0.16481315514435982 -0.08550991493440611
0.6178235471845004 0.11321897051539788 -0.08550991493440611
0.4770204232110483 -0.11808054545436537 -0.08550991493440611
0.5241661706922991 -0.07986049583536907 -0.08550991493440611
0.47836552299653334 0.587798998401352 -0.08550991493440611
0.5422001156734092 -0.09565581045920761 -0.08426089370502714
0.5692366213616584 0.2791370290549776 -0.08426089370502714
0.3659728280636477 0.11374740257398135 -0.08358834381228462
0.6332729790063572 0.18377906211969894 -0.08358834381228462
0.4756368920031209 -0.12498859363839206 -0.08358834381228462
0.3583634064200466 0.07791970900202626 -0.08358834381228462
0.536233637339222 0.17976297847446496 -0.08358834381228462
0.5119065469331638 -0.12760193036447734 -0.08358834381228462
0.5427573712988243 0.31186138526470647 -0.08358834381228462
0.4976965284850755 0.6610588974322337 -0.08358834381228462
0.5760293752783578 0.19056220818078767 -0.08233932258290566
0.3364767113390828 0.11463132529015722 -0.08233932258290566
0.5998088179146114 0.13363566368793867 -0.08166677269016313
0.37792500044324334 0.15940393243558781 -0.08166677269016313
0.6293049346391761 0.15533020165669034 -0.08166677269016313
0.4681139410600153 -0.08604795484860017 -0.08166677269016313
0.4929214242466036 -0.0846259922182303 -0.08166677269016313
0.4776545416813484 -0.11242151849971761 -0.08166677269016313
0.542766979154435 0.31196707167642324 -0.08166677269016313
0.49612084016493585 0.6606937989190305 -0.08166677269016313
0.5447461974102201 0.19056220818078767 -0.08041775146078417
0.5594654322056707 0.18253004089031988 -0.07974520156804164
0.5530858160802273 -0.08254108755072852 -0.07974520156804164
0.34633437119556615 0.16829119887539967 -0.07974520156804164
0.6056407862702501 0.13056114989254436 -0.07974520156804164
0.49834025481098626 -0.13732508024241205 -0.07974520156804164
0.4382815493890792 -0.0868934461423337 -0.07974520156804164
0.40508640825443054 -0.023135716310342704 -0.07974520156804164
0.5520097362518394 0.28617958721755293 -0.07974520156804164
0.47164963192471876 0.5821687950135359 -0.07974520156804164
0.5262895067822432 0.2791370290549776 -0.07849618033866268
0.6275274813512137 0.0766706877726472 -0.07849618033866268
0.42660800482219113 0.17095257487953794 -0.07782363044592017
0.4163275993188412 0.18025297911060595 -0.07782363044592017
0.608282946563167 0.0884499187512519 -0.07782363044592017
0.45479745318371345 -0.09782718582720487 -0.07782363044592017
0.38450638153650946 0.022770617797139518 -0.07782363044592017
0.501578102151761 -0.12524800573987846 -0.07782363044592017
0.5520385598186712 0.28629488148488025 -0.07782363044592017
0.4692764915888987 0.5849935045630547 -0.07782363044592017
0.5386356012418738 0.2791370290549776 -0.0765746092165412
0.6183039399650305 0.08781580028095191 -0.0765746092165412
0.613010011523586 0.12454663228030406 -0.07590205932379869
0.6287572868693714 0.17028002498679548 -0.07590205932379869
0.5006269244463109 -0.0936381607809801 -0.07590205932379869
0.35882458348935575 0.11354563760615859 -0.07590205932379869
0.6179196257406063 0.1548786324429917 -0.07590205932379869
0.5816019315325103 -0.035472202914362705 -0.07590205932379869
0.5620595532205348 0.17359473517245502 -0.07590205932379869
0.49823456839926966 0.6414396562753732 -0.07590205932379869
0.34913025717825286 0.10197777945098717 -0.07465303809441973
0.4993971189281531 0.18641161455700536 -0.07465303809441973
0.5021833970552292 -0.12015584226625653 -0.0739804882016772
0.36605929876414317 0.08566364062417582 -0.0739804882016772
0.3780595104217918 0.019638456868081557 -0.0739804882016772
0.41612583435101846 0.17981101775251795 -0.0739804882016772
0.5888654703741295 0.15889471608822564 -0.0739804882016772
0.541152859411853 -0.07405735104656205 -0.0739804882016772
0.5506454207551331 0.307739615207756 -0.0739804882016772
0.47187061260376284 0.5892978238766068 -0.0739804882016772
0.5022986913225564 0.18797769502153436 -0.07273146697229821
0.34329828882261415 0.1399480248241077 -0.07273146697229821
0.5627321031132773 0.17514159992576284 -0.0720589170795557
0.6331384690278086 0.17627532688781447 -0.0720589170795557
0.6030370573997753 0.042889467445751554 -0.0720589170795557
0.41541485303583353 -0.08200304763653452 -0.0720589170795557
0.371593423595853 0.13360684012110685 -0.0720589170795557
0.5763656502247293 -0.03952671798203901 -0.0720589170795557
0.4211891742578086 0.2854109587687042 -0.0720589170795557
0.4786825822316834 0.5858005644343457 -0.0720589170795557
0.4065275865960217 0.17472846213450666 -0.07080989585017673
0.5509048328566195 -0.07587323575696693 -0.07013734595743422
0.4637231510459676 -0.08380932449132861 -0.07013734595743422
0.5046526159471553 -0.09298482659945882 -0.07013734595743422
0.36528106245968395 0.04196711330713321 -0.07013734595743422
0.4124844570745982 0.17646748400002657 -0.07013734595743422
0.5441505103623625 -0.07344244828748325 -0.07013734595743422
0.594236261660459 0.11594760150881045 -0.07013734595743422
0.5432281562237442 0.3025705888892491 -0.07013734595743422
0.4894722040823956 0.649077901485806 -0.07013734595743422
0.39975404839054346 0.3297608202672681 -0.06888832472805526
0.4687096281078729 -0.08464520792945149 -0.06821577483531273
0.4161546579178503 0.17294140099093375 -0.06821577483531273
0.5647305370802835 0.1794363113837044 -0.06821577483531273
0.5987807773642764 -0.021233360899442496 -0.06821577483531273
0.3844967736808988 0.022770617797139518 -0.06821577483531273
0.5909695907528524 -0.006956087462079815 -0.06821577483531273
0.4447860676374605 -0.08551952279001683 -0.06821577483531273
0.47453198860790097 0.6272680692497273 -0.06821577483531273
0.535474616745984 0.1914076994745212 -0.06696675360593378
0.5642597521553637 0.3448451535759218 -0.06696675360593378
0.6029794102661117 0.0877965845697306 -0.06629420371319125
0.3982360072040675 -0.05955909693015544 -0.06629420371319125
0.4064795473179686 0.1660237449512964 -0.06629420371319125
0.5719844680662921 0.16975159292821201 -0.06629420371319125
0.6062172576068866 0.1053789603371422 -0.06629420371319125
0.5873282134764323 -0.01500747046376892 -0.06629420371319125
0.5473403184250841 0.3098725591533108 -0.06629420371319125
0.4990704518373924 0.6397582815435169 -0.06629420371319125
0.5262895067822432 0.25382993737663767 -0.0650451824838123
0.3529445758556641 0.08932423361181725 -0.0650451824838123
0.5207361662393122 0.1724898317772351 -0.06437263259106978
0.39843777217189025 -0.05760870224120224 -0.06437263259106978
0.41213857427261635 0.17203826256353658 -0.06437263259106978
0.5690732878162781 0.1745555207335157 -0.06437263259106978
0.5982523453056929 0.09263894379747681 -0.06437263259106978
0.5713215260291603 -0.060279686100951024 -0.06437263259106978
0.5509816957015043 0.30626000544372234 -0.06437263259106978
0.46669197842964544 0.5938135160135923 -0.06437263259106978
0.3871005025513734 0.24117639153746762 -0.06312361136169078
0.612174128085463 0.06249910074700129 -0.06312361136169078
0.5742903534128381 -0.04309123241357432 -0.062451061468948264
0.425925847073838 -0.08294461748637404 -0.062451061468948264
0.3846889307931109 0.15752079273590877 -0.062451061468948264
0.5694864256075343 0.19214750435653796 -0.062451061468948264
0.38018284651173606 0.06157674660838294 -0.062451061468948264
0.4348899763585348 -0.07987971154659024 -0.062451061468948264
0.5570058211693552 0.2852188016564921 -0.062451061468948264
0.47262002534139014 0.5882986068931035 -0.062451061468948264
0.3871005025513734 0.24270404057955425 -0.06120204023956931
0.3943736492486033 0.1539466704487628 -0.06052949034682678
0.5598401385744846 0.18302964938207153 -0.06052949034682678
0.6315723885632795 0.15807804836132394 -0.06052949034682678
0.47462806716400713 -0.10610915736354856 -0.06052949034682678
0.3864183448030203 0.129590756475873 -0.06052949034682678
0.5612909247716861 -0.05317948080471223 -0.06052949034682678
0.5766250623262156 0.137152138841421 -0.06052949034682678
0.48094042830017614 0.6030562731109965 -0.06052949034682678
0.5262895067822432 0.2791370290549776 -0.059280469117447825
0.3364767113390828 0.1414660660105837 -0.059280469117447825
0.537088736488566 0.17011669144141506 -0.058607919224705304
0.3783381382344994 0.027930036260035766 -0.058607919224705304
0.44173076955328733 0.17261473390017304 -0.058607919224705304
0.6033060773568726 0.11199877285285077 -0.058607919224705304
0.4260315334855548 -0.056205955322053545 -0.058607919224705304
0.4833327843472175 -0.09010246991627648 -0.058607919224705304
0.5508279700117346 0.30609667189834205 -0.058607919224705304
0.4671819790657863 0.5942458695160695 -0.058607919224705304
0.43466899567949074 0.1925798578590153 -0.05735889799532635
0.42450388444346815 -0.07173224998879515 -0.05668634810258382
0.6189764898577733 0.1263336934238771 -0.05668634810258382
0.5728299593600256 -0.05871360563642205 -0.05668634810258382
0.39113580190782854 -0.033627494637126006 -0.05668634810258382
0.3983897328938371 0.16305491756761858 -0.05668634810258382
0.5361663823499477 -0.08254108755072852 -0.05668634810258382
0.3885512887485751 0.13610488257986483 -0.05668634810258382
0.545313060891246 0.27450604265066486 -0.05668634810258382
0.483736314282863 0.6255674788066496 -0.05668634810258382
0.3871005025513734 0.17790866234161776 -0.055437326873204865
0.45429784469196177 0.1713464969595728 -0.054764776980462344
0.3514073189579668 0.153379806967737 -0.054764776980462344
0.5977623446695518 0.10265993719934027 -0.054764776980462344
0.5423058020851258 -0.09346521937998917 -0.054764776980462344
0.5635391629845683 0.1418119488125656 -0.054764776980462344
0.4419613580879418 -0.07663225635020486 -0.054764776980462344
0.42710761331394276 0.30717275172673003 -0.054764776980462344
0.48957789049411227 0.6556977140015144 -0.054764776980462344
0.48832886926473335 0.26648348321580756 -0.05351575575108335
0.5619154353863756 -0.07492205805151676 -0.05351575575108335
0.416894462799867 -0.053323598638871345 -0.05284320585834083
0.40235777726101796 -0.04542594132695201 -0.05284320585834083
0.4152034802124001 0.17898474217000573 -0.05284320585834083
0.5828797763287211 0.14144685029936252 -0.05284320585834083
0.5322752008276517 -0.07872676887331731 -0.05284320585834083
0.44739940436354564 -0.06500675106136992 -0.05284320585834083
0.4188064260663779 0.28307624985532664 -0.05284320585834083
0.46419393597088743 0.6072645138684425 -0.05284320585834083
0.3549237941114491 0.10197777945098717 -0.05159418462896188
0.5953795964781212 0.07009891453499173 -0.05092163473621935
0.5497711058945678 -0.0586559585027584 -0.05092163473621935
0.4846298448546494 -0.09305208158873299 -0.05092163473621935
0.34036789286137886 0.1566849092977859 -0.05092163473621935
0.4546052960715012 0.17868689864607698 -0.05092163473621935
0.5644134778451336 0.14620273882661325 -0.05092163473621935
0.4404625326126871 -0.07344244828748325 -0.05092163473621935
0.5532779731924395 0.2838448783041752 -0.05092163473621935
0.49894554971445454 0.6330327826160917 -0.05092163473621935
0.5389430526214133 0.24117639153746762 -0.04967261350684039
0.6148739355120437 0.06401714193347728 -0.04967261350684039
0.3673659671271857 0.11350720618371611 -0.04900006361409787
0.38043265075761185 0.11767701551871972 -0.04900006361409787
0.5333128492335973 0.17885023219145726 -0.04900006361409787
0.6112998132248979 0.08589422915883041 -0.04900006361409787
0.3872350125299219 0.04092946490118757 -0.04900006361409787
0.5356187345801431 -0.07587323575696693 -0.04900006361409787
0.581361735142245 -0.0034684358754293225 -0.04900006361409787
0.47604042193876644 0.6351176872835934 -0.04900006361409787
0.5391352097336254 0.2791370290549776 -0.04775104238471892
0.4044138583616881 0.19405946762304882 -0.04775104238471892
0.47781787522672886 0.1712023791254137 -0.0470784924919764
0.34853457013039524 0.15446549465173565 -0.0470784924919764
0.6035270580359164 0.09804816650624881 -0.0470784924919764
0.5287779413853906 -0.08774854529167775 -0.0470784924919764
0.39159697897713774 0.050162614142981295 -0.0470784924919764
0.412686222042421 -0.02966905812555582 -0.0470784924919764
0.5877893905457414 0.05284320585834087 -0.0470784924919764
0.47403238011614945 0.6301408180772987 -0.0470784924919764
0.4772029724676499 0.29179057489414756 -0.04582947126259744
0.6275274813512137 0.0766706877726472 -0.04582947126259744
0.5894611574219872 0.049614966373176785 -0.04515692136985491
0.40810327491616133 0.16218060270705337 -0.04515692136985491
0.5555454271165429 0.17828336871043146 -0.04515692136985491
0.5951970472215197 0.019359829055373978 -0.04515692136985491
0.39090521337317397 0.10242934866468582 -0.04515692136985491
0.542353841363179 -0.07381715465629696 -0.04515692136985491
0.5672574031058734 0.13280938810542645 -0.04515692136985491
0.413003281277571 0.27473663118531944 -0.04515692136985491
0.3383502431831513 0.13540350912029042 -0.044676528589324534
0.3908956055175633 0.16420786024089154 -0.04390790014047592
0.418902504622484 0.17170198761716535 -0.0432353502477334
0.3682210662765298 0.10618602020843325 -0.0432353502477334
0.569294268495322 0.14100488894127466 -0.0432353502477334
0.5891921374648901 -0.005178634174117419 -0.0432353502477334
0.5503379693755936 -0.0674855778089066 -0.0432353502477334
0.4055187617569079 0.13674860890577545 -0.0432353502477334
0.5570154290249658 0.1461546995485601 -0.0432353502477334
0.5588889608690343 0.28455585961936014 -0.0432353502477334
0.4872527894363453 0.637212199806706 -0.0432353502477334
0.3871005025513734 0.20321575401995773 -0.041986329018354446
0.6148739355120437 0.05136359609430722 -0.041986329018354446
0.5898454716464114 0.058511840668599144 -0.041313779125611926
0.4346305642570484 -0.06650557653662474 -0.041313779125611926
0.3817969662543182 0.10998112317462315 -0.041313779125611926
0.5254920547665628 0.18400004279874285 -0.041313779125611926
0.4449590090384514 -0.045906334107482356 -0.041313779125611926
0.5600130799754754 0.14659666090664814 -0.041313779125611926
0.5493003209696481 0.31491668334887973 -0.041313779125611926
0.4734847323463448 0.5942458695160695 -0.041313779125611926
0.5739732941776878 0.17473806999011732 -0.04006475789623297
0.48832886926473335 0.256270332701732 -0.04006475789623297
0.5648073999251685 0.13208879893463085 -0.03939220800349044
0.3493320221460756 0.14948862544544098 -0.03939220800349044
0.5849935045630548 0.08735462321164274 -0.03939220800349044
0.48529278689178135 -0.0880463888156065 -0.03939220800349044
0.4446035183808589 -0.045771824128933894 -0.03939220800349044
0.38221971190118487 0.08618246482714864 -0.03939220800349044
0.5439103139720972 0.3145804084025084 -0.03939220800349044
0.47585787268216484 0.5956294007239971 -0.03939220800349044
0.5642597521553637 0.3448451535759218 -0.038143186774111486
0.5642597521553637 0.20168810497787107 -0.038143186774111486
0.39131835116443014 0.03860436384342066 -0.037470636881368966
0.4190658381678643 0.1787637614909618 -0.037470636881368966
0.5563428791322232 0.1537352976253294 -0.037470636881368966
0.6079370637611853 0.07761225762248672 -0.037470636881368966
0.39169305753324374 0.09227384528427375 -0.037470636881368966
0.503096143338237 -0.07605578501356852 -0.037470636881368966
0.553364443892935 0.14451175623914633 -0.037470636881368966
0.41565504942609866 0.28651586216392416 -0.037470636881368966
0.34913025717825286 0.10556150959374379 -0.036990244100838586
0.4072673914780385 0.2900899844510701 -0.03622161565199001
0.3728616605364532 0.09281188519846774 -0.03554906575924748
0.6158347210731044 0.11504446308141326 -0.03554906575924748
0.46107138289744 -0.08351148096739985 -0.03554906575924748
0.36055399749926503 0.15256313924083528 -0.03554906575924748
0.44379645850956784 0.16919433730279684 -0.03554906575924748
0.5797091839772206 0.06268165000360289 -0.03554906575924748
0.39685247599614 0.04300476171307885 -0.03554906575924748
0.5529705218129001 0.2867176271317469 -0.03554906575924748
0.4675759011458213 0.611511186048331 -0.03554906575924748
0.6314667021515628 0.10197777945098717 -0.03430004452986849
0.4503682317472233 0.25382993737663767 -0.03430004452986849
0.47983552490495635 -0.07692049201852309 -0.03362749463712597
0.6221278664980523 0.13515370487441467 -0.03362749463712597
0.6084654958197685 0.08676854401939563 -0.03362749463712597
0.3614667437822727 0.09939326629173385 -0.03362749463712597
0.5160379248457252 0.16365060461547637 -0.03362749463712597
0.542670900598329 0.12995585498907605 -0.03362749463712597
0.42101623285681766 -0.025537680212994563 -0.03362749463712597
0.42393702096244235 0.2875535105698698 -0.03362749463712597
0.4833904314808811 0.6037480387149603 -0.03362749463712597
0.34913025717825286 0.08932423361181725 -0.032378473407747015
0.4374840973733988 0.2791370290549776 -0.032378473407747015
0.434957231347809 0.1615560920923639 -0.031705923515004494
0.3650696896362505 0.1039954291292148 -0.031705923515004494
0.5726570179590346 0.10596503952938931 -0.031705923515004494
0.46681688055258325 -0.09021776418360378 -0.031705923515004494
0.571427212440877 -0.0046886335379764214 -0.031705923515004494
0.5143181186914264 0.15964412882585305 -0.031705923515004494
0.45866941899478814 0.163314329669105 -0.031705923515004494
0.5512507156586013 0.31159236530760953 -0.031705923515004494
0.48438004060877365 0.6464741726153316 -0.031705923515004494
0.34913025717825286 0.08932423361181725 -0.031225530734474115
0.5769132979945338 0.2791370290549776 -0.030456902285625535
0.42067995791044643 -0.024500031807049055 -0.029784352392883014
0.6137498164056028 0.10932778899310186 -0.029784352392883014
0.619860412573949 0.10695464865728183 -0.029784352392883014
0.35383810642745045 0.10804033634128046 -0.029784352392883014
0.5406916823425438 0.12964840360953667 -0.029784352392883014
0.41127386726766174 0.10241974080907518 -0.029784352392883014
0.48247768519787343 0.1602206001624895 -0.029784352392883014
0.4672108026326181 -0.07164577928829968 -0.029784352392883014
0.4311044812479554 0.2748423175970361 -0.029784352392883014
0.4840533735180129 0.6418527940666294 -0.029784352392883014
0.5417965857377637 0.27036505688249307 -0.028535331163504058
0.6165649180995108 0.0766706877726472 -0.028535331163504058
0.44780293429919116 -0.06259517930310741 -0.027862781270761534
0.3796736301643739 0.07099244510677825 -0.027862781270761534
0.5228498944736458 0.17856199652313903 -0.027862781270761534
0.5724648608468226 0.10487935184539068 -0.027862781270761534
0.4065371944516322 0.09106325547733717 -0.027862781270761534
0.4280972224418353 -0.024701796774871682 -0.027862781270761534
0.5600130799754754 -0.051959283142165 -0.027862781270761534
0.43127742264894636 0.30731686956088916 -0.027862781270761534
0.46836374530589103 0.6358767078768315 -0.027862781270761534
0.4189601517561477 0.34241436610643816 -0.026613760041382578
0.6215321794501948 0.08379971663571795 -0.026613760041382578
0.5733487835629983 0.0034588280198186694 -0.025941210148640054
0.4206511343436146 -0.025873955159365924 -0.025941210148640054
0.4617439327901826 0.17842748654459056 -0.025941210148640054
0.5685544636133053 0.17912886000416484 -0.025941210148640054
0.5584469995109463 -0.032253571284809136 -0.025941210148640054
0.5627321031132773 -0.04010318931867548 -0.025941210148640054
0.4509062716614174 0.15669451715339655 -0.025941210148640054
0.4245615315771318 0.3090558914264092 -0.025941210148640054
0.46794099965902436 0.6176217822166773 -0.025941210148640054
0.3631961577921821 0.06076007888148137 -0.024692188919261063
0.5009824151039033 0.24117639153746762 -0.024692188919261063
0.5681413258220491 -0.037989461084341855 -0.02401963902651854
0.3788473545818617 0.08039853574956293 -0.02401963902651854
0.49369966055106285 0.16582197998347364 -0.02401963902651854
0.5126271361039595 -0.07373068395580148 -0.02401963902651854
0.4692188444552351 0.15100666663191697 -0.02401963902651854
0.44730332580743964 0.14690411228618752 -0.02401963902651854
0.4146750481538168 0.0033339258968807226 -0.02401963902651854
0.5561315063087899 -0.04728986531540988 -0.02401963902651854
0.543746980426717 0.30597176977540413 -0.02401963902651854
0.6108962832892524 0.06988754171155846 -0.0235392462459882
0.4404625326126871 0.18812181285569346 -0.022770617797139583
0.5895668438337038 0.1652551165024477 -0.022770617797139583
0.4553162773866861 -0.06988754171155846 -0.022098067904397063
0.4017332666463285 0.09580953614897723 -0.022098067904397063
0.4220538812627633 0.15124686302218207 -0.022098067904397063
0.5746938833484836 -0.021502380856539424 -0.022098067904397063
0.476271010473421 0.1535719640799491 -0.022098067904397063
0.41217700569505883 0.02771866343660235 -0.022098067904397063
0.554344445165217 -0.04001671861818001 -0.022098067904397063
0.5224944038160533 0.3225164971368702 -0.022098067904397063
0.4476972478874745 0.3224492421475959 -0.022098067904397063
0.5060361471550828 0.18404808207679585 -0.021617675123866684
0.5454763944366262 0.19056220818078767 -0.020849046675018107
0.39975404839054346 0.31710727442809816 -0.020849046675018107
0.527250292343304 0.31566609608650703 -0.020176496782275583
0.4674317833116622 0.3220264965007292 -0.020176496782275583
0.4886363206442727 -0.06394988694420312 -0.020176496782275583
0.37826127538961457 0.07321185975282853 -0.020176496782275583
0.5507414993112392 0.11632230787762415 -0.020176496782275583
0.5775474164648339 0.057848898631467346 -0.020176496782275583
0.4023769929722393 0.0597416461867569 -0.020176496782275583
0.5669787752931658 0.020234143915939196 -0.020176496782275583
0.5339853991263398 0.12011741084381404 -0.020176496782275583
0.5895668438337038 0.013402958576797326 -0.018927475552896627
0.39692933884102477 0.11403563824229959 -0.018927475552896627
0.39975404839054346 0.3312788614537441 -0.018927475552896627
0.5307571596411756 0.3157525667870025 -0.018254925660154103
0.41518426450117896 0.28818762904016976 -0.018254925660154103
0.5677762273088462 0.018399043494313153 -0.018254925660154103
0.417557404836999 0.1520250993266413 -0.018254925660154103
0.45184784151125695 0.15163117724660644 -0.018254925660154103
0.5003290809223819 0.15938471672436663 -0.018254925660154103
0.40705601865460506 0.05777203578658239 -0.018254925660154103
0.5671517166941568 0.038152794629722 -0.018254925660154103
0.5515005199044772 -0.03690377340034322 -0.018254925660154103
0.38748481677579777 0.0387100502551373 -0.017005904430775147
0.3995522834227207 0.11389152040814048 -0.017005904430775147
0.49062514675566854 0.32971278098921514 -0.017005904430775147
0.5495981644935769 0.31644433239096625 -0.016333354538032623
0.44185567167622514 0.32303532133984303 -0.016333354538032623
0.504710263080819 -0.060001058288243446 -0.016333354538032623
0.39194286177911963 0.06671694936005788 -0.016333354538032623
0.39931208703245546 0.06633263513563366 -0.016333354538032623
0.4275591825276413 0.0861344255490955 -0.016333354538032623
0.4260315334855548 0.10302503571254347 -0.016333354538032623
0.4405778268800144 -0.037259264057935615 -0.016333354538032623
0.3857169713434459 0.0417077012056468 -0.015852961757502247
0.5516062063161938 0.19492417462800352 -0.015084333308653634
0.4756753234255633 0.2791370290549776 -0.015084333308653634
0.47882670006584255 0.6323794484345703 -0.01441178341591111
0.4172979927355126 0.28518037023404963 -0.01441178341591111
0.3817585348318757 0.07621911855894867 -0.01441178341591111
0.558456607366557 0.14330116643220975 -0.01441178341591111
0.49536181957169795 0.1527745120642687 -0.01441178341591111
0.5522979719201576 0.15117000017729726 -0.01441178341591111
0.5296042169679027 0.14070704541734577 -0.01441178341591111
0.5005212380345943 -0.0545534041570291 -0.01441178341591111
0.4249362379459455 0.07337519329820895 -0.01441178341591111
0.5771727100960201 -3.554906575925339E-4 -0.013162762186532154
0.48832886926473335 0.256270332701732 -0.013162762186532154
0.48429356990827815 0.6446102486268735 -0.012490212293789632
0.4411831217834827 0.31500315404937523 -0.012490212293789632
0.37735813696221754 0.07669951133947901 -0.012490212293789632
0.5620403375093135 0.15296666917648083 -0.012490212293789632
0.5425940377534441 0.10700268793533495 -0.012490212293789632
0.5642405364441427 0.06062556890293277 -0.012490212293789632
0.46882492237520024 -0.04968222136245108 -0.012490212293789632
0.5299885311923271 0.10494660683466497 -0.012490212293789632
0.41417543966206516 0.04368691946143196 -0.012490212293789632
0.5262895067822432 0.1652551165024477 -0.011241191064410676
0.46625001707155744 0.32708022855190866 -0.011241191064410676
0.5515677748937514 0.3089886364371349 -0.010568641171668152
0.4359276247644803 0.3231217920403385 -0.010568641171668152
0.5504916950653633 0.14328195072098857 -0.010568641171668152
0.39397972716856827 0.0416596619275938 -0.010568641171668152
0.39962914626760554 0.06115400096151624 -0.010568641171668152
0.44148096530741143 0.1329631137951962 -0.010568641171668152
0.5229363651741413 0.11925270383885934 -0.010568641171668152
0.5473403184250841 -0.008339618670007338 -0.010568641171668152
0.5917190034904798 0.035385732213867094 -0.010088248391137774
0.5895668438337038 0.1652551165024477 -0.009319619942289196
0.5136359609430733 0.3448451535759218 -0.009319619942289196
0.5421328606841349 0.30860432221271056 -0.008647070049546674
0.4201323101406418 0.05881929204813869 -0.008647070049546674
0.5773936907750643 0.04227456468667261 -0.008647070049546674
0.5899511580581281 0.06984911028911597 -0.008647070049546674
0.6130676586572497 0.08217598903752532 -0.008647070049546674
0.54379501970477 -0.0223382642946623 -0.008647070049546674
0.5419791349943652 0.028804351120600983 -0.008647070049546674
0.4063930766174731 0.03991103220646323 -0.008647070049546674
0.40376052418016667 0.1652551165024477 -0.0073980488201677175
0.4326417381456526 0.3321819998811413 -0.0073980488201677175
0.543698941148664 0.3165211952358511 -0.006725498927425195
0.43127742264894636 0.29914058443626224 -0.006725498927425195
0.52908539276493 0.13902567068548952 -0.006725498927425195
0.4087277855308508 0.04337946808189255 -0.006725498927425195
0.41540524518022287 0.04977829991855707 -0.006725498927425195
0.46544295720026635 0.1335011537093902 -0.006725498927425195
0.457987261246435 -0.028083761949805535 -0.006725498927425195
0.42571447425040476 0.023779442636253336 -0.006725498927425195
0.4677776661136441 0.13942920062113504 -0.006725498927425195
0.41979603519427056 0.12728487112932715 -0.005476477698046204
0.4595149102885217 0.315839037487498 -0.005476477698046204
0.5577552339069826 0.28871606109875325 -0.004803927805303681
0.4490999948066232 0.1346733120938843 -0.004803927805303681
0.5802952631694677 0.04710731605880815 -0.004803927805303681
0.5928239068856997 0.07440323384854394 -0.004803927805303681
0.5975990111241716 0.053073794392995456 -0.004803927805303681
0.44641940309126377 0.1011611117240856 -0.004803927805303681
0.5207553819505334 -0.02551846450177339 -0.004803927805303681
0.53730971716761 0.03754749972625385 -0.004803927805303681
0.41988250589476606 0.12723683185127416 -0.0035549065759247246
0.52402205285814 0.3333925896880777 -0.0035549065759247246
0.54616816004059 0.31534903685135696 -0.0028823566831822018
0.4483025427909428 0.3265710122045465 -0.0028823566831822018
0.5527687568450773 0.14258057726141415 -0.0028823566831822018
0.4650009958421785 -0.04331221309261839 -0.0028823566831822018
0.5266642131510569 -0.0418422111841954 -0.0028823566831822018
0.45721863279758646 0.13201193608974604 -0.0028823566831822018
0.5183053787698285 0.08812325166049131 -0.0028823566831822018
0.5119161547887745 -0.03823926533021761 -0.0028823566831822018
0.4257817292396789 0.1928200542492804 -0.0016333354538032453
0.39975404839054346 0.31710727442809816 -0.0016333354538032453
0.5516542455942468 0.3134562892960674 -9.607855610607225E-4
0.41627956004078825 0.3211906130626063 -9.607855610607225E-4
0.5496077723491876 0.14292646006339604 -9.607855610607225E-4
0.4891743605584667 -0.04410966510829879 -9.607855610607225E-4
0.5091010530948666 -0.04740515958273717 -9.607855610607225E-4
0.5180459666683421 -0.03158102139206668 -9.607855610607225E-4
0.5286434314068421 0.060721647459038894 -9.607855610607225E-4
0.4552201988305801 0.09269659093114045 -9.607855610607225E-4
0.3871005025513734 0.15260157066327776 2.8823566831823384E-4
0.5607913162799346 0.3297608202672681 2.8823566831823384E-4
0.48648416098749664 0.6212247280706551 9.607855610607567E-4
0.5608585712692089 0.29159841778193546 9.607855610607567E-4
0.491739658006499 0.14395450061373102 9.607855610607567E-4
0.42371604028339843 0.024557678940712566 9.607855610607567E-4
0.4165581878534958 0.037806911827740125 9.607855610607567E-4
0.4673357047555561 0.12992703142224424 9.607855610607567E-4
0.46986257078114585 -0.024221403994341337 9.607855610607567E-4
0.5285281371395147 0.047145747481250624 9.607855610607567E-4
0.5271349980759767 -0.04626182476507489 0.002209806790439713
0.5289028435083285 0.11394916754180412 0.002209806790439713
0.43667703750210773 0.29179057489414756 0.002209806790439713
0.43140232477188434 0.32378473407747027 0.002882356683182236
0.5434395290471776 0.13535546984223742 0.002882356683182236
0.40837229487325827 0.03634651777492792 0.002882356683182236
0.44140410246252665 0.054178697788215255 0.002882356683182236
0.5972627361778003 0.05590811179812452 0.002882356683182236
0.5220812660247973 -0.00748451952066329 0.002882356683182236
0.46206099202533263 0.04856771011162049 0.002882356683182236
0.44764920860942153 0.12199094268788244 0.0041313779125612266
0.43173859971825557 0.17790866234161776 0.0041313779125612266
0.4722549268281871 0.6090996142900685 0.004803927805303749
0.5386163855306526 0.3179047264437786 0.004803927805303749
0.4274727118271458 0.13486546920609643 0.004803927805303749
0.5485893396544632 0.005880007633691697 0.004803927805303749
0.4407988075590583 0.016890610163447818 0.004803927805303749
0.4773663060130302 0.02121414518822119 0.004803927805303749
0.4689594323537487 0.08516403213242417 0.004803927805303749
0.5762119245349594 0.15260157066327776 0.006052949034682706
0.5516062063161938 0.20321575401995773 0.006052949034682706
0.4189601517561477 0.34241436610643816 0.006052949034682706
0.4275303589608095 0.2771289872323607 0.0067254989274252285
0.5714560360077087 0.1783410158440951 0.0067254989274252285
0.5371655993334509 4.1313779125604414E-4 0.0067254989274252285
0.40427934838313945 0.024557678940712566 0.0067254989274252285
0.48046003551964583 0.04952849567268131 0.0067254989274252285
0.5104461528803516 0.09663581173148947 0.0067254989274252285
0.5321022594266608 0.14185038023500807 0.007974520156804185
0.43771468590805335 0.21434165081704112 0.007974520156804185
0.46540452577782404 0.6109443225673052 0.008647070049546707
0.535301675344993 0.3245245389594872 0.008647070049546707
0.427491927538367 0.13461566496022065 0.008647070049546707
0.4574396134766304 0.014940215474494483 0.008647070049546707
0.5211204804637365 0.09421463211761644 0.008647070049546707
0.47657846185296043 0.03745142117014773 0.008647070049546707
0.46797943108146683 -0.019638456868081695 0.008647070049546707
0.40956366896897356 0.31710727442809816 0.009896091278925665
0.4756753234255633 0.17790866234161776 0.009896091278925665
0.4680274703595198 0.6209653159691688 0.010568641171668187
0.5412681536791804 0.32344845913109904 0.010568641171668187
0.4115909265028118 0.13637390253696174 0.010568641171668187
0.4701315907382428 0.05079673261328141 0.010568641171668187
0.5426997241651608 0.008205108691458738 0.010568641171668187
0.49547711383902526 -0.033051023300489674 0.010568641171668187
0.5105710550032895 0.08765246673557149 0.010568641171668187
0.5256938197343856 0.33187454850160186 0.011817662401047143
0.421496625637348 0.12368192527534935 0.011817662401047143
0.4162987757520094 0.2867560585541893 0.012490212293789667
0.5562468005761173 0.14239802800481272 0.012490212293789667
0.47880748435462134 0.010097856246748428 0.012490212293789667
0.5148273350387885 -0.022789833508360825 0.012490212293789667
0.49172044229527767 -0.027824349848319125 0.012490212293789667
0.5157881205998494 0.057637525808033926 0.012490212293789667
0.4503682317472233 -0.03722083263549328 0.013739233523168656
0.5481185547295433 0.19338691773030636 0.013739233523168656
0.47500277353282083 0.6287284633025395 0.01441178341591118
0.42300505896821333 0.31205354237691874 0.01441178341591118
0.555958564907799 0.14229234159309592 0.01441178341591118
0.5217257753672048 0.05694576020407017 0.01441178341591118
0.498100058420721 0.03517435939043381 0.01441178341591118
0.49835947052220747 -0.029323175323573942 0.01441178341591118
0.5038167325090325 -0.049874378474663195 0.015660804645290134
0.5755297667866063 0.1652551165024477 0.015660804645290134
0.4639441317250117 0.6176217822166773 0.016333354538032658
0.432488012455883 0.30886373431419695 0.016333354538032658
0.5523460111982106 0.1874300472517297 0.016333354538032658
0.5085918367475043 0.13817057153614545 0.016333354538032658
0.5006269244463109 0.032426512685800074 0.016333354538032658
0.47639591259635883 -0.03872926596635861 0.016333354538032658
0.5136359609430733 0.19056220818078767 0.017582375767411614
0.4767514032539514 0.6317068985418279 0.018254925660154138
0.4295384007834265 0.3166557052143997 0.018254925660154138
0.5633373980167454 0.14393528490250987 0.018254925660154138
0.4955924081063525 0.1585104018638013 0.018254925660154138
0.48771396650565435 0.08179167481310097 0.018254925660154138
0.5309973560314409 -0.022943559198130594 0.018254925660154138
0.540537956652774 0.2748903568750891 0.019503946889533094
0.46351177822253437 0.6187555091787289 0.020176496782275618
0.4311140891035661 0.30859471435710006 0.020176496782275618
0.5523844426206531 0.18727632156195995 0.020176496782275618
0.5072851683844618 0.14371430422346593 0.020176496782275618
0.48934730195945764 -0.03997828719573753 0.020176496782275618
0.46621158564911497 0.6304002301787853 0.022098067904397098
0.43102761840307063 0.30869079291320606 0.022098067904397098
0.57147525171893 0.1371809624082528 0.022098067904397098
0.4790284650336653 0.1557721630147782 0.022098067904397098
0.5271349980759767 -0.0076862844884860535 0.022098067904397098
0.5600707271091391 0.12728487112932715 0.022578460684927474
0.4643188380938254 0.6149988376349815 0.02401963902651861
0.41455014603087886 0.2867272349873574 0.02401963902651861
0.5468599256445538 0.14572234604608292 0.02401963902651861
0.4889533798794228 0.043696527317042606 0.02401963902651861
0.48641690599822246 -0.030581804408563517 0.02401963902651861
0.5203710677261091 0.11463132529015722 0.025652974480321854
0.46374236675718894 0.616776290922944 0.02594121014864009
0.4283374188321005 0.3116115810188307 0.02594121014864009
0.5469560042006599 0.13438507642556607 0.02594121014864009
0.5028175155255293 0.037806911827740125 0.02594121014864009
0.5339950069819505 -0.017486297211305592 0.02594121014864009
0.5440352160950352 0.32950140816578183 0.02786278127076157
0.42504192435766214 0.18547965256277638 0.02786278127076157
0.48070023190991107 0.10049816968695366 0.02786278127076157
0.5064012456682859 -0.02525905240028698 0.02786278127076157
0.5774513379087279 0.1399480248241077 0.028727488275716237
0.4765208147192968 0.6113670682141721 0.029784352392883046
0.43115252052600844 0.3221994379017201 0.029784352392883046
0.5538736602402973 0.14989215538108652 0.029784352392883046
0.5118392919438898 0.13205036751218852 0.029784352392883046
0.46302177758639335 0.21586929985912764 0.03170592351500453
0.4790284650336653 0.6316108199857219 0.03170592351500453
0.5459375715059355 0.32679199288359045 0.03170592351500453
0.40743072502341876 0.14530920825482674 0.03170592351500453
0.5003290809223819 0.15805883265010276 0.03170592351500453
0.4667688412745302 0.6129907958123645 0.03362749463712604
0.4318635018411935 0.3099109905757533 0.03362749463712604
0.5691309349499418 0.17575650268484164 0.03362749463712604
0.4923929921880203 -0.044138488675130615 0.03362749463712604
0.5262895067822432 0.24117639153746762 0.034876515866504997
0.46465511304019663 0.6160172703297059 0.03554906575924752
0.4311909519484509 0.3263788550923344 0.03554906575924752
0.5719652523550711 0.1779663094752814 0.03554906575924752
0.4721012011384173 0.620542570322302 0.037470636881369
0.5521922855084409 0.31189981668714895 0.037470636881369
0.5719748602106814 0.1782257215767678 0.037470636881369
0.5035669282631567 0.06989714956716897 0.037470636881369
0.4503682317472233 0.25382993737663767 0.03775887254968723
0.47678983467639374 0.624337673288492 0.03939220800349048
0.5463603171528021 0.31794315786622107 0.03939220800349048
0.48365945143797806 0.15321647342235659 0.03939220800349048
0.41038033669587526 0.13512488130758282 0.03939220800349048
0.5165663569043085 0.1399480248241077 0.04064122923286943
0.47778905165989705 0.637385141207697 0.04131377912561195
0.42209231268520564 0.3106604033133805 0.04131377912561195
0.49718731213771333 0.16285315259979583 0.04131377912561195
0.5576687632064872 0.14752862290087698 0.04131377912561195
0.3871005025513734 0.21586929985912764 0.042562800354990944
0.48070983976552156 0.61750648794935 0.04323535024773347
0.4160777950729655 0.2862468422068271 0.04323535024773347
0.49636103655520114 0.06113478525029507 0.04323535024773347
0.5717923109540802 0.13625860826963446 0.04323535024773347
0.43771468590805335 0.20321575401995773 0.043715743028263816
0.48084434974407014 0.6406422042596929 0.04515692136985495
0.4434601835631966 0.3257159130552025 0.04515692136985495
0.4809500361557868 0.15666569358656474 0.04515692136985495
0.5670652459936611 0.1820208245429577 0.04515692136985495
0.4701508064494641 0.15260157066327776 0.046405942599233904
0.474925910687936 0.6314667021515626 0.04707849249197643
0.5445060010199549 0.31976865043223646 0.04707849249197643
0.5525958154440863 0.19104260096131814 0.04707849249197643
0.4203244672528539 0.14072626112856695 0.04707849249197643
0.43771468590805335 0.21342890453403343 0.047558885272506804
0.5769132979945338 0.34241436610643816 0.047558885272506804
0.4150785780894623 0.3254276773868842 0.04900006361409791
0.567708972319572 0.18939965765190422 0.04900006361409791
0.4966300565122982 0.18718985086146447 0.04900006361409791
0.40326091568841516 0.26648348321580756 0.050249084843476864
0.43771468590805335 0.21342890453403343 0.050249084843476864
0.5475228676816857 0.3202298275015456 0.050921634736219384
0.41241720208532406 0.2855935080253058 0.050921634736219384
0.48908788985797125 0.18752612580783584 0.050921634736219384
0.48832886926473335 0.19689378502817803 0.051402027516749764
0.46302177758639335 0.19299299565027134 0.052170655965598375
0.4682484510385638 0.6262496365550028 0.0528432058583409
0.4167695606769291 0.2786085969963942 0.0528432058583409
0.4316425211621494 0.1317909554107021 0.0528432058583409
0.49730260640504065 0.19162868015356513 0.0528432058583409
0.4575837313107895 0.34241436610643816 0.05332359863887125
0.4187103475102719 0.12472918153690565 0.05409222708771986
0.48832886926473335 0.256270332701732 0.05409222708771986
0.5354361853235416 0.32446689182582356 0.05476477698046238
0.41616426577346094 0.18366376785237162 0.05476477698046238
0.47748160028035747 0.13297272165080673 0.05476477698046238
0.5022986913225564 0.34241436610643816 0.05524516976099276
0.5022986913225564 0.3044537285889281 0.056013798209841335
0.43771468590805335 0.25382993737663767 0.056013798209841335
0.5334761827789776 0.32039316104692595 0.056686348102583856
0.4149440681109137 0.18479749481442326 0.056686348102583856
0.4802486626962125 0.16397727170623694 0.056686348102583856
0.5072659526732406 0.34241436610643816 0.057166740883114235
0.46751825401215763 0.3044537285889281 0.05793536933196281
0.46302177758639335 0.20321575401995773 0.05793536933196281
0.4684982552844395 0.6224929650112553 0.05860791922470534
0.45154999798732803 0.31911531625071515 0.05860791922470534
0.43506291775952577 0.14652940591737382 0.05860791922470534
0.5031730061831218 0.09129384401199175 0.05860791922470534
0.46302177758639335 0.3365343584727465 0.05908831200523572
0.5420367821280289 0.20321575401995773 0.059856940454084295
0.41784564050531725 0.2548675857825833 0.059856940454084295
0.5769132979945338 0.3297608202672681 0.059856940454084295
0.5525765997328652 0.3117653067086005 0.060529490346826816
0.41228269210677543 0.26691583671828495 0.060529490346826816
0.5024139855898837 0.07851539604988389 0.060529490346826816
0.56056072774528 0.14349332354442185 0.060529490346826816
0.4709674741763657 0.3044537285889281 0.061009883127357195
0.41784564050531725 0.2285228456982977 0.061778511576205807
0.5642597521553637 0.23096324102339202 0.061778511576205807
0.46751825401215763 0.30609667189834205 0.061778511576205807
0.4817667038826884 0.6283441490781153 0.06245106146894833
0.5548152300901368 0.1401786133587623 0.06245106146894833
0.4855906304157102 0.09375345504830726 0.06245106146894833
0.44896548482807475 0.3194708069083076 0.06245106146894833
0.46751825401215763 0.3044537285889281 0.06293145424947867
0.42281290185600123 0.24898757814889147 0.06370008269832729
0.5460432579176522 0.20321575401995773 0.06370008269832729
0.43274742455736936 0.20321575401995773 0.06370008269832729
0.5585622937782736 0.2741889834155148 0.0643726325910698
0.5692462292172691 0.18898651986064816 0.0643726325910698
0.4226976075886739 0.13838194435957873 0.0643726325910698
0.42949036150537345 0.311236874650017 0.0643726325910698
0.5769132979945338 0.29179057489414756 0.06562165382044877
0.5009824151039033 0.2285228456982977 0.06562165382044877
0.5768172194384278 0.2285228456982977 0.06562165382044877
0.5206593033944272 0.3240825776013992 0.0662942037131913
0.5641924971660894 0.1420905766252733 0.0662942037131913
0.4985996669124727 0.20017967164700576 0.0662942037131913
0.46939178585622604 0.32351571412037333 0.0662942037131913
0.5420367821280289 0.20321575401995773 0.06677459649372167
0.5131363524513216 0.15260157066327776 0.06754322494257024
0.42818369314233073 0.15260157066327776 0.06754322494257024
0.4814208210807066 0.3237655183662491 0.06821577483531277
0.5443810988970171 0.3127837394033248 0.06821577483531277
0.49295024781343544 0.19221475934581225 0.06821577483531277
0.5644615171231867 0.1396309655889578 0.06821577483531277
0.429720950040028 0.19056220818078767 0.06946479606469172
0.5707354468369132 0.23792893634108236 0.06946479606469172
0.4797010149264079 0.6318510163759868 0.07013734595743425
0.41358936046981815 0.2688758392628489 0.07013734595743425
0.49752358708408456 0.0939936514385725 0.07013734595743425
0.5608681791248196 0.14289763649656423 0.07013734595743425
0.5895668438337038 0.19056220818078767 0.07138636718681324
0.4831406272350052 0.20321575401995773 0.07138636718681324
0.4159528929500275 0.2638221072116693 0.07205891707955576
0.4172595613130701 0.3278200334339254 0.07205891707955576
0.4955924081063525 0.1112301444040022 0.07205891707955576
0.5487334574886223 0.1652551165024477 0.07330793830893471
0.3871005025513734 0.15260157066327776 0.07330793830893471
0.5636544572518956 0.14978646896936973 0.07398048820167724
0.4585829482942927 0.32465904893803565 0.07398048820167724
0.4964475072556966 0.09427227925128008 0.07398048820167724
0.4756753234255633 0.306759613935474 0.07522950943105619
0.5428630577105411 0.25382993737663767 0.07522950943105619
0.5495597330711345 0.31874060988190145 0.07590205932379872
0.5698995633987904 0.20119810434173008 0.07590205932379872
0.4903561267985715 0.18911142198358596 0.07590205932379872
0.4174421105696717 0.11463132529015722 0.07715108055317771
0.5576303317840446 0.26319759659697983 0.07782363044592024
0.5431897248013017 0.31756845149740737 0.07782363044592024
0.4948141718018933 0.16567786214931451 0.07782363044592024
0.3871005025513734 0.12728487112932715 0.07907265167529916
0.43771468590805335 0.3044537285889281 0.07907265167529916
0.42044936937579186 0.31899041412777723 0.07974520156804167
0.4219193712842147 0.1460297974256223 0.07974520156804167
0.5008382972697442 0.18274141371375327 0.07974520156804167
0.4538174519114314 0.3348818073077219 0.08099422279742066
0.4215638806266223 0.13758449234389833 0.08166677269016319
0.5552091521701716 0.134999979184645 0.08166677269016319
0.5031730061831218 0.1238740823875616 0.08166677269016319
0.5783352606249037 0.1399480248241077 0.08291579391954211
0.4396458648857854 0.12089564714827328 0.08291579391954211
0.42635820057631535 0.31515687973914486 0.08358834381228464
0.48695494591241645 0.14272469509557328 0.08358834381228464
0.4756753234255633 0.1754682670165234 0.08483736504166363
0.4012624817214088 0.20620379711485656 0.08483736504166363
0.5590042551363615 0.13921782779770162 0.08550991493440614
0.4945739754116282 0.14738450506671788 0.08550991493440614
0.46302177758639335 0.21586929985912764 0.08675893616378513
0.5895668438337038 0.1652551165024477 0.08675893616378513
0.5582164109762918 0.23794815205230352 0.08743148605652766
0.39890855709680995 0.1399480248241077 0.08868050728590658
0.5102539957681395 0.11463132529015722 0.08868050728590658
0.48832886926473335 0.26648348321580756 0.08868050728590658
0.570495250446648 0.13123369978528682 0.08935305717864911
0.3871005025513734 0.15260157066327776 0.0906020784080281
0.4923641686211885 0.18376945426408828 0.0906020784080281
0.42818369314233073 0.3209504166723412 0.09127462830077063
0.4526164699601055 0.15260157066327776 0.09185109963740702
