0.49891367330120456 0.44355743043513407 -0.12287940903592533
0.5146645793685368 0.22825781133037035 -0.12287940903592533
0.626382442083699 0.2544069219350608 -0.12166923303784426
0.5282930229161577 0.46284577403531874 -0.12166923303784426
0.5504485527271805 0.3795111929982276 -0.12101759980810828
0.5061747292896911 0.5017296597582778 -0.12101759980810828
0.5273528092561101 0.2776981553750522 -0.12101759980810828
0.5874147749454881 0.2472855016386606 -0.12101759980810828
0.6930352124395494 0.37691396912542285 -0.12101759980810828
0.21864622119176486 0.4443859355415127 -0.12101759980810828
0.6450936248232603 0.29165241553754095 -0.12101759980810828
0.5239363893230659 0.29949994143278985 -0.12101759980810828
0.4470064320296652 0.20133604989613585 -0.12101759980810828
0.46229188579004316 0.5588778940061222 -0.12101759980810828
0.10689112229204643 0.37847788887678907 -0.12101759980810828
0.503772995385807 0.5648170654428587 -0.11980742381002721
0.5495735023901066 0.2845775404718361 -0.11915579058029124
0.534446302414093 0.30765466585062856 -0.11915579058029124
0.504415319569404 0.5056673862751109 -0.11915579058029124
0.5433271324307805 0.3744098357140089 -0.11915579058029124
0.5651009913501008 0.23125532418715583 -0.11915579058029124
0.49519936389170954 0.196765308241845 -0.11915579058029124
0.3042522094867928 0.4487053329500482 -0.11915579058029124
0.4153370570644972 0.5555359464421905 -0.11915579058029124
0.4953017633992394 0.4936773348479692 -0.11915579058029124
0.3347951898691316 0.33451126396188946 -0.11915579058029124
0.6586755231401857 0.3243923308087037 -0.11915579058029124
0.5376579233320774 0.4247159210496255 -0.11794561458221013
0.6631624833792248 0.3008683712152353 -0.11794561458221013
0.4887202677789062 0.2444741697046569 -0.11729398135247417
0.524736967291027 0.39525279001942076 -0.11729398135247417
0.5001238492992855 0.49916967207002955 -0.11729398135247417
0.465968959014982 0.5675166888231933 -0.11729398135247417
0.33437628279287274 0.31681476725148844 -0.11729398135247417
0.2209921008188143 0.43813956558218653 -0.11729398135247417
0.6964609414187327 0.3874331912625891 -0.11729398135247417
0.5142922175229735 0.5377184321319814 -0.11729398135247417
0.5489591053449269 0.35727188177195296 -0.11729398135247417
0.45698572949076466 0.1948941899678889 -0.11729398135247417
0.10011413670279229 0.382406306347483 -0.11729398135247417
0.6876825109095752 0.4652009627085073 -0.1160838053543931
0.3001376110933172 0.32404789610155765 -0.11543217212465712
0.5125328078026862 0.2655126139789896 -0.11543217212465712
0.5141898180154434 0.5351956806282893 -0.11543217212465712
0.46675091889066517 0.18459838493806055 -0.11543217212465712
0.4968749921967449 0.5100984922373154 -0.11543217212465712
0.21907443731416282 0.4331312987593587 -0.11543217212465712
0.5594317822513978 0.5357914595811909 -0.11543217212465712
0.4935237355866741 0.2607929275864734 -0.11543217212465712
0.4569764204446255 0.21676113934860008 -0.11543217212465712
0.5546934777666033 0.4847034143698909 -0.11543217212465712
0.46630408467598905 0.19996762011369026 -0.11543217212465712
0.5387656998226286 0.4260564236936539 -0.11422199612657605
0.6876825109095752 0.28883177455739817 -0.11422199612657605
0.5486705249146152 0.28598320643883807 -0.11357036289684008
0.47649749019828735 0.5100147108220638 -0.11357036289684008
0.515334830690551 0.535707678165939 -0.11357036289684008
0.4178039542913548 0.22172286094073254 -0.11357036289684008
0.21899065589891106 0.44456280741815535 -0.11357036289684008
0.6093096514646167 0.2518562432929516 -0.11357036289684008
0.40411034742076035 0.5503601167888593 -0.11357036289684008
0.5411115794496781 0.5132914950630219 -0.11357036289684008
0.4633717351421772 0.2125255233553163 -0.11357036289684008
0.09471488994212285 0.38087031373453406 -0.11357036289684008
0.7122025384399259 0.4505857602701435 -0.112360186898759
0.2207500656191981 0.4298358964261225 -0.11170855366902303
0.5395383506521726 0.2844565228720281 -0.11170855366902303
0.49800138677957434 0.4451492773249177 -0.11170855366902303
0.6684593306323642 0.4261960593857401 -0.11170855366902303
0.4408159163471736 0.5366665099182649 -0.11170855366902303
0.4538578899880319 0.5518309460788346 -0.11170855366902303
0.21080800434265506 0.3024322909666017 -0.11170855366902303
0.5328823826627266 0.4327030826369607 -0.11170855366902303
0.4267499476310156 0.536675818964404 -0.11170855366902303
0.47787522902687196 0.19737970528702464 -0.11170855366902303
0.47401197487915137 0.49324911872557126 -0.11170855366902303
0.5896024007881729 0.1931068531091845 -0.11049837767094196
-0.060224873996812006 0.3524963411026022 -0.11049837767094196
0.5481492183308266 0.28093770343145386 -0.10984674444120598
0.5309461010657969 0.37104927005779903 -0.10984674444120598
0.6716244063196533 0.3315323691973822 -0.10984674444120598
0.3585518756160771 0.4989462549626915 -0.10984674444120598
0.5350793175515507 0.3651845709901754 -0.10984674444120598
0.45461192272529793 0.20855986970006596 -0.10984674444120598
0.5083902822707933 0.48699343972010584 -0.10984674444120598
0.46633201181440614 0.21935836322140484 -0.10984674444120598
0.5546934777666033 0.47842911727214754 -0.10984674444120598
0.633941387548636 0.46669971913690006 -0.10984674444120598
0.6631624833792248 0.26431174702704757 -0.10863656844312489
0.5353585889357232 0.42329163699034555 -0.10863656844312489
0.468277602457475 0.21097091265008905 -0.10798493521338891
0.5207061503128032 0.26742096843750207 -0.10798493521338891
0.5039312491701716 0.2001351829441938 -0.10798493521338891
0.48022110865392126 0.5112248868201449 -0.10798493521338891
0.4752966232463452 0.565403535349621 -0.10798493521338891
0.20480366958294513 0.4463780714152769 -0.10798493521338891
0.5248021306140007 0.3988181546906904 -0.10798493521338891
0.5456264668271343 0.34864239600102087 -0.10798493521338891
0.5377510137934682 0.2251765170583331 -0.10798493521338891
0.4275412165528379 0.5358845500425817 -0.10798493521338891
0.09168014090078112 0.38127060271851465 -0.10798493521338891
0.7122025384399259 0.3647563548677775 -0.10677475921530784
0.22096417368039703 0.3242154589320612 -0.10612312598557187
0.510298636729306 0.21839022242293998 -0.10612312598557187
0.4008242541336633 0.23835812639127793 -0.10612312598557187
0.46468431064778815 0.5552846021964354 -0.10612312598557187
0.3150507030081318 0.3749497603900759 -0.10612312598557187
0.21509947461277337 0.3195609358625186 -0.10612312598557187
0.4503669976858749 0.21018895277440586 -0.10612312598557187
0.5150183231218219 0.4626223569279807 -0.10612312598557187
0.21453162279828922 0.31199268135144226 -0.10612312598557187
0.4772329048432749 0.5558803811493368 -0.10612312598557187
0.5584077871760983 0.2882825408351921 -0.10612312598557187
0.4686406552568992 0.18955079748405387 -0.10612312598557187
0.5387656998226286 0.4383164374588291 -0.10491294998749079
0.6509024696140494 0.25205173326187225 -0.10491294998749079
0.5435784766765356 0.2410577497716126 -0.10426131675775482
0.501250243882115 0.46343224394208116 -0.10426131675775482
0.5363825840110228 0.22957969588212057 -0.10426131675775482
0.5122069911878182 0.4655360883695144 -0.10426131675775482
0.20946750169862674 0.3253232354226124 -0.10426131675775482
0.5166008609654665 0.195778549351102 -0.10426131675775482
0.47338826878783286 0.512993605586571 -0.10426131675775482
0.402108902500857 0.5328684190935179 -0.10426131675775482
0.6545236885621537 0.4451399682787786 -0.10426131675775482
0.5601671968963856 0.5156746108746276 -0.10426131675775482
0.21323766538495628 0.4406436989936004 -0.10426131675775482
-0.060224873996812006 0.3524963411026022 -0.10305114075967375
0.5282930229161577 0.46284577403531874 -0.10305114075967375
0.539473187329199 0.31923511924765063 -0.10239950752993777
0.5187698687158735 0.42222109668435065 -0.10239950752993777
0.5422472830786464 0.31613520688333513 -0.10239950752993777
0.5227075952327066 0.4254234085561961 -0.10239950752993777
0.3044383904095746 0.3203428957382018 -0.10239950752993777
0.5062119654742473 0.21494587535147852 -0.10239950752993777
0.5050576437530008 0.4696786139014073 -0.10239950752993777
0.5537067188758603 0.5053136425218258 -0.10239950752993777
0.583588756982324 0.24043404368029395 -0.10239950752993777
0.497098409304083 0.4555660999545541 -0.10239950752993777
0.08587129610999197 0.3649518448366982 -0.10239950752993777
0.6999425246747506 0.4529409489433321 -0.1011893315318567
0.4338899860196942 0.22189042377123608 -0.10053769830212074
0.5554754376422865 0.3542371327306111 -0.10053769830212074
0.34619877138951094 0.2946499283943264 -0.10053769830212074
0.46499150917037785 0.5527897778311606 -0.10053769830212074
0.2118226903718153 0.4436784480349422 -0.10053769830212074
0.4624594486205467 0.21101745788078458 -0.10053769830212074
0.5484936530379725 0.3564713038039916 -0.10053769830212074
0.424273741358019 0.5346743740445007 -0.10053769830212074
0.5579795710537004 0.23953106620480258 -0.10053769830212074
0.6555104474528967 0.44612672716952173 -0.10053769830212074
0.0697014829664008 0.377584220447437 -0.10053769830212074
0.6509024696140494 0.5019810040040332 -0.09932752230403963
0.34991308079900596 0.2968096270985942 -0.09867588907430366
0.4731834697727728 0.555144966504349 -0.09867588907430366
0.43293115426736833 0.21883705663761607 -0.09867588907430366
0.5270828469180766 0.536033494780807 -0.09867588907430366
0.45048801528568305 0.21208799818677931 -0.09867588907430366
0.5296800707908814 0.5312858812498735 -0.09867588907430366
0.4944732582928608 0.4487053329500482 -0.09867588907430366
0.5291215280225362 0.2114829101877388 -0.09867588907430366
0.5491732134061258 0.22212314992471324 -0.09867588907430366
0.4150484766341855 0.5328311829089617 -0.09867588907430366
0.5345952471523183 0.4137964099284785 -0.09746571307622258
0.6649684383302072 0.29118696323058674 -0.09746571307622258
0.44350623068136913 0.22096882820346658 -0.09681407984648661
0.3218276885973858 0.35903129149224 -0.09681407984648661
0.38949514498239657 0.5275064085174049 -0.09681407984648661
0.5044618648000994 0.46912938017920125 -0.09681407984648661
0.5105406719289219 0.298764526787802 -0.09681407984648661
0.6553801208069494 0.3010173159534607 -0.09681407984648661
0.48094721425276993 0.5681031587299555 -0.09681407984648661
0.46478671015531803 0.2042218541992523 -0.09681407984648661
0.5587056766525491 0.5272364461793715 -0.09681407984648661
0.6509024696140494 0.48015129080787816 -0.09560390384840554
0.06829581699939896 0.37195224753329037 -0.09495227061866957
0.5460453739033934 0.32785529597244345 -0.09495227061866957
0.47880613364078045 0.23619842768701016 -0.09495227061866957
0.3224607037348436 0.3480186899097022 -0.09495227061866957
0.45061834193163036 0.5334548890002805 -0.09495227061866957
0.3569227925417372 0.46710000812088076 -0.09495227061866957
0.5013991886203403 0.5569043762246363 -0.09495227061866957
0.46577346904606104 0.17969251762276262 -0.09495227061866957
0.5848734053495178 0.2553657536873867 -0.09495227061866957
-0.060224873996812006 0.4015363961633033 -0.0937420946205885
0.7244718612512401 0.37701636863295274 -0.0937420946205885
0.08779826866078255 0.3879172616618216 -0.09309046139085253
0.3947454470048406 0.5242947875994205 -0.09309046139085253
0.4675421878124872 0.4821992809584771 -0.09309046139085253
0.5234709370161115 0.43088781863983916 -0.09309046139085253
0.395452934511411 0.5205432420053692 -0.09309046139085253
0.3636718509925741 0.2850057565942341 -0.09309046139085253
0.48280902348058713 0.1836302441395957 -0.09309046139085253
0.689386066353028 0.42066648597912343 -0.09309046139085253
0.6018996507379049 0.4827205875422658 -0.09309046139085253
0.5203058613288225 0.46284577403531874 -0.09188028539277145
0.08330199937560434 0.3780869089389475 -0.09122865216303548
0.5404227100353857 0.3209666018295204 -0.09122865216303548
0.4772515229355532 0.23468105316633917 -0.09122865216303548
0.32106434681398077 0.35338070048581527 -0.09122865216303548
0.4298591690414701 0.5405670002505414 -0.09122865216303548
0.4563434053071676 0.5038241951395722 -0.09122865216303548
0.4822877168967983 0.18854542050103276 -0.09122865216303548
0.6628832119950522 0.45265236851302043 -0.09122865216303548
0.5681729765759989 0.5116903391270992 -0.09122865216303548
0.5254165276591803 0.2080851083469726 -0.09122865216303548
0.6461920922676723 0.48736580156566933 -0.09001847616495437
0.054192612098684805 0.37381405676110746 -0.0893668429352184
0.49405435121660213 0.47042333759253424 -0.0893668429352184
0.5164332981349631 0.3860275252955873 -0.0893668429352184
0.5322959127559643 0.306835469790389 -0.0893668429352184
0.39720303518555905 0.5167916964113177 -0.0893668429352184
0.37942275705990625 0.2666855537925143 -0.0893668429352184
0.5706398738028565 0.2324375730468196 -0.0893668429352184
0.6654245815910225 0.2981501297426225 -0.0893668429352184
0.5952529917945977 0.25825155799050314 -0.0893668429352184
0.7244718612512401 0.37701636863295274 -0.08815666693713733
0.05603580323422362 0.37893403213760435 -0.08750503370740136
0.5427313534778788 0.34122308622816994 -0.08750503370740136
0.491410582113102 0.2494452003429285 -0.08750503370740136
0.32930285264707126 0.3304339017529701 -0.08750503370740136
0.4155884013102525 0.5358752409964426 -0.08750503370740136
0.42964506098027117 0.507194069841921 -0.08750503370740136
0.43641273752338616 0.2301847838811611 -0.08750503370740136
0.478005555672819 0.1976031223943627 -0.08750503370740136
0.7028097108855887 0.4017505042245022 -0.08750503370740136
0.6129494885049989 0.4914431637745887 -0.08750503370740136
0.6631624833792248 0.4751057878004941 -0.08629485770932029
0.07504487545023572 0.38740526412417187 -0.08564322447958432
0.5198031728373118 0.4206944131175407 -0.08564322447958432
0.5448258888591732 0.3515840545809718 -0.08564322447958432
0.522102507233666 0.2826040226903501 -0.08564322447958432
0.428313867382382 0.5023254387111794 -0.08564322447958432
0.5108757975899291 0.38284383151602014 -0.08564322447958432
0.6777311405868932 0.4299289868875133 -0.08564322447958432
0.49007007946907366 0.5500901544508259 -0.08564322447958432
0.6341461865636961 0.3292795800317236 -0.08564322447958432
0.555400965273174 0.5342461579221025 -0.08564322447958432
0.5896024007881729 0.5510303681108735 -0.08443304848150325
0.08240833094625226 0.38834547778421946 -0.08378141525176727
0.3631970896394807 0.4804864164688853 -0.08378141525176727
0.44466055240261565 0.522479523602299 -0.08378141525176727
0.5002727940375111 0.4694365787017911 -0.08378141525176727
0.3815638376718959 0.27139593113889143 -0.08378141525176727
0.43131138023916743 0.5159631913049391 -0.08378141525176727
0.5886901142665427 0.5062631652280123 -0.08378141525176727
0.6371250813282033 0.2641907294272394 -0.08378141525176727
0.5985670122201123 0.506663454211993 -0.08378141525176727
0.5528130504465081 0.3647563548677775 -0.0825712392536862
0.544835197905312 0.1954713508285122 -0.0825712392536862
0.5070777067651824 0.2820920251527004 -0.08191960602395024
0.4950411101073451 0.2600109677107902 -0.08191960602395024
0.4637813331722968 0.2234822706610197 -0.08191960602395024
0.35092776682816634 0.4554730094931632 -0.08191960602395024
0.4159886902942331 0.5101822736525673 -0.08191960602395024
0.6094679052489811 0.2503667959106978 -0.08191960602395024
0.5798558294805507 0.5297219614985071 -0.08191960602395024
0.5677354514074618 0.23754823937717748 -0.08191960602395024
0.5268966659952948 0.5473253677475173 -0.08191960602395024
0.7129007169003572 0.3524963411026022 -0.08070943002586912
0.08392570546692313 0.37879439644551804 -0.08005779679613316
0.35915696361511773 0.4703674833156997 -0.08005779679613316
0.37082119842739153 0.4940776238319497 -0.08005779679613316
0.4303060032561462 0.5107408164209125 -0.08005779679613316
0.38677690350978366 0.5078643211639352 -0.08005779679613316
0.47151715051387677 0.2515490447703618 -0.08005779679613316
0.6089093624806359 0.25653869350091146 -0.08005779679613316
0.6878407646939398 0.323861715178776 -0.08005779679613316
0.635998686745374 0.46808676701162377 -0.08005779679613316
0.6876825109095752 0.4751057878004941 -0.07884762079805208
0.08274345660725921 0.3754152126970301 -0.07819598756831611
0.48760318224221594 0.4627899197584842 -0.07819598756831611
0.517634165086905 0.43632430158506486 -0.07819598756831611
0.528116151039515 0.38175467311774713 -0.07819598756831611
0.46143545354524723 0.4800395822542092 -0.07819598756831611
0.38692584824800896 0.26998095612575046 -0.07819598756831611
0.5172990394258978 0.5537951548141817 -0.07819598756831611
0.5237315903080058 0.5416282315103972 -0.07819598756831611
0.6507814520142413 0.2981315116503443 -0.07819598756831611
0.6382142397264763 0.2544069219350608 -0.07735817341579844
0.551491165894758 0.3690571341840348 -0.07735817341579844
0.4184090422903953 0.24674557696259372 -0.07633417834049906
0.3878846800003348 0.26003889484920745 -0.07633417834049906
0.3366569990969487 0.3156883726686591 -0.07633417834049906
0.3198076255852043 0.39931153413606185 -0.07633417834049906
0.420233615333656 0.24859807714427165 -0.07633417834049906
0.5754712687490415 0.22598640407243356 -0.07633417834049906
0.4968936102890232 0.1995394039912924 -0.07633417834049906
0.71592615689556 0.37212911940993293 -0.07633417834049906
0.6376929331426876 0.2864952039764877 -0.07633417834049906
0.6999425246747506 0.29118696323058674 -0.07586872603354479
0.5326962017399448 0.4137964099284785 -0.07586872603354479
0.3279623500030429 0.3836164823455642 -0.07447236911268203
0.3279902771414602 0.3993673884128964 -0.07447236911268203
0.370113710920821 0.48862252279444585 -0.07447236911268203
0.46863134621076036 0.49662830247405904 -0.07447236911268203
0.3759877190345838 0.2895020258794123 -0.07447236911268203
0.3488611585852894 0.3160234983296661 -0.07447236911268203
0.530843701558267 0.5495502297747588 -0.07447236911268203
0.49572997952163755 0.5699277317732165 -0.07447236911268203
0.6332432090882048 0.2927881191665094 -0.07447236911268203
0.662957684364165 0.30398690167182896 -0.07447236911268203
0.6734303612706359 0.4655267793233753 -0.07400691680572775
0.07351819188342572 0.38594374388033553 -0.07261055988486498
0.5180251450247465 0.4175386464763908 -0.07261055988486498
0.5261333242118899 0.3798463186592347 -0.07261055988486498
0.5355540789046441 0.30921858560199483 -0.07261055988486498
0.4677749139659644 0.45878702991867765 -0.07261055988486498
0.43913097899599907 0.2388887420212058 -0.07261055988486498
0.4957672157061938 0.5644726307357125 -0.07261055988486498
0.5588360032984965 0.5429687341544255 -0.07261055988486498
0.4812544127753599 0.5733348426601216 -0.07261055988486498
0.6559386635752945 0.4586753213650086 -0.07261055988486498
0.6974942455401711 0.30345628604190106 -0.0721451075779107
-0.023435523655147106 0.3524963411026022 -0.0721451075779107
0.4562410057996377 0.23925179482063003 -0.0707487506570479
0.4326798100216129 0.2373620584543958 -0.0707487506570479
0.33926353201589254 0.3150646665773404 -0.0707487506570479
0.33568885829848377 0.44392979228069757 -0.0707487506570479
0.388675948922157 0.49429173189314884 -0.0707487506570479
0.6456800947300225 0.2802022887864661 -0.0707487506570479
0.5369876720100633 0.21168770920279859 -0.0707487506570479
0.5199893537600937 0.19129158911206293 -0.0707487506570479
0.49902538185487355 0.19609505691983084 -0.0707487506570479
0.6688316924779278 0.4336526053431474 -0.0707487506570479
-0.10926492905751313 0.4015363961633033 -0.06953857465896683
0.6974942455401711 0.3213948179519184 -0.06953857465896683
0.0634737310993528 0.39262763900819875 -0.06888694142923085
0.332002476027406 0.3568622837418331 -0.06888694142923085
0.3333336696252952 0.4187395134283328 -0.06888694142923085
0.40761054876905645 0.5087766076855653 -0.06888694142923085
0.4648891096628479 0.25630596734743427 -0.06888694142923085
0.6446840267931404 0.285322264162963 -0.06888694142923085
0.5436436399995093 0.5350560449362031 -0.06888694142923085
0.5808891336019893 0.2426961418920916 -0.06888694142923085
0.6862023725734607 0.40195530323956213 -0.06888694142923085
0.6725832380719791 0.33337556033292104 -0.06888694142923085
0.6876825109095752 0.4751057878004941 -0.06767676543114978
0.06793276419997463 0.3878427892927089 -0.06702513220141382
0.4974893892419246 0.4453075311092821 -0.06702513220141382
0.519486665268583 0.4209271392710179 -0.06702513220141382
0.5463898086105393 0.3626711285326224 -0.06702513220141382
0.506919452980818 0.4369293895841055 -0.06702513220141382
0.40184824920896267 0.49301639257209406 -0.06702513220141382
0.6826742440867475 0.43789753038257034 -0.06702513220141382
0.6857183021742284 0.43649186441556836 -0.06702513220141382
0.5501320451584517 0.5519240365402255 -0.06702513220141382
0.681519922365501 0.40465492661989677 -0.06702513220141382
0.5705281652491875 0.5486658703915457 -0.06581495620333273
0.07507280258865298 0.37569448408120265 -0.06516332297359677
0.4174129743535132 0.4930722468489286 -0.06516332297359677
0.47401197487915137 0.4841355625554068 -0.06516332297359677
0.5164612252733801 0.44487931498688427 -0.06516332297359677
0.4160910898017631 0.26082085472489064 -0.06516332297359677
0.4937843888785687 0.18781000585604496 -0.06516332297359677
0.5878336820217468 0.5169406411495432 -0.06516332297359677
0.5223817786178386 0.5582728060070817 -0.06516332297359677
0.4864767876593868 0.5508814233726479 -0.06516332297359677
0.6873660033408464 0.39548551617289784 -0.06516332297359677
0.7367318750164155 0.3524963411026022 -0.0639531469755157
0.06848199792218063 0.3856551634500238 -0.06330151374577972
0.5304620306665646 0.372780752639669 -0.06330151374577972
0.540003802959127 0.34996428055277096 -0.06330151374577972
0.5393521697293908 0.3149436489775322 -0.06330151374577972
0.41779464524521565 0.48837117854869055 -0.06330151374577972
0.47167540429824123 0.26523334259481707 -0.06330151374577972
0.5327148198322231 0.5399339851130838 -0.06330151374577972
0.6712241173356724 0.43130672571609785 -0.06330151374577972
0.6122326919522894 0.2477881901301712 -0.06330151374577972
0.6835772215622385 0.42704318258439683 -0.06330151374577972
0.6814640680886664 0.29118696323058674 -0.06209133774769862
0.0472852998634835 0.36891749849194855 -0.06143970451796265
0.537183161978984 0.35207743402634334 -0.06143970451796265
0.5350327723208553 0.34422059908495545 -0.06143970451796265
0.5114529584505525 0.2941658579950939 -0.06143970451796265
0.3872795920012943 0.28131937432315635 -0.06143970451796265
0.3791341766295947 0.4748265164163215 -0.06143970451796265
0.5099821291605768 0.20633500767282467 -0.06143970451796265
0.6905403880742745 0.32078042090673875 -0.06143970451796265
0.6097099404485974 0.5020834035115631 -0.06143970451796265
-0.060224873996812006 0.3647563548677775 -0.06022952851988157
0.6018624145533483 0.5486658703915457 -0.06022952851988157
0.03550004745140166 0.36442122920677045 -0.0595778952901456
0.41053358925672917 0.48610908033689276 -0.0595778952901456
0.45510530217066947 0.48549468329171325 -0.0595778952901456
0.5156513382592799 0.4397965757949437 -0.0595778952901456
0.3845892776670986 0.4723130739587684 -0.0595778952901456
0.3427637333641885 0.3511930746431302 -0.0595778952901456
0.517969290747912 0.2039798189996361 -0.0595778952901456
0.686444407773077 0.4160212719557199 -0.0595778952901456
0.6554266660376451 0.467463060920305 -0.0595778952901456
0.5582495333917339 0.5253932550438325 -0.0595778952901456
0.68305591497845 0.3009149164459308 -0.05836771929206453
0.678243138124543 0.44217038256041036 -0.05836771929206453
0.3467014598810216 0.33070386409100366 -0.05771608606232856
0.3403713085064437 0.41474593263466525 -0.05771608606232856
0.37902246807592566 0.48061674311483255 -0.05771608606232856
0.47362099494131005 0.47370012183349214 -0.05771608606232856
0.443608630188899 0.4858670451372766 -0.05771608606232856
0.414555097188814 0.2667693352077661 -0.05771608606232856
0.5425824087396535 0.2177106620547868 -0.05771608606232856
0.6762975474814741 0.33195127627364107 -0.05771608606232856
0.5925161322297068 0.5147064700761627 -0.05771608606232856
-0.060224873996812006 0.37849650696906734 -0.05650591006424749
0.6980807154469336 0.31044737969235414 -0.05650591006424749
0.5242063516610993 0.5731858979218963 -0.05650591006424749
0.03194399182627104 0.36484013628302914 -0.05585427683451152
0.40542292292637144 0.4803560898229381 -0.05585427683451152
0.4484214070428061 0.4871703115967485 -0.05585427683451152
0.5003286483143456 0.45212175288309253 -0.05585427683451152
0.4150484766341855 0.26794227502129087 -0.05585427683451152
0.6335410985646553 0.26430243798090847 -0.05585427683451152
0.5034099425863827 0.1974541776561373 -0.05585427683451152
0.6906520966279436 0.32141343604419653 -0.05585427683451152
0.5126817525409118 0.5693412618664541 -0.05585427683451152
0.6018624145533483 0.21526238292020733 -0.05464410083643044
0.6734303612706359 0.4288491375353794 -0.05464410083643044
0.04721082749437086 0.38685603040196587 -0.053992467606694475
0.5266732488879567 0.3306852459987254 -0.053992467606694475
0.5068915258424006 0.29614868482271917 -0.053992467606694475
0.47329517832644186 0.26290608106004576 -0.053992467606694475
0.33862120783229566 0.38802897021549065 -0.053992467606694475
0.412479179899798 0.27155418492325595 -0.053992467606694475
0.5219721805877188 0.19060271969777048 -0.053992467606694475
0.7036475250381065 0.3757968835887326 -0.053992467606694475
0.6514144671516992 0.4660294678148859 -0.053992467606694475
-0.07248488776198736 0.37701636863295274 -0.05278229160861336
0.6754224971444002 0.48736580156566933 -0.05278229160861336
0.038823376923055083 0.3902538322427319 -0.0521306583788774
0.5118160112499767 0.4031189340069478 -0.0521306583788774
0.5145063255841724 0.3900024879969766 -0.0521306583788774
0.5430385520004687 0.352366014456655 -0.0521306583788774
0.3642397028070582 0.4524475694979605 -0.0521306583788774
0.45669714906045294 0.26749544080661475 -0.0521306583788774
0.6639909884856033 0.27728855734493246 -0.0521306583788774
0.7211206046411696 0.3670277621257143 -0.0521306583788774
0.6092817243261992 0.5199474630524679 -0.0521306583788774
-0.023435523655147106 0.4015363961633033 -0.05092048238079632
0.5437088033224828 0.5622384596623319 -0.05092048238079632
0.02429195589994294 0.3835233918841733 -0.05026884915106035
0.43485812681815894 0.49080083959099174 -0.05026884915106035
0.4663413208605453 0.48015129080787816 -0.05026884915106035
0.5206223688975513 0.41521138494161947 -0.05026884915106035
0.38322084788465305 0.4659084502150779 -0.05026884915106035
0.5533157389380187 0.21113847548059259 -0.05026884915106035
0.5171221675492552 0.20108470565038053 -0.05026884915106035
0.680877598181904 0.33574936709838776 -0.05026884915106035
0.5648868832889016 0.5218651265571193 -0.05026884915106035
0.630217769093002 0.2421469081698856 -0.04905867315297928
0.525369982428485 0.4015363961633033 -0.04905867315297928
0.33858397164773923 0.37925984875247226 -0.04840703992324331
0.3344600642081245 0.389490490459327 -0.04840703992324331
0.36096291856610013 0.4544117782333075 -0.04840703992324331
0.4493616207028537 0.48541090187646146 -0.04840703992324331
0.37795192776993075 0.46105843717661443 -0.04840703992324331
0.5278741158398986 0.1909285363126386 -0.04840703992324331
0.7107037820115332 0.38319757526930537 -0.04840703992324331
0.5723527382924481 0.5274970994712658 -0.04840703992324331
0.5482795449767736 0.19107748105086386 -0.04794158761628904
0.6745102106227696 0.47158696835991987 -0.04719686392516224
0.049621870444393944 0.39044932221165274 -0.046545230695426265
0.5111271418356845 0.3935864707605245 -0.046545230695426265
0.5148786874297357 0.39447083014373757 -0.046545230695426265
0.5387284636380724 0.37450292617539976 -0.046545230695426265
0.34228897201109515 0.379781155336261 -0.046545230695426265
0.5428337529854087 0.20523654022841253 -0.046545230695426265
0.5311229729424396 0.20206215549498452 -0.046545230695426265
0.6948597854828101 0.32249328539633043 -0.046545230695426265
0.6281883970346814 0.4794531123474469 -0.046545230695426265
0.5579050986845877 0.1931068531091845 -0.04533505469734519
0.5528130504465081 0.5638768517828111 -0.04533505469734519
0.025101842914043385 0.36309934465502025 -0.044683421467609216
0.4419795471145593 0.47736788601229174 -0.044683421467609216
0.46382787840299217 0.4728343805425573 -0.044683421467609216
0.5155489387517499 0.4398151938872218 -0.044683421467609216
0.5192353210228275 0.379548429182784 -0.044683421467609216
0.5197007733297819 0.3164144782675077 -0.044683421467609216
0.6605373323680026 0.27605976325457315 -0.044683421467609216
0.7077807415238605 0.3715612675954488 -0.044683421467609216
0.5570952116704874 0.5307087203892502 -0.044683421467609216
0.5579050986845877 0.1931068531091845 -0.04421796916065495
0.7489918887815908 0.3647563548677775 -0.04347324546952811
0.029030260384737334 0.36862891806163695 -0.04282161223979214
0.5225214143099247 0.33826280955594085 -0.04282161223979214
0.5324448574941897 0.362522183794397 -0.04282161223979214
0.530182759282392 0.33866309853992144 -0.04282161223979214
0.4992115627776554 0.3066399798214682 -0.04282161223979214
0.4875380189192423 0.28037916066310875 -0.04282161223979214
0.5873496116225144 0.2341504375364114 -0.04282161223979214
0.7215674388558456 0.3793715573061413 -0.04282161223979214
0.5120394283573148 0.5675632340538888 -0.04282161223979214
-0.10926492905751313 0.39075652073424255 -0.04161143624171107
0.6509024696140494 0.5019810040040332 -0.04161143624171107
0.05642678317206522 0.37102134291938177 -0.0409598030119751
0.4976569520724281 0.44101606083916384 -0.0409598030119751
0.46905025328701905 0.45468174057134103 -0.0409598030119751
0.4706979544536371 0.4686918550106643 -0.0409598030119751
0.525816816643161 0.3729017702394771 -0.0409598030119751
0.5208830221894458 0.3296053966465915 -0.0409598030119751
0.5833467217827077 0.2408622598026918 -0.0409598030119751
0.6835399853776823 0.33669888980457446 -0.0409598030119751
0.6361010862529038 0.4724434006047157 -0.0409598030119751
0.6765954369579247 0.27892694946541136 -0.03974962701389403
0.6786154999701063 0.340236327337427 -0.03974962701389403
0.3952108993117948 0.28387936201140485 -0.039097993784158055
0.43315457137470637 0.26696482517668685 -0.039097993784158055
0.4108500968254581 0.2703440089251748 -0.039097993784158055
0.3955460249728019 0.4649682365550301 -0.039097993784158055
0.5194587381301656 0.3449746318222214 -0.039097993784158055
0.6538720553324178 0.28087254010848023 -0.039097993784158055
0.7131892973306689 0.37252940839391363 -0.039097993784158055
0.5640863053209404 0.5441509830140895 -0.039097993784158055
-0.023435523655147106 0.3524963411026022 -0.03788781778607698
0.7367318750164155 0.4137964099284785 -0.03788781778607698
0.056882926432880454 0.3680517572010137 -0.037236184556341013
0.4679704039348853 0.44931042094908885 -0.037236184556341013
0.46638786609124067 0.4696786139014073 -0.037236184556341013
0.4689013085487938 0.4778426473653851 -0.037236184556341013
0.4993977437004369 0.30766397489676756 -0.037236184556341013
0.38307190314642764 0.46367427914169734 -0.037236184556341013
0.6636279356861792 0.27433758971884237 -0.037236184556341013
0.6298454072474386 0.4954646717066734 -0.037236184556341013
0.5804981536641478 0.5486658703915457 -0.03677073224938674
0.503772995385807 0.4579678338584381 -0.03602600855825994
0.5806564074485122 0.20241589924826972 -0.03602600855825994
0.4872028932582352 0.28118904767720915 -0.035374375328523965
0.5220931981875269 0.34324314924035143 -0.035374375328523965
0.5323890032173552 0.38222012542470135 -0.035374375328523965
0.3856039636962589 0.45878702991867765 -0.035374375328523965
0.5087998803009132 0.3139010358099547 -0.035374375328523965
0.565464044149525 0.2268335272710904 -0.035374375328523965
0.726091635279441 0.381736055025469 -0.035374375328523965
0.514012946138801 0.5513748028180194 -0.035374375328523965
0.6631624833792248 0.31807148848026495 -0.03416419933044286
0.6612355108284342 0.26829601877457604 -0.03416419933044286
0.3455285200674968 0.3936516340834981 -0.03351256610070689
0.3525754679947844 0.3275760245882709 -0.03351256610070689
0.4049295434809998 0.2763111075003285 -0.03351256610070689
0.3886852579682961 0.46236170363608636 -0.03351256610070689
0.49063793128355765 0.3074777939739859 -0.03351256610070689
0.6415096420597125 0.27472856965668396 -0.03351256610070689
0.7184582174453912 0.3711516695653291 -0.03351256610070689
0.577677512684005 0.5248533303677656 -0.03351256610070689
0.5305737392202335 0.5495316116824808 -0.03351256610070689
0.6696508885381672 0.29118696323058674 -0.03230239010262582
0.5268966659952948 0.4074755676000397 -0.03230239010262582
0.043887498022717436 0.3711609786114681 -0.031650756872889846
0.38416106154470064 0.29071220187749336 -0.031650756872889846
0.43930785087264174 0.2678398755137609 -0.031650756872889846
0.38173140050239945 0.45025994365527544 -0.031650756872889846
0.5246345677834972 0.3720174108562639 -0.031650756872889846
0.5851154405491339 0.2249158637664388 -0.031650756872889846
0.7192867225517697 0.3803676252430234 -0.031650756872889846
0.5859718727939298 0.5213624380656087 -0.031650756872889846
0.6974942455401711 0.30345628604190106 -0.031185304565935577
0.6040221132576161 0.5364058566263705 -0.030440580874808772
0.67247152951831 0.30345628604190106 -0.030440580874808772
0.010123587676255265 0.3865395228332369 -0.0297889476450728
0.36242443880993663 0.43392256768118087 -0.0297889476450728
0.34371325607037523 0.36320174416255024 -0.0297889476450728
0.34323849471728185 0.3402270182912878 -0.0297889476450728
0.4954879443220212 0.4361381206622832 -0.0297889476450728
0.44465124335647654 0.27906658515749766 -0.0297889476450728
0.6949249488057837 0.3299032861230422 -0.0297889476450728
0.583151231813787 0.5219675260646491 -0.0297889476450728
0.6734303612706359 0.4649961636934474 -0.02932349533811853
0.5380023580392236 0.38587858055736185 -0.028578771646991727
0.6876825109095752 0.2938586594725041 -0.028578771646991727
0.678243138124543 0.4505857602701435 -0.028578771646991727
0.36031128533636425 0.3240013508708623 -0.02792713841725576
0.4835444381255747 0.27866629617351707 -0.02792713841725576
0.5201382984983189 0.3252487630534996 -0.02792713841725576
0.4916805444511354 0.4370504071839135 -0.02792713841725576
0.5083158099016806 0.3365778722047664 -0.02792713841725576
0.660779367567619 0.2807142863241158 -0.02792713841725576
0.7261381805101363 0.3865953771100714 -0.02792713841725576
0.5386260641305421 0.5372529798250272 -0.02792713841725576
0.6999425246747506 0.46284577403531874 -0.02746168611030149
0.503772995385807 0.4517680091298073 -0.026716962419174685
0.6974942455401711 0.29118696323058674 -0.026716962419174685
0.036133062588859434 0.36319243511641114 -0.026065329189438713
0.3879870795078647 0.4610491281304753 -0.026065329189438713
0.3788362871531439 0.4524475694979605 -0.026065329189438713
0.4721129294667782 0.4740445565406383 -0.026065329189438713
0.49040520513008073 0.3217392526590645 -0.026065329189438713
0.35076951304380183 0.38498491212800967 -0.026065329189438713
0.619177240372047 0.24325468466043673 -0.026065329189438713
0.723131358607212 0.3851431659123742 -0.026065329189438713
0.5770258794542689 0.521278656650357 -0.026065329189438713
0.678243138124543 0.473793212294883 -0.025599876882484444
0.6686175844167286 0.4260564236936539 -0.024855153191357608
0.7309881935486 0.3905796488575999 -0.024855153191357608
0.04281695771672268 0.38990008848944674 -0.024203519961621636
0.521785999664937 0.3758061926348717 -0.024203519961621636
0.5020228947116591 0.42903531845816106 -0.024203519961621636
0.4763113092755056 0.448025772581895 -0.024203519961621636
0.4281369955057393 0.2884501036656957 -0.024203519961621636
0.6073175155908525 0.23674766140921616 -0.024203519961621636
0.6996353261521608 0.4103892990415733 -0.024203519961621636
0.6307297666306517 0.4894882640853807 -0.024203519961621636
0.624315833840822 0.5200684806522757 -0.0237380676546674
0.33799750174097687 0.34340140302471583 -0.022993343963540563
0.7072966711246278 0.3157162998070764 -0.022993343963540563
0.03828345224698808 0.3914174630101176 -0.022341710733804594
0.511843938388394 0.3844915326826382 -0.022341710733804594
0.4742074648480723 0.4680588398732065 -0.022341710733804594
0.3977615779539042 0.4716986769135889 -0.022341710733804594
0.44168165763810846 0.28271573124401916 -0.022341710733804594
0.6136569760115693 0.25083224821765204 -0.022341710733804594
0.7181975641534969 0.3867257037560187 -0.022341710733804594
0.5885504785744563 0.5315186074033508 -0.022341710733804594
0.6301060605393329 0.5168382416420133 -0.021876258426850325
0.5528130504465081 0.4383164374588291 -0.02113153473572352
0.7244718612512401 0.3279763135722516 -0.02113153473572352
0.015681088221289108 0.3628293823169868 -0.02047990150598755
0.4951528186610141 0.4345276556802214 -0.02047990150598755
0.44547043941671627 0.47235961918946395 -0.02047990150598755
0.42257949496070546 0.47756337598121257 -0.02047990150598755
0.4923787229115667 0.33164407775105126 -0.02047990150598755
0.6163379812996259 0.50089184560576 -0.02047990150598755
0.6270247662672958 0.2611932165704541 -0.02047990150598755
0.5634253630450654 0.20395189186121887 -0.02047990150598755
0.6184604438193375 0.2507763939408176 -0.02047990150598755
0.3811635486879152 0.4751057878004941 -0.019269725507906475
0.6882596717701986 0.46284577403531874 -0.019269725507906475
0.009928097707334467 0.36388130453070344 -0.018618092278170507
0.5191236124691585 0.37615062734201776 -0.018618092278170507
0.4721129294667782 0.44426491794170464 -0.018618092278170507
0.43229813912991044 0.47702345130514556 -0.018618092278170507
0.516535697642493 0.3648494453291683 -0.018618092278170507
0.694217461299213 0.3344833368234722 -0.018618092278170507
0.6121116743524811 0.25509579134935323 -0.018618092278170507
0.6872449857410382 0.4548586124479836 -0.018618092278170507
0.6493571679549613 0.2560266959632617 -0.018152639971216238
0.5384305741616214 0.3647563548677775 -0.017407916280089433
0.660807294706036 0.48736580156566933 -0.017407916280089433
0.38312775742326216 0.30196683865964746 -0.01675628305035346
0.5249138391676698 0.37409332814528 -0.01675628305035346
0.4770746510589105 0.4695948324861555 -0.01675628305035346
0.4512792842075054 0.2832277287816688 -0.01675628305035346
0.6253212108238433 0.24657801413209016 -0.01675628305035346
0.7068870730945083 0.338393136201888 -0.01675628305035346
0.5869865588230903 0.5236338453235455 -0.01675628305035346
0.6509024696140494 0.5035356147092604 -0.016290830743399192
0.44185852951475113 0.48736580156566933 -0.015546107052272355
0.7265012333095608 0.3524963411026022 -0.015546107052272355
6.935239373618556E-4 0.36507286243650633 -0.014894473822536385
0.36986236667506567 0.30976781932420083 -0.014894473822536385
0.5269525202721294 0.3697366945521881 -0.014894473822536385
0.3611863356734382 0.3931303274997093 -0.014894473822536385
0.6809427615048776 0.45119084826918404 -0.014894473822536385
0.585646056179062 0.5174805658256101 -0.014894473822536385
0.614252754964471 0.24514442102667108 -0.014894473822536385
0.6631624833792248 0.2575533795300717 -0.014429021515582148
0.5272131735640236 0.38927638239812795 -0.013684297824455311
0.6999425246747506 0.4505857602701435 -0.013684297824455311
0.041364746519025324 0.3644491563451877 -0.01303266459471934
0.4067261893858434 0.2879194880357678 -0.01303266459471934
0.5264963770113141 0.37395369245319376 -0.01303266459471934
0.47113547962217406 0.2884221765272784 -0.01303266459471934
0.6258425174076319 0.24775095394561494 -0.01303266459471934
0.6296033720478226 0.5079760297176041 -0.01303266459471934
0.6356077068075324 0.48907866605526096 -0.01303266459471934
0.3386770621091301 0.3647563548677775 -0.011822488596638267
0.4960371780442272 0.30834353526492086 -0.011822488596638267
0.6631624833792248 0.49139661854389327 -0.011822488596638267
0.36086051905857025 0.33511635196093 -0.011170855366902297
0.5213577835425391 0.3702300739975596 -0.011170855366902297
0.4784896260720516 0.4669882995672118 -0.011170855366902297
0.6169709964370839 0.2419048729702694 -0.011170855366902297
0.7134871868071198 0.40590233880253423 -0.011170855366902297
0.6427570542423499 0.28567600791624825 -0.011170855366902297
0.6734303612706359 0.47749821265823894 -0.010705403059948028
0.5528130504465081 0.37849650696906734 -0.009960679368821224
0.692681468686264 0.4538811626033797 -0.009960679368821224
0.017859405017835006 0.3680610662471527 -0.009309046139085253
0.4789271512405886 0.30843662572631164 -0.009309046139085253
0.5111643780202407 0.4153603296798449 -0.009309046139085253
0.49180156205094333 0.42181149865423095 -0.009309046139085253
0.679890839291161 0.321357581767362 -0.009309046139085253
0.6355332344384199 0.48946033694696345 -0.009309046139085253
-0.060224873996812006 0.37701636863295274 -0.00809887014100418
0.6999425246747506 0.29118696323058674 -0.00809887014100418
0.024254719715386553 0.3620753495797209 -0.007447236911268209
0.4632600265885082 0.44744861172127176 -0.007447236911268209
0.3596410340143501 0.32597486865234826 -0.007447236911268209
0.38244819705510896 0.43416460288079706 -0.007447236911268209
0.6719967681652166 0.30502951483940643 -0.007447236911268209
0.7107224001038114 0.37764007472427136 -0.007447236911268209
-0.060224873996812006 0.3632762165316629 -0.006237060913187102
0.6943198608067432 0.30345628604190106 -0.006237060913187102
-0.008969265955008606 0.37871061503026626 -0.005585427683451132
0.371212178365233 0.4240084335430551 -0.005585427683451132
0.4702976654696566 0.2832742740123643 -0.005585427683451132
0.6938078632690935 0.32496949166932715 -0.005585427683451132
0.6920577625949452 0.3369129978657734 -0.005585427683451132
0.6472905597120843 0.48322327603377646 -0.005585427683451132
0.5069287620269568 0.42704318258439683 -0.004375251685370059
-0.002946313103020528 0.3787664693071008 -0.003723618455634088
0.4723456556202554 0.31177857329024333 -0.003723618455634088
0.4690316351947408 0.44038304570170606 -0.003723618455634088
0.35853325752379894 0.41304237719121273 -0.003723618455634088
0.6681614411559136 0.46813331224231913 -0.003723618455634088
0.6193354941564114 0.5164379526580326 -0.003723618455634088
-0.08474490152716257 0.3524963411026022 -0.0025134424575530144
0.6999425246747506 0.30049600936967197 -0.0025134424575530144
0.02350999602425975 0.39681670977078703 -0.001861809227817044
0.4067448074781215 0.45109775780779315 -0.001861809227817044
0.4000795304425365 0.2905446390469898 -0.001861809227817044
0.49085203934475685 0.4242597777888104 -0.001861809227817044
0.7067288193101439 0.4176875912146162 -0.001861809227817044
0.6696508885381672 0.29219234021360796 -0.001861809227817044
0.3566435211575646 0.32217677782760146 -6.516332297359704E-4
0.02909542370771098 0.37234322747113197 0.0
0.4326798100216129 0.2881149780046886 0.0
0.5143853079843643 0.3909240835647461 0.0
0.4401735921635766 0.47089809894562745 0.0
0.6871705133719257 0.4401782466866461 0.0
0.6839216562693848 0.4408857341932167 0.0
-0.07248488776198736 0.38927638239812795 0.0012101759980810735
0.5154186121058026 0.3416047571198724 0.0012101759980810735
-0.00849450460191524 0.38788933452340435 0.001861809227817044
0.3981897940763022 0.44773719215158336 0.001861809227817044
0.4284535030744684 0.2821385703833959 0.001861809227817044
0.6453449690690155 0.4772468684124836 0.001861809227817044
0.641556187290408 0.47617632810648886 0.001861809227817044
0.5323145308482423 0.3821270349633106 0.0023272615347713133
0.3934235624530905 0.48736580156566933 0.0030719852258981506
0.7244718612512401 0.4290073913197438 0.0030719852258981506
0.47461706287819216 0.32251190348860853 0.003723618455634121
0.4960092509058101 0.426726675015668 0.003723618455634121
0.42539082689470925 0.46663455581392643 0.003723618455634121
0.6730766175173506 0.46094672862294545 0.003723618455634121
0.6782617562168209 0.44861224248865744 0.003723618455634121
0.7244718612512401 0.40792240181471573 0.0041890707625883575
0.540553036681333 0.36239185714844985 0.004933794453715195
0.027038124510973104 0.3654824604666261 0.005585427683451165
0.42764361606036777 0.4589173565646248 0.005585427683451165
0.3688942258766008 0.3182855965414639 0.005585427683451165
0.4115762024243068 0.2997792128169624 0.005585427683451165
0.6539744548399476 0.46438176664826786 0.005585427683451165
0.7311929925636598 0.4015363961633033 0.006050879990405434
0.538290938469535 0.37701636863295274 0.0067956036815322385
-0.013791351855054774 0.39317687273040475 0.007447236911268209
0.3699554571364566 0.3248019288388236 0.007447236911268209
0.49739629878053354 0.3303035751070229 0.007447236911268209
0.7048111558054921 0.3475160014181916 0.007447236911268209
0.7287354043829414 0.38991870658172484 0.007447236911268209
-0.023435523655147106 0.36266181948648324 0.008657412909349283
0.7489918887815908 0.3647563548677775 0.008657412909349283
0.3684473916619247 0.3349394800842874 0.009309046139085253
0.5076734857180838 0.348102471324954 0.009309046139085253
0.49941636179271515 0.4277692881832455 0.009309046139085253
0.6789692437233916 0.45233586094429146 0.009309046139085253
0.6811661786122156 0.4433712495123524 0.009309046139085253
0.3443835073923894 0.37701636863295274 0.010519222137166327
0.02280250851768933 0.3816802007486345 0.011170855366902297
0.5123559359260438 0.4096631934427248 0.011170855366902297
0.37802640013904343 0.42951938885739355 0.011170855366902297
0.463027300435031 0.297991875958258 0.011170855366902297
0.719873192458532 0.406414336340184 0.011170855366902297
0.6867050610649713 0.31455266903969076 0.011170855366902297
0.4839819632941119 0.30842731668017265 0.012381031364983404
0.46468431064778815 0.296018358176772 0.013032664594719374
0.48687707664336727 0.43012447685643407 0.013032664594719374
0.36327156200859334 0.4098773015039237 0.013032664594719374
0.678810989939027 0.3164796415904813 0.013032664594719374
0.7006034669506256 0.4190746390893399 0.013032664594719374
0.540553036681333 0.3524963411026022 0.014242840592800447
0.3995396057664695 0.30502020579326744 0.014894473822536418
0.5181647807168329 0.4103706809492952 0.014894473822536418
0.3568762473110418 0.3975986696464702 0.014894473822536418
0.7145018728362799 0.3836257913917032 0.014894473822536418
0.3655615873588083 0.3157162998070764 0.016104649820617493
-0.024226792576969428 0.3834023742843653 0.01675628305035346
0.42486952031092035 0.2916244883991237 0.01675628305035346
0.5219535624954404 0.4114505303014291 0.01675628305035346
0.7210088960875005 0.37545244888158635 0.01675628305035346
0.35915696361511773 0.4137964099284785 0.017966459048434535
0.022122948149536036 0.3750428508514666 0.018618092278170507
0.36463999179103895 0.39379126977558443 0.018618092278170507
0.4741050653405424 0.313603146333504 0.018618092278170507
0.7019812057792102 0.3404504353986259 0.018618092278170507
0.4669929540902812 0.46912007113306226 0.01982826827625158
0.019283689077115106 0.3943870487284858 0.02047990150598755
0.3948478465123705 0.30537394954655267 0.02047990150598755
0.5240946431074303 0.4036774767752929 0.02047990150598755
0.7038802511915836 0.34996428055277096 0.02047990150598755
0.5087998803009132 0.46284577403531874 0.021690077504068657
0.007721853772371179 0.39820375764551075 0.022341710733804625
0.3949130098353441 0.30587663803806325 0.022341710733804625
0.4802397267461995 0.44759755645949706 0.022341710733804625
0.7232989214377156 0.4028396626227752 0.022341710733804625
0.5330313274009519 0.39596027752599117 0.0235518867318857
-0.018929945323829894 0.35767217075593355 0.02420351996162167
0.4703907559310474 0.30594180136103677 0.02420351996162167
0.45583140776951814 0.4640280228949825 0.02420351996162167
0.5372576343480967 0.38685603040196587 0.02466897226857594
0.5490335777140397 0.37162643091842246 0.025413695959702744
0.40029363850373545 0.3081759724344173 0.026065329189438713
0.4744308819554104 0.44516789541719587 0.026065329189438713
0.3714076683341538 0.34842828793982195 0.026065329189438713
0.36760957750940704 0.4260564236936539 0.02783404795586489
0.01232983161121842 0.3918642972247937 0.02792713841725579
0.47066071826908085 0.4365477186924029 0.02792713841725579
0.44084384348559075 0.2890365735724581 0.02792713841725579
