0.6946121622375461 0.3597067063053652 -0.22853564877607827
0.11867201468248367 0.4763710007195434 -0.22853564877607827
0.3130665771313488 0.35335876722175247 -0.2273447950875246
0.16003695726918785 0.39433988093363354 -0.2273447950875246
0.4563528486326159 0.5121950290363655 -0.2273447950875246
0.5673286022865954 0.4617166111141181 -0.2273447950875246
0.5046857615622623 0.2917001030995299 -0.2273447950875246
0.13533412455621435 0.4591085431185253 -0.2273447950875246
0.29348146274935 0.45092019378896586 -0.2273447950875246
0.20010278674110613 0.3082637953130496 -0.2273447950875246
0.43204368656048664 0.29993766125919474 -0.2273447950875246
0.589216689917533 0.3706409083548128 -0.2273447950875246
0.5909193154391842 0.26896562359077736 -0.22583900488629552
0.3964755441602134 0.5411790299685195 -0.22583900488629552
0.11694970562879034 0.4504379472539318 -0.22583900488629552
0.13237175298386175 0.40195740783396877 -0.22537644188330358
0.4361477029912874 0.2808052681141667 -0.22537644188330358
0.4249084061951856 0.2760024862958675 -0.22537644188330358
0.15437794180705247 0.2978315233306783 -0.22537644188330358
0.13527507396008773 0.377412043377333 -0.22537644188330358
0.2526873425918698 0.4991842143564647 -0.22537644188330358
0.26575720786789725 0.3464498474749368 -0.22537644188330358
0.42769362597915833 0.5139173380900588 -0.22537644188330358
0.47088913704578794 0.46315350895319946 -0.22537644188330358
0.5852898252751121 0.42706375295380755 -0.22537644188330358
0.31446410790634566 0.35780724546329185 -0.22340808867908257
0.49046440966176574 0.2919067801859731 -0.22340808867908257
0.3950288045551109 0.27561865742104436 -0.22340808867908257
0.5240740406238391 0.2989534846570843 -0.22340808867908257
0.13765678133719517 0.37839621997944345 -0.22340808867908257
0.15846227470581095 0.4902380490432802 -0.22340808867908257
0.3240303044788598 0.3549236080191082 -0.22340808867908257
0.3409876673332236 0.44138352251451524 -0.22340808867908257
0.45175674390075987 0.51196866841788 -0.22340808867908257
0.6427657388383651 0.3597067063053652 -0.22314236099651277
0.30881493421023143 0.3985915238547509 -0.22314236099651277
0.32264261546988393 0.3674128090998903 -0.2214397354748616
0.13546206751448878 0.39447766565792897 -0.2214397354748616
0.4403698206143415 0.5173914814955088 -0.2214397354748616
0.41139566144820844 0.2698513825326769 -0.2214397354748616
0.14670136431059058 0.48992311253060494 -0.2214397354748616
0.2311535585376923 0.4141021471040122 -0.2214397354748616
0.33788751103657555 0.5097936381272159 -0.2214397354748616
0.5704976509453912 0.3427493434510013 -0.2214397354748616
0.4752982482232429 0.3432315899860355 -0.2214397354748616
0.5649862619735724 0.26647565678743784 -0.22044571710673
0.3057443032116467 0.36327926737102634 -0.22044571710673
0.3194145162149615 0.35186281878654446 -0.21947138227064059
0.14169190540584817 0.40942730824398743 -0.21947138227064059
0.5391221008701087 0.48386058466160425 -0.21947138227064059
0.12281539817736879 0.48380153406547766 -0.21947138227064059
0.325644354106321 0.3884840301510761 -0.21947138227064059
0.47286733201603 0.3158321133832792 -0.21947138227064059
0.2313700773901565 0.3674128090998903 -0.21947138227064059
0.3042385130104177 0.2895447563409079 -0.21947138227064059
0.13482235272311682 0.3090314530626958 -0.21947138227064059
0.482896091591536 0.502205636524944 -0.21947138227064059
0.46165756051799145 0.5084846832464088 -0.21947138227064059
0.1295471661358047 0.5152558182689291 -0.21773923145092614
0.18908000879746853 0.27869913018565023 -0.21773923145092614
0.5649862619735724 0.26647565678743784 -0.21773923145092614
0.389979978586284 0.28889519978351497 -0.21750302906641963
0.45335110999617895 0.32209147657270204 -0.21750302906641963
0.4564414245268058 0.2898400093215411 -0.21750302906641963
0.43171890828179016 0.5204719542601147 -0.21750302906641963
0.1601353749293988 0.29348146274934983 -0.21750302906641963
0.14247924668753653 0.49132064330560177 -0.21750302906641963
0.5056699381643729 0.4948144702430941 -0.21750302906641963
0.5282469494167877 0.30912002895688573 -0.21750302906641963
0.1588559453466552 0.30477981014157846 -0.21750302906641963
0.24372149374664331 0.44368649576345376 -0.21750302906641963
0.3723435338764639 0.3312935278024352 -0.21750302906641963
0.3690465422593938 0.3291677063418765 -0.21750302906641963
0.45809484121835153 0.46067338391588103 -0.2155346758621986
0.36641879073175887 0.5077465507948259 -0.2155346758621986
0.4755442923737706 0.5142027493046708 -0.2155346758621986
0.47285749025000895 0.33543691129732034 -0.2155346758621986
0.6145690791878993 0.4223101799656138 -0.2155346758621986
0.44300741390799764 0.5274399246030571 -0.2155346758621986
0.49621200101809093 0.5043708250495871 -0.2155346758621986
0.23820026300880337 0.43911007456364004 -0.2155346758621986
0.37247147683473836 0.4603584474032056 -0.2155346758621986
0.33863548525417947 0.4658009440128766 -0.2155346758621986
0.13972355220162713 0.5097247457650681 -0.2150425875611434
0.17026255216511577 0.2819272294405727 -0.2150425875611434
0.6557273446881601 0.30785044114016313 -0.2150425875611434
0.23133071032607216 0.26896562359077736 -0.21425524627945497
0.41962337784185216 0.3487232954258121 -0.21425524627945497
0.3466073157312745 0.47277875612184 -0.21425524627945497
0.5779478678233677 0.5022942124191339 -0.21425524627945497
0.5649862619735724 0.26647565678743784 -0.21425524627945497
0.41833410649308744 0.28016555332279486 -0.21356632265797762
0.4651809127535471 0.3004494330922923 -0.21356632265797762
0.12937985611344582 0.315901005745427 -0.21356632265797762
0.1364462441165992 0.49499162203147395 -0.21356632265797762
0.5827703331737092 0.341784850380933 -0.21356632265797762
0.628879006982586 0.3951764310454275 -0.21356632265797762
0.4748652105183143 0.4675527783646334 -0.21356632265797762
0.4704659411068804 0.283925107942857 -0.21356632265797762
0.3427591852170224 0.344678329591138 -0.21356632265797762
0.34775880235574386 0.344127190693956 -0.21356632265797762
0.2375211811533471 0.27604185335995196 -0.21307423435692238
0.2822126406551847 0.5265541656611576 -0.212286893075234
0.434887956940586 0.5032291801911388 -0.212286893075234
0.32292802668449594 0.30785044114016313 -0.212286893075234
0.41962337784185216 0.34674510045556994 -0.212286893075234
0.6686889505379554 0.3208218887559795 -0.212286893075234
0.130236089757282 0.39108225638064775 -0.21159796945375664
0.42673897467511107 0.2832657096194429 -0.21159796945375664
0.23165548860476864 0.29302874151237907 -0.21159796945375664
0.4705742005331126 0.2865922265345765 -0.21159796945375664
0.2571653461314727 0.2892298198282326 -0.21159796945375664
0.5797292274731878 0.3319037172957437 -0.21159796945375664
0.5822388778085695 0.3290200798515599 -0.21159796945375664
0.603378991221903 0.4292584667765139 -0.21159796945375664
0.34228678044800953 0.3438713047774073 -0.21159796945375664
0.33821228931527203 0.34383193771332293 -0.21159796945375664
0.25677167549062846 0.5282174241187242 -0.21110588115270137
0.4247115708747635 0.4995975685293511 -0.21031853987101296
0.3860137468797788 0.32203242597657544 -0.21031853987101296
0.38191957221499906 0.3196802438975313 -0.21031853987101296
0.45798658179211943 0.471735528923603 -0.2096296162495356
0.25912385756967254 0.5001880744906173 -0.2096296162495356
0.12442944780483002 0.3120430334651539 -0.2096296162495356
0.4750817293707787 0.45897075839422985 -0.2096296162495356
0.2637298040675496 0.5108663906235162 -0.2096296162495356
0.5734698642837648 0.32507353167709685 -0.2096296162495356
0.5820322007221261 0.4695309733348754 -0.2096296162495356
0.49672377285118846 0.5076678166666572 -0.2096296162495356
0.3130665771313488 0.4438538057858126 -0.2096296162495356
0.34217852102177726 0.4543648118963527 -0.2096296162495356
0.3499043073483446 0.34792611237810256 -0.2096296162495356
0.5779478678233677 0.29488883529036786 -0.20835018666679203
0.35759072661082764 0.3597067063053652 -0.20835018666679203
0.35184313525450234 0.5354904892083209 -0.20835018666679203
0.45813420828243584 0.32537862642375115 -0.20766126304531468
0.46943255567466446 0.5012313016888545 -0.20766126304531468
0.5762550840677377 0.3309884330557809 -0.20766126304531468
0.19660895980361381 0.2949380441204735 -0.20766126304531468
0.12800200887049112 0.43119729468267165 -0.20766126304531468
0.5860181159606737 0.4625236359278487 -0.20766126304531468
0.4680153413676253 0.5281190064585133 -0.20766126304531468
0.6263398313491408 0.39733177780404944 -0.20766126304531468
0.3145526838005356 0.3579155048895241 -0.20766126304531468
0.33753320745981574 0.4512548138336835 -0.20766126304531468
0.3391275735552347 0.39521579810951185 -0.20766126304531468
0.7075737680873411 0.3985915238547509 -0.206381833462571
0.3057443032116467 0.4763710007195434 -0.206381833462571
0.43726966431769343 0.5022942124191339 -0.206381833462571
0.12825789478703994 0.40599253190262174 -0.20569290984109365
0.1559723079024714 0.3909936804864578 -0.20569290984109365
0.4766957789982399 0.2876157702007714 -0.20569290984109365
0.2360645997822236 0.2861985558937322 -0.20569290984109365
0.12387830890764816 0.4174877146152724 -0.20569290984109365
0.19621528916276956 0.2873303589861592 -0.20569290984109365
0.3964460188621501 0.2632770828305788 -0.20569290984109365
0.5230504969576442 0.4988102272476628 -0.20569290984109365
0.4843821982607228 0.30103009728753743 -0.20569290984109365
0.35112468633496174 0.3382122893152719 -0.20569290984109365
0.3475422835032795 0.4532330088039257 -0.20569290984109365
0.3178398336515847 0.2642218923686048 -0.20520082154003844
0.5079827531793326 0.5541406358183149 -0.20441348025835002
0.46203154762679344 0.4245147355543413 -0.20441348025835002
0.318705909061442 0.2608658501554081 -0.20441348025835002
0.12663400339355757 0.3934344384596919 -0.20372455663687267
0.4149288554497852 0.2790239084643467 -0.20372455663687267
0.5054829446099719 0.5106498717710519 -0.20372455663687267
0.4494931377159057 0.273049956489536 -0.20372455663687267
0.31564511982887833 0.5196255623822997 -0.20372455663687267
0.32346932381565674 0.2739455571974565 -0.20372455663687267
0.41802901174643325 0.26196812794977176 -0.20372455663687267
0.48184302262727774 0.28947586397876013 -0.20372455663687267
0.4834767557867812 0.4695506568669176 -0.20372455663687267
0.34176516684889086 0.4508906684909026 -0.20372455663687267
0.3351416583166872 0.46523012158365257 -0.20372455663687267
0.3280162197174073 0.2616433496710753 -0.2032324683358174
0.6946121622375461 0.4374763414041365 -0.20244512705412904
0.459836833804087 0.5022942124191339 -0.20244512705412904
0.360710566439518 0.2585530351404484 -0.20244512705412904
0.47147964300705425 0.4589412330961665 -0.2017562034326517
0.46524980511569486 0.4761544818670791 -0.2017562034326517
0.5188382211006113 0.5062702858916602 -0.2017562034326517
0.1245770742951466 0.48368343287322435 -0.2017562034326517
0.13440899855023053 0.29779215626659383 -0.2017562034326517
0.3863680504565386 0.27126859683971605 -0.2017562034326517
0.42507571621754436 0.5271938804525295 -0.2017562034326517
0.4820103326496365 0.5235425852586995 -0.2017562034326517
0.3238531526904799 0.5303629291113253 -0.2017562034326517
0.4842444135364274 0.3252113164013923 -0.2017562034326517
0.3430052293675501 0.34341858354043653 -0.2017562034326517
0.3372871633092881 0.3455837720650796 -0.2017562034326517
0.3550220256793193 0.5411790299685195 -0.20126411513159642
0.6298041329885697 0.49182257337267815 -0.200476773849908
0.3830612170734472 0.31936530738485597 -0.200476773849908
0.30881493421023143 0.36327926737102634 -0.200476773849908
0.13962513454141603 0.3018666473993313 -0.19978785022843065
0.13385785965304856 0.3112753757155077 -0.19978785022843065
0.4706923017253659 0.2749691008636514 -0.19978785022843065
0.12371099888528941 0.3895370991153343 -0.19978785022843065
0.2822815330173325 0.5175686332838887 -0.19978785022843065
0.3887891248977304 0.5269773616000649 -0.19978785022843065
0.5189464805268434 0.5115159471809092 -0.19978785022843065
0.4491782012032304 0.5347129896926535 -0.19978785022843065
0.4883779552652915 0.5151180335446336 -0.19978785022843065
0.24339671546794686 0.3571970559699834 -0.19978785022843065
0.23845614892535208 0.447829879258339 -0.19978785022843065
0.325644354106321 0.3884840301510761 -0.19978785022843065
0.38663377813910843 0.542635611339643 -0.19850842064568705
0.35759072661082764 0.4245147355543413 -0.19850842064568705
0.6038809212889792 0.30785044114016313 -0.19850842064568705
0.13707611714194987 0.3017682297391203 -0.1978194970242097
0.3984931061945399 0.2769768211319569 -0.1978194970242097
0.4740680274706048 0.2745754302228073 -0.1978194970242097
0.29934715529792855 0.5168108173002637 -0.1978194970242097
0.12509868789426512 0.30849015593153495 -0.1978194970242097
0.3360667843226711 0.5295263789995313 -0.1978194970242097
0.3563309805601262 0.5290244489324548 -0.1978194970242097
0.3564687652844216 0.5328430541486435 -0.1978194970242097
0.48954912542180296 0.28855073797277636 -0.1978194970242097
0.24258969065421618 0.3575612013127643 -0.1978194970242097
0.24372149374664331 0.44862706230604854 -0.1978194970242097
0.325644354106321 0.365040943488804 -0.1978194970242097
0.46507265332731496 0.4893326065693386 -0.19654006744146604
0.46129341517521066 0.3597067063053652 -0.19654006744146604
0.6686889505379554 0.3621966731087048 -0.19654006744146604
0.12033527314005038 0.39991032050157893 -0.1958511438199887
0.23928285727112492 0.4426629520972588 -0.1958511438199887
0.336243936111051 0.35105579397281395 -0.1958511438199887
0.23283650052730115 0.346941935775992 -0.1958511438199887
0.607414115290556 0.44606820314056117 -0.1958511438199887
0.3642831275051791 0.27145559039411693 -0.1958511438199887
0.3568919612233292 0.5283060000129143 -0.1958511438199887
0.42408169784941274 0.263011355148009 -0.1958511438199887
0.4679464490054775 0.46968844159121315 -0.1958511438199887
0.5392894108924674 0.5080713290735224 -0.1958511438199887
0.48548447605508666 0.32898071278747554 -0.1958511438199887
0.49076950440841993 0.47253271197131247 -0.1958511438199887
0.3722647997482951 0.5453716222935101 -0.19457171423724506
0.3862401074982642 0.463399553103727 -0.19457171423724506
0.6168425271387745 0.2923988684870283 -0.19457171423724506
0.15398427116620822 0.39468434274437214 -0.19388279061576771
0.341775008614912 0.44271216092736443 -0.19388279061576771
0.3759751455382517 0.4675921454287177 -0.19388279061576771
0.5324395417417784 0.5038885785145528 -0.19388279061576771
0.37242226800463285 0.2699399584268668 -0.19388279061576771
0.33316346334644514 0.5223418898041248 -0.19388279061576771
0.3774317269093753 0.26448762005117465 -0.19388279061576771
0.4664209752722064 0.4741467615987737 -0.19388279061576771
0.3737705899495243 0.5361400457657138 -0.19388279061576771
0.5193204676356455 0.5030421866367378 -0.19388279061576771
0.5506271253487802 0.49046440966176563 -0.19388279061576771
0.39981190284136797 0.5457948182324177 -0.19260336103302406
0.35565189870466996 0.4374763414041365 -0.19260336103302406
0.44345029337894737 0.2523822478452156 -0.19260336103302406
0.14789221799914423 0.41060832016652005 -0.1919144374115467
0.3507605409921808 0.33786782750453326 -0.1919144374115467
0.33775956807830115 0.3346200447175686 -0.1919144374115467
0.6018830427866948 0.3419226351052286 -0.1919144374115467
0.37655580973349695 0.2693691359976428 -0.1919144374115467
0.3583387008284317 0.5293885942752358 -0.1919144374115467
0.28379716498458263 0.28296061487278873 -0.1919144374115467
0.4830338763158314 0.5114667383508036 -0.1919144374115467
0.518247715139345 0.5197928724046584 -0.1919144374115467
0.5185528098859993 0.5077071837307416 -0.1919144374115467
0.4890373535887054 0.28237995067754346 -0.1919144374115467
0.40434895697709733 0.5541406358183149 -0.19063500782880305
0.35759072661082764 0.41155312970454605 -0.19063500782880305
0.6168425271387745 0.31035024970952385 -0.19063500782880305
0.1319977658750598 0.38444890608242305 -0.1899460842073257
0.3193160985547505 0.3525812677060852 -0.1899460842073257
0.36737344203580596 0.33291741919591744 -0.1899460842073257
0.5908701066090783 0.3302010917740925 -0.1899460842073257
0.3584272767226215 0.2702647367055633 -0.1899460842073257
0.354628355038475 0.5266328997893264 -0.1899460842073257
0.2998786106630681 0.2743392278383008 -0.1899460842073257
0.4669721141693882 0.47417628689683705 -0.1899460842073257
0.3920959582808216 0.5394665626808473 -0.1899460842073257
0.4955821279927403 0.32017233219858654 -0.1899460842073257
0.564002085371462 0.31772173245933144 -0.1899460842073257
0.4094371500100086 0.550036619387514 -0.1886666546245821
0.46129341517521066 0.4504379472539318 -0.1886666546245821
0.6686889505379554 0.3208218887559795 -0.1886666546245821
0.14196747485443903 0.3842717542940432 -0.18797773100310475
0.3401708007534719 0.3470403534362031 -0.18797773100310475
0.3375922580559424 0.341775008614912 -0.18797773100310475
0.6307686260586379 0.37240258447259056 -0.18797773100310475
0.366527050157991 0.2686113200140177 -0.18797773100310475
0.36660578428615975 0.5278434370099224 -0.18797773100310475
0.4331262808228082 0.2607182236650915 -0.18797773100310475
0.46688353827519824 0.3228492925563271 -0.18797773100310475
0.4637538566804869 0.5198814482988484 -0.18797773100310475
0.6418996634285077 0.4008256047415417 -0.18797773100310475
0.4094371500100086 0.24776645958131735 -0.18748564270204945
0.3057443032116467 0.30785044114016313 -0.1866983014203611
0.46129341517521066 0.41155312970454605 -0.1866983014203611
0.6298041329885697 0.323311855559319 -0.1866983014203611
0.23959779378380025 0.4419445031777182 -0.18600937779888374
0.3207234710957685 0.44389317284989693 -0.18600937779888374
0.3454755126388475 0.44320424922841967 -0.18600937779888374
0.5660393309378307 0.4884173223293758 -0.18600937779888374
0.41006702303535936 0.26387743055786617 -0.18600937779888374
0.4241013813814549 0.5331087818312136 -0.18600937779888374
0.5181689810111761 0.5182772404374083 -0.18600937779888374
0.5940588387999165 0.32001486394224893 -0.18600937779888374
0.49440111607020765 0.4702494222544161 -0.18600937779888374
0.4145253430429198 0.24557174575861093 -0.1855172894978285
0.4094371500100086 0.5515916184188485 -0.18472994821614008
0.3554452216182267 0.4245147355543413 -0.18472994821614008
0.5131398385743916 0.2650584424803988 -0.18472994821614008
0.13098406397488588 0.41288176811739524 -0.18404102459466273
0.36953863056044906 0.33638172083534645 -0.18404102459466273
0.23869235130985858 0.3472568722886675 -0.18404102459466273
0.4892932395052543 0.2727842288069662 -0.18404102459466273
0.37515827895849996 0.2660918279126149 -0.18404102459466273
0.35785645429339746 0.5286996706537584 -0.18404102459466273
0.45396129948948744 0.27035331259975326 -0.18404102459466273
0.4664406588042485 0.47045609934085936 -0.18404102459466273
0.41734992989097697 0.5432556425989729 -0.18404102459466273
0.49651709576474523 0.5069493677471165 -0.18404102459466273
0.42979976390767477 0.5541406358183149 -0.1835489362936075
0.4534200023583266 0.4512548138336835 -0.1827615950119191
0.43869672039075364 0.5489540251251924 -0.1827615950119191
0.6168425271387745 0.2923988684870283 -0.1827615950119191
0.14518573234334045 0.4104508519101823 -0.18207267139044175
0.3505046550756321 0.3376217833540057 -0.18207267139044175
0.2321377351398027 0.440615864764869 -0.18207267139044175
0.325644354106321 0.3884840301510761 -0.18207267139044175
0.5115651560110147 0.27922074378476874 -0.18207267139044175
0.37706758156659437 0.5315636245658999 -0.18207267139044175
0.4445230458752477 0.26864084531208104 -0.18207267139044175
0.46659812706058623 0.470515149936986 -0.18207267139044175
0.48331928753044356 0.5348802997150125 -0.18207267139044175
0.4978260506455522 0.2902238381963642 -0.18207267139044175
0.4247115708747635 0.5532351933443731 -0.18158058308938652
0.3057443032116467 0.42973087154552697 -0.1807932418076981
0.47425502102500583 0.5541406358183149 -0.1807932418076981
0.590909473673163 0.26896562359077736 -0.1807932418076981
0.1498704129693864 0.39439893152976013 -0.18010431818622075
0.3403971613719573 0.3458396579816283 -0.18010431818622075
0.3310573254179287 0.34669589162546444 -0.18010431818622075
0.5682930953566638 0.3069745239642848 -0.18010431818622075
0.39858168208872985 0.2635329687471275 -0.18010431818622075
0.4253020768360297 0.5344078949459994 -0.18010431818622075
0.3931391854790587 0.26792239639254034 -0.18010431818622075
0.45630363980251043 0.47623321599524787 -0.18010431818622075
0.4388443468810702 0.5428422884260864 -0.18010431818622075
0.6294301458797676 0.42860891021912095 -0.18010431818622075
0.4483318093254154 0.24304241189118692 -0.1796122298851655
0.35529759512791015 0.4245147355543413 -0.17882488860347714
0.4488534229245339 0.5533434527706051 -0.17882488860347714
0.6168425271387745 0.2819272294405727 -0.17882488860347714
0.2413004193054514 0.35390006435291327 -0.1781359649819998
0.34676478398761224 0.3382910234434408 -0.1781359649819998
0.36705850552313063 0.3326221662152843 -0.1781359649819998
0.6529618084362299 0.3990540868577428 -0.1781359649819998
0.4215425222159677 0.25815936449960414 -0.1781359649819998
0.40394544457023196 0.5361302039996927 -0.1781359649819998
0.5334729271739943 0.282242165953248 -0.1781359649819998
0.4611949975149996 0.273325525938127 -0.1781359649819998
0.48684263976599906 0.5167025578740315 -0.1781359649819998
0.5001388656605118 0.2840727344331736 -0.1781359649819998
0.3057443032116467 0.30785044114016313 -0.1768565353992561
0.36435201986732674 0.47739454438573836 -0.1768565353992561
0.3865255187128762 0.34674510045556994 -0.1768565353992561
0.6816505563877507 0.4504379472539318 -0.1768565353992561
0.34096798380118143 0.3447373801872646 -0.17616761177777876
0.3414207050381522 0.45376446416906524 -0.17616761177777876
0.325644354106321 0.43214210422069776 -0.17616761177777876
0.3853248232583014 0.26373964583357073 -0.17616761177777876
0.44084222538335455 0.5390236832098976 -0.17616761177777876
0.4494636124178424 0.2583069909899207 -0.17616761177777876
0.4692849291843479 0.3230756531748125 -0.17616761177777876
0.41955448547970453 0.5276072346254159 -0.17616761177777876
0.5055419952060985 0.4778964744528147 -0.17616761177777876
0.30881493421023143 0.3856299180049557 -0.17488818219503513
0.6686889505379554 0.4763710007195434 -0.17488818219503513
0.4646199320903441 0.2493313003786731 -0.17488818219503513
0.2407295968762274 0.3542150008655886 -0.17419925857355778
0.3427296599189591 0.33937361770576235 -0.17419925857355778
0.34633174628268354 0.453557787082622 -0.17419925857355778
0.5446334898419275 0.5066836400645467 -0.17419925857355778
0.426916126463491 0.2575590167723168 -0.17419925857355778
0.47360546446761287 0.4598565173361292 -0.17419925857355778
0.4260402092876126 0.5316620422261109 -0.17419925857355778
0.5972672545227967 0.48135093432622256 -0.17419925857355778
0.5066541147664834 0.28626744825588 -0.17419925857355778
0.6004264614155713 0.4647281915165762 -0.17419925857355778
0.35514012687157254 0.4245147355543413 -0.17291982899081415
0.46129341517521066 0.4374763414041365 -0.17291982899081415
0.6499010192036662 0.3597067063053652 -0.17291982899081415
0.5488949745290659 0.29191662195199425 -0.1722309053693368
0.42005641554678075 0.5365140328745159 -0.1722309053693368
0.41417103946616 0.2646746136055757 -0.1722309053693368
0.47060372583117593 0.45778974647169723 -0.1722309053693368
0.40846281517391914 0.5453519387614681 -0.1722309053693368
0.5043314579855026 0.3254475187858988 -0.1722309053693368
0.24372149374664331 0.44000567527156054 -0.1722309053693368
0.2379542188582757 0.3507900662902441 -0.1722309053693368
0.23759991528151606 0.34219820455381944 -0.1722309053693368
0.3550909180414669 0.4245147355543413 -0.17095147578659312
0.483171661040127 0.5022942124191339 -0.17095147578659312
0.7075737680873411 0.41155312970454605 -0.17095147578659312
0.6577941155525923 0.3986604162168987 -0.17026255216511577
0.4347403304502694 0.5402932710266201 -0.17026255216511577
0.5011230422626224 0.2674106245594429 -0.17026255216511577
0.46963923276110764 0.27257755172052295 -0.17026255216511577
0.45707129755215664 0.476528468975881 -0.17026255216511577
0.6120397453204752 0.3411746608876245 -0.17026255216511577
0.3351711836147505 0.4481743410690776 -0.17026255216511577
0.3371395368189715 0.4630944583570728 -0.17026255216511577
0.48459871711318714 0.3158517969153215 -0.1689831225823722
0.38469495023295075 0.4763710007195434 -0.1689831225823722
0.5779478678233677 0.2844270380099334 -0.1689831225823722
0.5050400651390221 0.5103349352583766 -0.16829419896089484
0.4278510942354959 0.2580707886054142 -0.16829419896089484
0.47382198332007724 0.5323115987835039 -0.16829419896089484
0.5120375607800277 0.5269281527699595 -0.16829419896089484
0.6208087588452798 0.3338130199038381 -0.16829419896089484
0.5253042613764772 0.28272441248828223 -0.16829419896089484
0.2405524450878475 0.35433310205784185 -0.16829419896089484
0.23789516826214907 0.44676696852805964 -0.16829419896089484
0.3346200447175686 0.4664111335061852 -0.16829419896089484
0.3057443032116467 0.42973087154552697 -0.16701476937815116
0.5387579555273277 0.5282174241187242 -0.16701476937815116
0.6946121622375461 0.38812972657431627 -0.16701476937815116
0.6589554439430826 0.3944875074239501 -0.1663258457566738
0.4700525869339941 0.5335713448342054 -0.1663258457566738
0.5293689107431937 0.5209148337310644 -0.1663258457566738
0.6576563308282967 0.37784508108226156 -0.1663258457566738
0.5104924035147144 0.27712444762227345 -0.1663258457566738
0.2418613999686544 0.359027624449909 -0.1663258457566738
0.3669699296289407 0.3362931449411565 -0.1663258457566738
0.345160576126172 0.4517862691988232 -0.1663258457566738
0.30881493421023143 0.4338939385724544 -0.16504641617393018
0.5779478678233677 0.5152558182689291 -0.16504641617393018
0.6543790227432688 0.3597067063053652 -0.16504641617393018
0.5015068711374455 0.27001869255503574 -0.16435749255245283
0.4732708444228954 0.5334729271739945 -0.16435749255245283
0.4865965956154715 0.5352739703558567 -0.16435749255245283
0.6374118181228838 0.44782003749231786 -0.16435749255245283
0.507185570131623 0.522086003887576 -0.16435749255245283
0.6288396399185013 0.44164925019708506 -0.16435749255245283
0.31473967735493663 0.44770193630006455 -0.16435749255245283
0.3367753914761907 0.45592965269370833 -0.16435749255245283
0.4512843391317468 0.3208218887559795 -0.1630780629697092
0.48895861946053665 0.48171507966900334 -0.1630780629697092
0.6168425271387745 0.31035024970952385 -0.1630780629697092
0.5069395259810954 0.5195074611900464 -0.16238913934823185
0.466489867634354 0.3301814082420504 -0.16238913934823185
0.5446433316079486 0.2821634318250792 -0.16238913934823185
0.4422692814564147 0.2670366374506408 -0.16238913934823185
0.5056305711002884 0.4665489182304806 -0.16238913934823185
0.5680372094401149 0.39557010168627166 -0.16238913934823185
0.5209640425611699 0.4951294067557694 -0.16238913934823185
0.34058415492635835 0.4530656987815668 -0.16238913934823185
0.3757586266857874 0.4574944934910641 -0.16238913934823185
0.33104748365190756 0.39388715969666277 -0.16238913934823185
0.3639386656944403 0.4777882150265825 -0.16110970976548816
0.4526326610766382 0.3430150711335711 -0.16110970976548816
0.5794536580245967 0.491527320392045 -0.1604207861440108
0.47113518119631564 0.3304274523925779 -0.1604207861440108
0.6668780655900721 0.40061892765509854 -0.1604207861440108
0.5627915481508662 0.28624776472383767 -0.1604207861440108
0.5121655037383022 0.5183067657354716 -0.1604207861440108
0.5355396980384265 0.34618411979236696 -0.1604207861440108
0.34058415492635835 0.34495389903972884 -0.1604207861440108
0.34344810883849985 0.45840977773102687 -0.1604207861440108
0.3503668703513367 0.4523177245639629 -0.1604207861440108
0.46129341517521066 0.4523177245639629 -0.1591413565612672
0.46129341517521066 0.4023806037728763 -0.1591413565612672
0.6816505563877507 0.4245147355543413 -0.1591413565612672
0.663403922184622 0.4016129460232301 -0.15845243293978986
0.4677102466209711 0.25628942895559426 -0.15845243293978986
0.4944896919643976 0.27513641088601026 -0.15845243293978986
0.5011328840286434 0.342906811707339 -0.15845243293978986
0.5382068166301458 0.3878344735936831 -0.15845243293978986
0.31872559259348415 0.43814558149357175 -0.15845243293978986
0.34822136535873577 0.3372084291811193 -0.15845243293978986
0.37505001953226785 0.32870514333888456 -0.15845243293978986
0.4654171151380536 0.4067700314182891 -0.15796034463873457
0.3057443032116467 0.463399553103727 -0.1571730033570462
0.3859251709855889 0.34674510045556994 -0.1571730033570462
0.6128664536662481 0.4667063864868184 -0.15648407973556885
0.4699148022096985 0.2612103119661467 -0.15648407973556885
0.47829998685968 0.2670760045147253 -0.15648407973556885
0.45914791018260975 0.33870437761632727 -0.15648407973556885
0.4828862498255148 0.45105797851326146 -0.15648407973556885
0.5447417492681597 0.31092107213874787 -0.15648407973556885
0.3140409119674382 0.44372586282753823 -0.15648407973556885
0.3404365284360418 0.344028773033745 -0.15648407973556885
0.370749167781045 0.46739531010829566 -0.15648407973556885
0.3360372590246078 0.35019956032897775 -0.15648407973556885
0.35759072661082764 0.4245147355543413 -0.15520465015282522
0.4658993616730877 0.4278510942354959 -0.15520465015282522
0.6686889505379554 0.3726683121551604 -0.15520465015282522
0.5244480277326412 0.32616596770543954 -0.15451572653134787
0.5085732591405988 0.5266033744912632 -0.15451572653134787
0.6646144594052181 0.41121850965982853 -0.15451572653134787
0.45427623600216277 0.26660359974571224 -0.15451572653134787
0.4756427100339817 0.394940228660921 -0.15451572653134787
0.5279516964361545 0.4796876758686557 -0.15451572653134787
0.5471628237093515 0.3301125158799026 -0.15451572653134787
0.31461173439666223 0.43898213160536564 -0.15451572653134787
0.34038731960593616 0.3440090895017027 -0.15451572653134787
0.36879065634284514 0.3313821036966252 -0.15451572653134787
0.4654171151380536 0.3726683121551604 -0.1540236382302926
0.3057443032116467 0.36327926737102634 -0.15323629694860422
0.46129341517521066 0.4374763414041365 -0.15323629694860422
0.6694664500536228 0.4245147355543413 -0.15323629694860422
0.33099827482180205 0.3493433266851416 -0.15254737332712687
0.34033811077583065 0.4531936417398412 -0.15254737332712687
0.3490972825346141 0.45177642743280205 -0.15254737332712687
0.46912746092801016 0.4776602720683082 -0.15254737332712687
0.5866873560501089 0.30761423875565663 -0.15254737332712687
0.46850742966868053 0.5452141540371725 -0.15254737332712687
0.5239756229636282 0.2989633264231053 -0.15254737332712687
0.5604885749019275 0.29674892906835676 -0.15254737332712687
0.6557273446881601 0.4893326065693386 -0.15126794374438324
0.3621966731087048 0.3208218887559795 -0.15126794374438324
0.35759072661082764 0.41155312970454605 -0.15126794374438324
0.23378131006532726 0.4439325399139814 -0.1505790201229059
0.34309380526174005 0.33849770052988404 -0.1505790201229059
0.34610538566419813 0.34257219166262154 -0.1505790201229059
0.3254475187858988 0.42854985962299436 -0.1505790201229059
0.4713910671128643 0.42111932627706017 -0.1505790201229059
0.6237711304176324 0.33852722582794736 -0.1505790201229059
0.49381061010894134 0.5278237534778801 -0.1505790201229059
0.5293492272111514 0.291995356080163 -0.1505790201229059
0.6121381629806862 0.33143131252673064 -0.1505790201229059
0.3057443032116467 0.4763710007195434 -0.14929959054016223
0.46636192467607973 0.4322405218809087 -0.14929959054016223
0.6686889505379554 0.3208218887559795 -0.14929959054016223
0.34196200216931305 0.3369820685626338 -0.14861066691868488
0.4720996742663839 0.3300633070497971 -0.14861066691868488
0.4699836945718463 0.47553445060774946 -0.14861066691868488
0.651505227065106 0.36961736468861783 -0.14861066691868488
0.6428051059024494 0.35217775529921996 -0.14861066691868488
0.676532838056776 0.3997528522452412 -0.14861066691868488
0.5594256641716481 0.4883582717332492 -0.14861066691868488
0.45621506390832045 0.45233740809600503 -0.14733123733594125
0.6686889505379554 0.36734391673774264 -0.14733123733594125
0.3433004823481833 0.4572582911065575 -0.1466423137144639
0.4778964744528147 0.4217393575363898 -0.1466423137144639
0.5131496803404126 0.4731822685287053 -0.1466423137144639
0.5504696570924427 0.5021564276948384 -0.1466423137144639
0.5239756229636282 0.2737487218770344 -0.1466423137144639
0.5297133725539324 0.2853226387178539 -0.1466423137144639
0.5543965217348635 0.31057661032800926 -0.1466423137144639
0.5649862619735724 0.5411790299685195 -0.14536288413172024
0.5167911337682215 0.3062954421088286 -0.14536288413172024
0.3077520234799522 0.3985915238547509 -0.14536288413172024
0.3478572200159548 0.3368639673703805 -0.1446739605102429
0.4808096371950617 0.3661136959851045 -0.1446739605102429
0.47108597236621 0.4753376152873274 -0.1446739605102429
0.5508042771371602 0.2884720038446075 -0.1446739605102429
0.4752391976271164 0.2645269871152591 -0.1446739605102429
0.5149113564581904 0.2616728749691386 -0.1446739605102429
0.5646319583968126 0.4974520635367502 -0.1446739605102429
0.7075737680873411 0.3856299180049557 -0.14339453092749926
0.5197239800425107 0.4374763414041365 -0.14339453092749926
0.3057443032116467 0.4260795763516971 -0.14339453092749926
0.33645061319749425 0.33339966573095164 -0.14270560730602191
0.4765875195720077 0.4309906175962284 -0.14270560730602191
0.480553751278513 0.42522334270786094 -0.14270560730602191
0.5610790808631938 0.5078646519870792 -0.14270560730602191
0.5794536580245967 0.5020973770987117 -0.14270560730602191
0.48187254792534107 0.5442299774350621 -0.14270560730602191
0.6668977491221144 0.4025971226253406 -0.14270560730602191
0.539063050273982 0.2535140509376427 -0.14142617772327828
0.3849213108514361 0.463399553103727 -0.14142617772327828
0.3414207050381522 0.4603387638711634 -0.14073725410180093
0.4794809987822126 0.4630649330590095 -0.14073725410180093
0.460387972701269 0.45895107486218756 -0.14073725410180093
0.5115257889469303 0.5287784047819274 -0.14073725410180093
0.47188315541391956 0.2593699017202001 -0.14073725410180093
0.5641989206918842 0.30034117366606 -0.14073725410180093
0.5950233318699849 0.3140212284353959 -0.14073725410180093
0.6816505563877507 0.41496822251386956 -0.13945782451905728
0.47377277448997174 0.3127221153206102 -0.13945782451905728
0.3057443032116467 0.32237688778731405 -0.13945782451905728
0.34937285198320506 0.4606241750857754 -0.13876890089757993
0.4812722001980537 0.44105874423581876 -0.13876890089757993
0.5137598698337211 0.32321343789910795 -0.13876890089757993
0.5711078404386998 0.5029339272105057 -0.13876890089757993
0.4834767557867812 0.2566142072342907 -0.13876890089757993
0.6017649415944416 0.30510458842027494 -0.13876890089757993
0.5884687156999288 0.3179677766098591 -0.13876890089757993
0.6168425271387745 0.2819272294405727 -0.13748947131483627
0.44300741390799764 0.5022942124191339 -0.13748947131483627
0.47392040098028837 0.4845101412189972 -0.13748947131483627
0.3657692341743659 0.3277997008649429 -0.13680054769335892
0.4758887541845092 0.3629446473263087 -0.13680054769335892
0.4780736262411946 0.2562500618915099 -0.13680054769335892
0.47798505034700467 0.5371439058998665 -0.13680054769335892
0.614185250313076 0.4785066639461232 -0.13680054769335892
0.5249597995657386 0.5335122942380788 -0.13680054769335892
0.590909473673163 0.2794372626372331 -0.1355211181106153
0.4626811041841864 0.4044572164033295 -0.1355211181106153
0.47660720310404997 0.4817544467330878 -0.1355211181106153
0.36614322128316784 0.3355156454254891 -0.13483219448913794
0.4799337200191834 0.33391143756404906 -0.13483219448913794
0.46085053570426093 0.33804497929291316 -0.13483219448913794
0.5815893212511766 0.49761937355910896 -0.13483219448913794
0.5076087660705305 0.27035331259975326 -0.13483219448913794
0.5115454724789725 0.2590254399094615 -0.13483219448913794
0.6130632889866703 0.33676554971016953 -0.13483219448913794
0.56158101093027 0.5257963496775326 -0.1335527649063943
0.539063050273982 0.3053604743368236 -0.1335527649063943
0.32618565123748167 0.3597067063053652 -0.1335527649063943
0.3701389782877365 0.4679956578355831 -0.13286384128491696
0.4753671405853907 0.37572910138772414 -0.13286384128491696
0.4898148531043728 0.33158878078306825 -0.13286384128491696
0.4769024560846831 0.5377836206912383 -0.13286384128491696
0.6296072976681476 0.4657615769487923 -0.13286384128491696
0.4889684612265578 0.5438756738583023 -0.13286384128491696
0.3057443032116467 0.3726683121551604 -0.13158441170217333
0.5206491060484946 0.3337834946057748 -0.13158441170217333
0.602345605789687 0.29488883529036786 -0.13158441170217333
0.36604480362295677 0.33541722776527816 -0.13089548808069598
0.4826697309730506 0.32890197865930665 -0.13089548808069598
0.46017145384880465 0.3194341997470036 -0.13089548808069598
0.5910472583974583 0.30619702444861746 -0.13089548808069598
0.5489737086572348 0.27664220108723925 -0.13089548808069598
0.6806073291895136 0.38895643492008913 -0.13089548808069598
0.6179251214010961 0.3396491871543532 -0.13089548808069598
0.658797975686745 0.3337834946057748 -0.1296160584979523
0.38462605787080295 0.3337834946057748 -0.1296160584979523
0.3611436041444466 0.3208218887559795 -0.1296160584979523
0.33239580559679893 0.3315986225490894 -0.12892713487647495
0.4781425186033422 0.3544118361860107 -0.12892713487647495
0.48196112381953105 0.5372620070921198 -0.12892713487647495
0.6070794952458385 0.47528840645722187 -0.12892713487647495
0.6008496573544789 0.3058328791058367 -0.12892713487647495
0.6839043208065836 0.4029317426700582 -0.12892713487647495
0.6638861687196562 0.34674510045556994 -0.12843504657541974
0.6718087903666458 0.3612617053366997 -0.12764770529373132
0.46129341517521066 0.4148894883857007 -0.12764770529373132
0.5520246561237774 0.4893326065693386 -0.12764770529373132
0.3402200095835774 0.3453377279145519 -0.12695878167225397
0.480553751278513 0.3336752351795425 -0.12695878167225397
0.4725228702052913 0.33718874564907697 -0.12695878167225397
0.6098548732637898 0.32159938827164686 -0.12695878167225397
0.48944086599557085 0.5364156152143047 -0.12695878167225397
0.5705567015415178 0.4971272852580537 -0.12695878167225397
0.6182695832118348 0.4687337902871659 -0.12695878167225397
0.4748553687522933 0.31229891938170257 -0.12567935208951034
0.35390006435291327 0.3597067063053652 -0.12567935208951034
0.5842465980768747 0.2819272294405727 -0.12567935208951034
0.6394293801572105 0.4763710007195434 -0.12567935208951034
0.36662546781820204 0.47029863108452163 -0.12499042846803299
0.47321179382676876 0.3583977514245582 -0.12499042846803299
0.4823843197584386 0.2563189542536575 -0.12499042846803299
0.6160158187930016 0.32439444982164056 -0.12499042846803299
0.620444613502499 0.32074315462781067 -0.12499042846803299
0.6704211013576697 0.3697059405828078 -0.12499042846803299
0.6540640862305935 0.3421883627877984 -0.12499042846803299
0.35759072661082764 0.4374763414041365 -0.12449834016697772
0.46129341517521066 0.38251007817626537 -0.12449834016697772
0.6615733537046967 0.45455180545075374 -0.12449834016697772
0.36796394799707227 0.4665686017625228 -0.123022075263812
0.4696589162931498 0.47340862914719084 -0.123022075263812
0.4607914851081343 0.4779752085809835 -0.123022075263812
0.6781370459182162 0.3956685193464827 -0.123022075263812
0.5874845390978184 0.4914781115619395 -0.123022075263812
0.4762627412933113 0.5318293522484699 -0.123022075263812
0.5114470548187614 0.5390630502739819 -0.123022075263812
0.643533396588011 0.47253271197131247 -0.12252998696275674
0.590909473673163 0.2794372626372331 -0.12252998696275674
0.35379180492668116 0.41155312970454605 -0.12252998696275674
0.5520246561237774 0.30785044114016313 -0.12252998696275674
0.3786914729600767 0.45492579255955573 -0.12105372205959102
0.47140090887888547 0.47237524371497475 -0.12105372205959102
0.5766093876444974 0.2933338362590334 -0.12105372205959102
0.6319496379811705 0.33946219359995233 -0.12105372205959102
0.4958576974413313 0.2575196497082323 -0.12105372205959102
0.5349885591412444 0.281956754738636 -0.12105372205959102
0.6374708687190105 0.3447176966552223 -0.12105372205959102
0.6686889505379554 0.3208218887559795 -0.12056163375853576
0.44300741390799764 0.29488883529036786 -0.12056163375853576
0.3258707147248064 0.34674510045556994 -0.12056163375853576
0.365306671171374 0.46981638454948743 -0.11908536885537
0.47598717184472034 0.43345105910150467 -0.11908536885537
0.47176505422166626 0.4786838157345031 -0.11908536885537
0.6454230156640632 0.3440090895017027 -0.11908536885537
0.56879502542374 0.503898420280574 -0.11908536885537
0.4792349546316849 0.5312683715852667 -0.11908536885537
0.5792666644701956 0.5117423077993946 -0.11908536885537
0.5184051833956828 0.3149365126753587 -0.11819960991347055
0.35759072661082764 0.3597067063053652 -0.11819960991347055
0.6298041329885697 0.3053604743368236 -0.11819960991347055
0.3471387710964142 0.33618488551492437 -0.11711701565114901
0.4805045424484075 0.3654346141296483 -0.11711701565114901
0.47312321793257883 0.46027971327503675 -0.11711701565114901
0.4958576974413313 0.5356479574646584 -0.11711701565114901
0.6506883604853544 0.35402800731118755 -0.11711701565114901
0.5649173696114246 0.29084386945569385 -0.11711701565114901
0.5665412610049071 0.5010344663684325 -0.11711701565114901
0.6380318493822134 0.46809407549579407 -0.11711701565114901
0.3257230882344898 0.4123798380503189 -0.11583758606840537
0.5520246561237774 0.3597067063053652 -0.11583758606840537
0.6747121113428716 0.36098613588810885 -0.11583758606840537
0.5289949236343916 0.5263671721067567 -0.11514866244692802
0.4827484651012194 0.5485800380163905 -0.11514866244692802
0.6779500523638152 0.3989655109635528 -0.11514866244692802
0.638455045321121 0.3278784349931117 -0.11514866244692802
0.4747274257940189 0.3290397633836022 -0.11514866244692802
0.47541634941549615 0.3402003260515351 -0.11514866244692802
0.3356927972138692 0.4644526220679852 -0.11514866244692802
0.32574277176653194 0.46640129174016404 -0.11386923286418439
0.5220466368234915 0.4245147355543413 -0.11386923286418439
0.6744070165962173 0.35840759319057935 -0.11386923286418439
0.4987708601835783 0.5355889068685318 -0.11318030924270704
0.6217338848512638 0.4832602369343168 -0.11318030924270704
0.6467319705448703 0.4352521022833668 -0.11318030924270704
0.6373822928248204 0.3264415371540304 -0.11318030924270704
0.5080614873075014 0.3564884488164638 -0.11318030924270704
0.47371372389384514 0.3519218693826711 -0.11318030924270704
0.36918432698368925 0.4680842337297731 -0.11318030924270704
0.32561482880825765 0.4504379472539318 -0.1119008796599634
0.5222041050798292 0.3985915238547509 -0.1119008796599634
0.6407777021021016 0.36900717519530934 -0.1119008796599634
0.5001782327245963 0.5541406358183149 -0.1119008796599634
0.5435213702815427 0.5128839526578428 -0.11121195603848605
0.6692597729671794 0.402725065583615 -0.11121195603848605
0.5827900167057513 0.29561712597592976 -0.11121195603848605
0.6386321971095008 0.3241779309691762 -0.11121195603848605
0.4663127158459741 0.3333110898367617 -0.11121195603848605
0.48405741998202634 0.3643618616333479 -0.11121195603848605
0.36765885325041797 0.3303191929663458 -0.11121195603848605
0.32701235958325453 0.4703183146165638 -0.10993252645574239
0.5223517315701458 0.4374763414041365 -0.10993252645574239
0.661327309554169 0.4531641164417779 -0.10993252645574239
0.6251883447246717 0.30785044114016313 -0.10993252645574239
0.49989282150998426 0.536720709960959 -0.10924360283426503
0.6413682080633679 0.470800561151598 -0.10924360283426503
0.6635909157390231 0.3600314845840616 -0.10924360283426503
0.5684800889110648 0.2917001030995299 -0.10924360283426503
0.4761938489311635 0.40262664792340386 -0.10924360283426503
0.47587891241848823 0.4472196897650305 -0.10924360283426503
0.48434283119663846 0.36811157448738885 -0.10924360283426503
0.3695189470284069 0.4685763220308283 -0.10924360283426503
0.3057443032116467 0.3597067063053652 -0.1079641732515214
0.4035911409934723 0.3337834946057748 -0.1079641732515214
0.6298041329885697 0.305576993189288 -0.1079641732515214
0.6933425744208233 0.4374763414041365 -0.1079641732515214
0.5131398385743916 0.5541406358183149 -0.1079641732515214
0.5041444644311016 0.546464058321853 -0.10727524963004405
0.6778910017676886 0.4041029128265697 -0.10727524963004405
0.6712084426393583 0.39672158831074095 -0.10727524963004405
0.48740362042920204 0.2666429668097967 -0.10727524963004405
0.47622337422922684 0.4365020065680472 -0.10727524963004405
0.46203154762679344 0.47845745511601756 -0.10727524963004405
0.49370235068270923 0.44247595854285793 -0.10727524963004405
0.3743217288467061 0.4588624989679976 -0.10727524963004405
0.5224599909963779 0.5446728569060116 -0.10599582004730042
0.6374708687190105 0.34482595608145455 -0.10599582004730042
0.46129341517521066 0.41155312970454605 -0.10599582004730042
0.5137598698337211 0.4845593500491027 -0.10599582004730042
0.6066070904768254 0.48626197557075385 -0.10530689642582307
0.5172536967712134 0.5390138414438764 -0.10530689642582307
0.511112434774044 0.26445809475311133 -0.10530689642582307
0.5566207608556333 0.27268581114675505 -0.10530689642582307
0.47747327851390714 0.36331863443511064 -0.10530689642582307
0.48418536294030073 0.38996029505424185 -0.10530689642582307
0.49453890079450324 0.3499239908803869 -0.10530689642582307
0.3316281478471527 0.46540727337203247 -0.10530689642582307
0.5315734663319212 0.5541406358183149 -0.10402746684307942
0.6298041329885697 0.29488883529036786 -0.10402746684307942
0.539063050273982 0.3053604743368236 -0.10402746684307942
0.3057443032116467 0.3726683121551604 -0.10402746684307942
0.6329239728172601 0.47158790243328635 -0.10333854322160207
0.6662088255006369 0.3625903437495489 -0.10333854322160207
0.5854177682333862 0.3010202555215163 -0.10333854322160207
0.4815969784767501 0.38847418838505493 -0.10333854322160207
0.47198157307413063 0.43477969751435386 -0.10333854322160207
0.48836811349927034 0.40807898629909606 -0.10333854322160207
0.34677462575363327 0.3358404237041856 -0.10333854322160207
0.5264852732990098 0.5461097547450932 -0.10284645492054682
0.35759072661082764 0.4374763414041365 -0.10205911363885845
0.539063050273982 0.24304241189118692 -0.10205911363885845
0.6780484700240261 0.4374763414041365 -0.10205911363885845
0.5045578186039881 0.534279951987725 -0.1013701900173811
0.5291819171887926 0.535579065102511 -0.1013701900173811
0.49935152437882346 0.25795268741316096 -0.1013701900173811
0.5757728375327035 0.28169102705606613 -0.1013701900173811
0.47784726562270907 0.3894288396891022 -0.1013701900173811
0.4882008034769116 0.4665587599965018 -0.1013701900173811
0.3393047253436146 0.34523931025434085 -0.1013701900173811
0.539063050273982 0.5386595378671166 -0.10087810171632584
0.35759072661082764 0.4374763414041365 -0.10009076043463742
0.5468478871966761 0.2613776219885056 -0.10009076043463742
0.6816505563877507 0.4504379472539318 -0.10009076043463742
0.5311404286269925 0.5221155291856391 -0.09940183681316007
0.6747711619389982 0.4165921139073518 -0.09940183681316007
0.590072923561369 0.29880585816676775 -0.09940183681316007
0.5092031321659496 0.4706430928952603 -0.09940183681316007
0.4740385021725416 0.4371810884235035 -0.09940183681316007
0.33928504181157243 0.45424671070409944 -0.09940183681316007
0.5519360802295873 0.2634247093208954 -0.09890974851210485
0.5520246561237774 0.4893326065693386 -0.09812240723041644
0.4629861989308407 0.3985915238547509 -0.09812240723041644
0.6721335686453421 0.4495915553761168 -0.09812240723041644
0.5328332123826225 0.5343390025838517 -0.0974334836089391
0.6699880636527413 0.4240029637212438 -0.0974334836089391
0.6187911968109533 0.3191783138304549 -0.0974334836089391
0.47589859595053036 0.32843941565631474 -0.0974334836089391
0.4729952749743044 0.4367578924845959 -0.0974334836089391
0.3672750243755949 0.33423621584274554 -0.0974334836089391
0.5519360802295873 0.5339551737090285 -0.09694139530788383
0.46024034621095244 0.4539022488933608 -0.09615405402619545
0.4680743919637519 0.3726683121551604 -0.09615405402619545
