-0.2904788720008131 0.17064350356468788 -0.11689754846804674
-0.1589768206024492 0.4754230986823651 -0.11689754846804674
0.7048653000636617 0.2335836046609046 -0.11651301705861238
0.6339653987921533 0.17085115052578245 -0.11589776680351739
0.15252438355214057 0.4751308548111949 -0.11589776680351739
0.6458704912282413 0.38429684527460933 -0.11589776680351739
0.23735201247336135 0.0908224735943025 -0.11589776680351739
-0.08520831501656076 0.4868052284016222 -0.11589776680351739
0.223739600579385 0.4883433540393596 -0.1153594228303093
0.6854387732590375 0.3491583650804972 -0.1153594228303093
0.7424340187653989 0.278458420141895 -0.1153594228303093
0.39162601393842833 0.17502716163223958 -0.1153594228303093
0.13510511070476397 0.14629497471930397 -0.1153594228303093
0.4128290758546392 0.3152196228838201 -0.1153594228303093
0.25640169849673977 0.36666992546613814 -0.1153594228303093
0.2460578035829554 0.3989782544868135 -0.1153594228303093
0.08513909936286268 0.35025812491147945 -0.1153594228303093
0.27097543891430226 0.3787288304659998 -0.1153594228303093
0.3347615091112745 0.4648331036665426 -0.1153594228303093
0.5341179730184263 0.3688694451281026 -0.1153594228303093
0.20799688467714192 0.10984139710492616 -0.1153594228303093
0.44988252246773464 0.14351865794318783 -0.1153594228303093
0.7291369226271586 0.28844854615899973 -0.1153594228303093
-0.28820244605696166 0.14558743692594475 -0.1153594228303093
-0.13522047012759417 0.47960680041701087 -0.1153594228303093
-0.7183315900220528 0.37731375487928137 -0.1153594228303093
0.7384118202227156 0.32382543582696116 -0.11497489142087491
-0.7018813363264508 0.3802361935909825 -0.11435964116577994
0.5731863642169578 0.16462943232113444 -0.11435964116577994
0.6906914723119109 0.3608404292991131 -0.11435964116577994
0.4415074283702542 0.4665481137526198 -0.11435964116577994
0.43307080924726415 0.1615839435584143 -0.11382129719257182
0.42429580248397186 0.15720797611905118 -0.11382129719257182
0.12646084462067939 0.13738922727680408 -0.11382129719257182
-0.19891425278630226 0.24724985095220192 -0.11382129719257182
0.4009239834185513 0.13774299617348362 -0.11382129719257182
0.19750686782777263 0.15173224884870581 -0.11382129719257182
0.5118228418994218 0.161368605969131 -0.11382129719257182
0.5264888698552486 0.17336598594348318 -0.11382129719257182
0.20732010939653747 0.48320601440931665 -0.11382129719257182
0.7407343899356991 0.29501634263213866 -0.11382129719257182
0.13967334384884417 0.36221705174488816 -0.11382129719257182
0.42388819918997145 0.3313699420800635 -0.11382129719257182
0.530711024730838 0.4068226952392744 -0.11382129719257182
0.33184676102776206 0.3850351455807233 -0.11382129719257182
0.04606301753614255 0.29291680113662705 -0.11382129719257182
0.4707010529745111 0.1875167418106678 -0.11382129719257182
0.415220861221321 0.2692604288282249 -0.11382129719257182
-0.3672928663494217 0.15179377387421528 -0.11382129719257182
-0.28217299355703085 0.1466487436159835 -0.11382129719257182
-0.25304858460647206 0.4554966810454763 -0.11382129719257182
0.7374504916991296 0.3281014250998714 -0.11343676578313747
-0.5308955998073663 0.4260338844546154 -0.11282151552804248
0.25723228634111805 0.09161460829773736 -0.11282151552804248
0.6971746718749743 0.37539109783210955 -0.11282151552804248
0.38073608442324713 0.49694147635431213 -0.11282151552804248
-0.1857478973272696 0.23742122812705954 -0.11228317155483437
0.22375498183576223 0.15074015781236513 -0.11228317155483437
-0.18970088021625495 0.14026552221937308 -0.11228317155483437
0.11970847307101196 0.3654394249559481 -0.11228317155483437
0.08047857868051811 0.3207799470642411 -0.11228317155483437
0.26094685975625403 0.3153042197938957 -0.11228317155483437
0.5013328250500526 0.16489860430773848 -0.11228317155483437
0.0938756529852114 0.1453182649393406 -0.11228317155483437
0.4642024721550703 0.21624892872360343 -0.11228317155483437
0.5471535877982514 0.18521724398225026 -0.11228317155483437
0.5832764684005156 0.3948253152649222 -0.11228317155483437
0.24264316466717833 0.3768907703289035 -0.11228317155483437
0.15154767377217743 0.304991087392866 -0.11228317155483437
0.34849697105627 0.2807886804830672 -0.11228317155483437
0.35373428885276614 0.1235922403062991 -0.11228317155483437
0.5137685708311598 0.42557244676329414 -0.11228317155483437
0.5520602085826339 0.17737280322978927 -0.11228317155483437
-0.3692001421402162 0.218448448385568 -0.11228317155483437
-0.29254765098356994 0.13365927260529073 -0.11228317155483437
-0.1835406870371164 0.46848615205616906 -0.11228317155483437
0.7453795293616661 0.2538407193099069 -0.1118986401454
-0.723345879601077 0.3146120632569139 -0.11128338989030502
0.6548992887217602 0.19306168473471125 -0.11128338989030502
0.7656443346388572 0.32474062058141495 -0.11128338989030502
0.5093772221354194 0.4462909991036176 -0.11128338989030502
0.3606250917098298 0.14401854877545248 -0.11128338989030502
0.2597625030151962 0.3694923860113863 -0.11074504591709691
0.7617682580317586 0.28810246789050875 -0.11074504591709691
0.3929564926150712 0.11783195979297226 -0.11074504591709691
0.16500627310238017 0.30520642498214934 -0.11074504591709691
0.09120700500373685 0.1495481104431187 -0.11074504591709691
0.4803835538640683 0.1573156449136928 -0.11074504591709691
0.6781096045952184 0.2327683980729038 -0.11074504591709691
0.25237949995405634 0.48429039298392146 -0.11074504591709691
0.14729475638383338 0.23559085861815196 -0.11074504591709691
-0.0669969074657493 0.28489547593582615 -0.11074504591709691
0.22703118944414313 0.2902173906423978 -0.11074504591709691
0.6343653114579653 0.2277925616348231 -0.11074504591709691
0.6547147136452317 0.3457514167929087 -0.11074504591709691
0.43916947740089324 0.38632717111642284 -0.11074504591709691
0.14480299285069861 0.33686105060678617 -0.11074504591709691
0.4278258008225793 0.1862631694159117 -0.11074504591709691
-0.2882716617106598 0.14547207750311442 -0.11074504591709691
-0.16575995466487142 0.45688868474762856 -0.11074504591709691
-0.6818703217794865 0.14551822127224656 -0.11074504591709691
0.758292094090472 0.2639692766344081 -0.11036051450766256
-0.7030887649520747 0.3146120632569139 -0.10974526425256757
0.3924412205264291 0.16342200369551046 -0.10974526425256757
0.7960300066123606 0.27409783395890924 -0.10974526425256757
0.8061585639368618 0.3146120632569139 -0.10974526425256757
0.38073608442324713 0.4299484142026571 -0.10974526425256757
0.03544226000756541 0.14003480337371246 -0.10920692027935945
0.5404704319022822 0.19886810901717022 -0.10920692027935945
-0.18851652347519712 0.15858459856482623 -0.10920692027935945
0.21441855921469585 0.3578718468182798 -0.10920692027935945
-0.15513919713629426 0.1350743481920092 -0.10920692027935945
-0.0019111211048887355 0.22497010108957483 -0.10920692027935945
0.33180061725862997 0.22182463416040177 -0.10920692027935945
0.3137276410152149 0.19079294941904862 -0.10920692027935945
0.5886675987607853 0.31457361011597046 -0.10920692027935945
0.6400179231766503 0.22773103660931363 -0.10920692027935945
0.5556901850876942 0.22590066710040604 -0.10920692027935945
0.49297311220894935 0.1599381491260352 -0.10920692027935945
0.39667106603020724 0.33393092126689633 -0.10920692027935945
0.03671121365869875 0.3094593423704934 -0.10920692027935945
0.5235125967462266 0.4134212542251681 -0.10920692027935945
-0.2681529783690539 0.135274304524915 -0.10920692027935945
-0.2926014853808908 0.44702160878154285 -0.10920692027935945
0.28507236038416606 0.09353726534490918 -0.10882238886992508
0.6827393627648082 0.38551965515661063 -0.10882238886992508
-0.7132173222765757 0.27409783395890924 -0.1082071386148301
0.6416560269808407 0.18293312741021014 -0.1082071386148301
0.7543160393169207 0.2538407193099069 -0.1082071386148301
0.5529292495679556 0.43383218143794416 -0.1082071386148301
0.19187732799365356 0.4984872926202382 -0.1082071386148301
0.5034631290583188 0.15074015781236513 -0.107668794641622
0.7713353994984856 0.2967698058591593 -0.107668794641622
0.3168807985725766 0.10286599733778681 -0.107668794641622
-0.167959474326836 0.19693776134180968 -0.107668794641622
0.003941446946702256 0.3048987998546018 -0.107668794641622
0.4341782597064352 0.23736739372973878 -0.107668794641622
0.521043905097658 0.17048969100091416 -0.107668794641622
0.7065264757524179 0.2650997989781451 -0.107668794641622
0.7365276163164871 0.3157041324597074 -0.107668794641622
0.5388400187262803 0.3072598227085288 -0.107668794641622
0.3305316636074966 0.23058425966731658 -0.107668794641622
0.3959327657240932 0.286202882727903 -0.107668794641622
0.03557300068677306 0.2991231380848977 -0.107668794641622
-0.36461652773975856 0.15437013431742558 -0.107668794641622
-0.2905557782826999 0.1876628637462528 -0.107668794641622
-0.23651373400079448 0.4621721463132568 -0.107668794641622
0.7573384561950748 0.324494520479377 -0.10728426323218763
-0.5410241571318676 0.4665481137526198 -0.10666901297709265
0.40017030185606006 0.15254745543670675 -0.10666901297709265
0.7243918050347385 0.23572159929735972 -0.10666901297709265
0.7149938573881626 0.3634783147678329 -0.10666901297709265
0.42125031372125177 0.41785874669004064 -0.10666901297709265
0.08193210740818006 0.3113819994176652 -0.10613066900388454
0.6069559125934836 0.21794855755330336 -0.10613066900388454
-0.011801268955540596 0.3000383228393515 -0.10613066900388454
0.4795760379042562 0.4523358328599258 -0.10613066900388454
-0.16051494624018667 0.18196410825843554 -0.10613066900388454
0.21937901439639923 0.2422740145141212 -0.10613066900388454
0.5782467975651139 0.17917241022594205 -0.10613066900388454
0.6534303787377209 0.3706459802396894 -0.10613066900388454
0.7385271796455457 0.26673021215414683 -0.10613066900388454
0.6191378676443643 0.3812436658837005 -0.10613066900388454
0.30640616297958456 0.25757067398142025 -0.10613066900388454
-0.01687708356007418 0.280696392944803 -0.10613066900388454
0.4777456683953486 0.15099394854259182 -0.10613066900388454
0.6027645202306491 0.38286638843151355 -0.10613066900388454
-0.3726147810559933 0.15368566840863243 -0.10613066900388454
-0.16534466074268228 0.47054724041073726 -0.10613066900388454
-0.6754178847291779 0.1672673177898541 -0.10613066900388454
-0.6625745356540701 0.18293312741021014 -0.1051308873393552
-0.20152137574226722 0.12139272064433453 -0.1051308873393552
0.47595375202738444 0.20615882454004572 -0.1051308873393552
0.7901082229070713 0.3146120632569139 -0.1051308873393552
0.5574821014556584 0.4342090222191899 -0.1051308873393552
0.30495263425192276 0.49366526874593125 -0.1051308873393552
0.6399871606638956 0.36120957945217014 -0.10459254336614708
0.6206913745384791 0.370730577149765 -0.10459254336614708
0.22839243063354073 0.4731005289693814 -0.10459254336614708
0.7645753373206295 0.29280913234198547 -0.10459254336614708
0.6946598364572734 0.29443185488979845 -0.10459254336614708
0.25809363669825097 0.10188928755782356 -0.10459254336614708
0.6136159966048869 0.3956789749938666 -0.10459254336614708
-0.18551717848160906 0.13588955478001 -0.10459254336614708
-0.14644878728307756 0.1349666793973676 -0.10459254336614708
0.36604698458285445 0.24864185465435432 -0.10459254336614708
0.029951151480842694 0.2456117471480116 -0.10459254336614708
-0.3690001858073103 0.15439320620199165 -0.10459254336614708
-0.26839907847109185 0.13222881576219486 -0.10459254336614708
-0.1809258734529627 0.4527434361539262 -0.10459254336614708
0.28507236038416606 0.08163986353700986 -0.10420801195671271
0.279442820550047 0.5070700336788131 -0.10420801195671271
0.20155982888321075 0.11577087143840406 -0.10359276170161773
0.47595375202738444 0.20319024205921246 -0.10359276170161773
0.6542225134411558 0.17280457008570896 -0.10359276170161773
0.7295522165493477 0.3577334155108835 -0.10359276170161773
0.4111217563967506 0.40577676980561295 -0.10359276170161773
0.7110562557555548 0.358556312727073 -0.10305441772840962
0.7322054832744448 0.28512619478148676 -0.10305441772840962
0.45402008043324826 0.45438923058630526 -0.10305441772840962
0.6358111495574383 0.3754833853703738 -0.10305441772840962
0.28077329922668987 0.09762098891310207 -0.10305441772840962
0.39100307305514476 0.12256938675720362 -0.10305441772840962
-0.11035666919356815 0.25943949663127125 -0.10305441772840962
-0.10630370813812993 0.2271388582387847 -0.10305441772840962
0.03700345752986895 0.271498401631133 -0.10305441772840962
-0.2813885494817847 0.23444495501803755 -0.10305441772840962
-0.299999869698408 0.4464755741801461 -0.10305441772840962
-0.272013673719775 0.4595804046136693 -0.10305441772840962
0.778533827483097 0.27409783395890924 -0.10266988631897526
-0.7132173222765757 0.27409783395890924 -0.10205463606388028
0.5563669603682986 0.15254745543670675 -0.10205463606388028
0.559458592900151 0.2232320191189315 -0.10205463606388028
0.7960300066123606 0.27149071100294425 -0.10205463606388028
0.38073608442324713 0.4260338844546154 -0.10205463606388028
0.7242687549837196 0.34545148229354994 -0.10151629209067217
0.778802999469701 0.2945933580817609 -0.10151629209067217
0.44144590334474465 0.44407609818527555 -0.10151629209067217
0.6159616382024365 0.3838892419806089 -0.10151629209067217
0.6460550663047698 0.1968993082008663 -0.10151629209067217
0.29328595128968393 0.11066429432111569 -0.10151629209067217
-0.18041829199250933 0.2433353212041601 -0.10151629209067217
-0.36685450054266655 0.22168620285300542 -0.10151629209067217
-0.2684529128684127 0.13217498136487413 -0.10151629209067217
-0.17408121436503102 0.4593727576525746 -0.10151629209067217
-0.6920527135013084 0.15244747727025376 -0.10151629209067217
0.6542225134411558 0.40821469894142687 -0.10051651042614283
0.07685629280364638 0.4665481137526198 -0.10051651042614283
0.6867154175383595 0.35731812158869436 -0.10051651042614283
0.6230831599051609 0.22998439066859894 -0.10051651042614283
-0.005225781854212935 0.13202885942928902 -0.10051651042614283
-0.6625745356540701 0.16655977999649488 -0.10051651042614283
0.7079646232237026 0.2546713071542852 -0.09997816645293472
0.7546621175854118 0.27715870397800674 -0.09997816645293472
0.49248860263306216 0.42388819918997145 -0.09997816645293472
0.29907699431576557 0.09898992073068838 -0.09997816645293472
0.2588780807734971 0.0989591582179337 -0.09997816645293472
-0.18812430143757405 0.24581939410910603 -0.09997816645293472
-0.2848877853076374 0.14429541139024524 -0.09997816645293472
-0.16839784013359108 0.4701550183731143 -0.09997816645293472
-0.6718032894804948 0.16767492108385462 -0.09997816645293472
-0.5308955998073663 0.40577676980561295 -0.09897838478840539
-0.07680245840632552 0.12821430784770016 -0.09897838478840539
0.678763307991257 0.22344735670821478 -0.09897838478840539
0.6611286975545969 0.34590522935668244 -0.09897838478840539
0.7062880662785685 0.36983077365168854 -0.09897838478840539
0.39641727529998044 0.48681291902981094 -0.09897838478840539
0.7002201606376944 0.2609007159871219 -0.09844004081519726
0.75057070338903 0.29839252840697245 -0.09844004081519726
0.305683243929848 0.49469581292321546 -0.09844004081519726
0.32041848753937285 0.4775995464597635 -0.09844004081519726
0.5408472726835276 0.1516861050795737 -0.09844004081519726
-0.18518648146949548 0.13925035929846633 -0.09844004081519726
-0.2928629667393062 0.22729267080255844 -0.09844004081519726
-0.30257623014161816 0.4433762510201052 -0.09844004081519726
-0.6755716972929515 0.17029742529619693 -0.09844004081519726
-0.6828316503030724 0.16923611860615806 -0.0974402591506679
-0.6775328074810669 0.14131913828122325 -0.0974402591506679
0.6362956591333255 0.36416278067662605 -0.0974402591506679
0.3908646417477484 0.4159053271301142 -0.0974402591506679
0.7185238557267701 0.22344735670821478 -0.0974402591506679
0.4642024721550703 0.1132483453925146 -0.0974402591506679
0.7137633568779727 0.32727083725549316 -0.09690191517745979
0.7192775372892616 0.3284013595992302 -0.09690191517745979
0.38884200653412354 0.4717931221773046 -0.09690191517745979
0.2682221940227522 0.49727217336642554 -0.09690191517745979
0.343113531324189 0.12315387449954392 -0.09690191517745979
0.3942254462662046 0.12169265514369335 -0.09690191517745979
-0.1816641737590767 0.1355588577678965 -0.09690191517745979
-0.3763678076120727 0.22103249945696693 -0.09690191517745979
-0.2569938768672687 0.4497671630449042 -0.09690191517745979
0.4617645430192564 0.46547142580620365 -0.09651738376802545
0.6548992887217602 0.18293312741021014 -0.09651738376802545
-0.7334744369255782 0.15254745543670675 -0.09590213351293045
0.4520897327578877 0.4738849730446275 -0.09590213351293045
0.6548992887217602 0.3876038153957449 -0.09590213351293045
0.7490787215204248 0.24371216198540582 -0.09590213351293045
0.42125031372125177 0.16267601276120786 -0.09590213351293045
0.7448488760166467 0.3010150326193147 -0.09536378953972234
0.73065197638033 0.3409909179441112 -0.09536378953972234
0.44532197995184297 0.44142283146017847 -0.09536378953972234
0.32753231861390847 0.47401571372383516 -0.09536378953972234
0.5681413121251789 0.18337149321696536 -0.09536378953972234
0.4155823207461893 0.12073901724829605 -0.09536378953972234
-0.16266832213301913 0.15800011082248594 -0.09536378953972234
-0.2941626829031943 0.23494484585030231 -0.09536378953972234
-0.2522949030439807 0.4661866542277515 -0.09536378953972234
0.46799395185209314 0.11203322613870212 -0.09497925813028797
0.7224999105003214 0.36290920828187 -0.09497925813028797
-0.2721982487963035 0.12737602937513318 -0.094364007875193
0.24805736691201402 0.49694147635431213 -0.094364007875193
0.7105717461796676 0.37035373636851937 -0.094364007875193
0.6732337463235908 0.1984220525822263 -0.094364007875193
0.5756242933527718 0.43150961172496066 -0.094364007875193
0.6894917343144755 0.338783707653958 -0.09382566390198488
0.7241226330481345 0.24088201081196883 -0.09382566390198488
0.6407716047391417 0.3929564926150712 -0.09382566390198488
0.6214758186137253 0.4080762676340305 -0.09382566390198488
0.34756640504543895 0.46710952961039404 -0.09382566390198488
0.5713329228234842 0.16099176518788538 -0.09382566390198488
-0.18196410825843554 0.16239145951822637 -0.09382566390198488
-0.3070906288883776 0.15000954813443984 -0.09382566390198488
-0.2755129095456277 0.4646639098463916 -0.09382566390198488
-0.22393955691229073 0.47088562805103956 -0.09382566390198488
0.6745103906029128 0.19527658565305328 -0.09344113249255051
0.6310429600804522 0.37071519589338764 -0.09344113249255051
0.5992268312638529 0.15254745543670675 -0.09282588223745554
0.42125031372125177 0.20319024205921246 -0.09282588223745554
-0.7132173222765757 0.38208963498445614 -0.09282588223745554
0.6986435818590134 0.3799285684634349 -0.09282588223745554
0.7362123005607509 0.27762783229751675 -0.09228753826424743
0.714124816402841 0.2549020259999458 -0.09228753826424743
0.45968038278012224 0.46372565320737164 -0.09228753826424743
0.46215676505687936 0.45791153829672404 -0.09228753826424743
0.4737388511090424 0.1310367683929483 -0.09228753826424743
0.3935948147547323 0.11840875690712382 -0.09228753826424743
-0.16054570875294147 0.24180488619461135 -0.09228753826424743
-0.2913632942425121 0.2248470510385559 -0.09228753826424743
-0.27528219069996707 0.4649407724611843 -0.09228753826424743
-0.1350051325383109 0.4789223345082177 -0.09228753826424743
0.6378722379120065 0.22101711820058959 -0.09190300685481306
0.535602264258843 0.45641955642811877 -0.09190300685481306
-0.20189821652351295 0.12216178346320322 -0.09128775659971809
0.5300650119629882 0.13229034078770444 -0.09128775659971809
0.6465318852524685 0.4159053271301142 -0.09128775659971809
0.4985180551329929 0.45081308847856566 -0.09074941262650998
0.5388246374699031 0.43954631818213874 -0.09074941262650998
0.44945953791735677 0.4566041315046473 -0.09074941262650998
0.7988832296703636 0.29474717064553463 -0.09074941262650998
0.7308288608286697 0.3431519844651324 -0.09074941262650998
0.6788786674140871 0.2008830536026063 -0.09074941262650998
0.5182906602061079 0.16224533758264137 -0.09074941262650998
-0.15421632175365177 0.2465730756715975 -0.09074941262650998
-0.26493829578618266 0.13245184397966675 -0.09074941262650998
-0.25485588223081357 0.4680631675057912 -0.09074941262650998
-0.6905530410045144 0.15290891496157502 -0.09074941262650998
-0.5511527144563687 0.4260338844546154 -0.08974963096198062
0.3415984775710176 0.13105214964932577 -0.08974963096198062
0.8062739233596921 0.30448350593241263 -0.08974963096198062
0.33279270829497054 0.49334226236200635 -0.08974963096198062
0.46644813558616705 0.4392771461955347 -0.0892112869887725
0.4370545546490042 0.46516380067865626 -0.0892112869887725
0.4885279291158881 0.4583499041034793 -0.0892112869887725
0.4432839634818409 0.46052635188087776 -0.0892112869887725
0.7085875641069861 0.35175779740827345 -0.0892112869887725
0.6288588216748651 0.20170595081879583 -0.0892112869887725
-0.18180260506647308 0.21025792936461607 -0.0892112869887725
-0.3044450527914693 0.2221245686597606 -0.0892112869887725
-0.2659765305916554 0.46515611005046753 -0.0892112869887725
-0.17406583310865367 0.460418683086236 -0.0892112869887725
0.6628513982688629 0.40143156487900467 -0.08882675557933815
0.350342721821555 0.4462909991036176 -0.08821150532424316
0.7441259569669101 0.23669830907732298 -0.08821150532424316
0.3447208726156246 0.10035116192008608 -0.08821150532424316
-0.6654739024812051 0.16267601276120786 -0.08821150532424316
0.7960992222660589 0.2887254087737925 -0.08767316135103505
0.7353278783190519 0.34788941142936375 -0.08767316135103505
0.7774571395366808 0.265915005566146 -0.08767316135103505
0.5744322459835252 0.41001430593757954 -0.08767316135103505
0.5154143652635389 0.16160701544298034 -0.08767316135103505
0.6427019524145021 0.19954488429777467 -0.08767316135103505
-0.18480964068824973 0.16455252603924753 -0.08767316135103505
-0.28507236038416595 0.23462183946637744 -0.08767316135103505
-0.2643999518129745 0.44794448416418536 -0.08767316135103505
-0.7183315900220528 0.37731375487928137 -0.08767316135103505
0.6469317979182801 0.18410979352307935 -0.08728862994160068
-0.15586211618603082 0.12041601086437118 -0.08667337968650571
0.826415678585864 0.2335836046609046 -0.08667337968650571
0.350342721821555 0.45641955642811877 -0.08667337968650571
0.7595533571134169 0.2903250594370394 -0.0861350357132976
0.5782314163087368 0.1609225495341872 -0.0861350357132976
0.7148938792217097 0.22473169161572557 -0.0861350357132976
0.5735555143700148 0.1750348522604283 -0.0861350357132976
0.5964120613467935 0.4163898367060014 -0.0861350357132976
-0.18761671997712068 0.13691240832910548 -0.0861350357132976
-0.2655458554130889 0.2400975667367227 -0.0861350357132976
-0.26312330753365243 0.446498646064712 -0.0861350357132976
-0.675610150433895 0.17134335072985837 -0.0861350357132976
-0.6719494114160799 0.17482720529933374 -0.08513525404876826
0.3759755855744497 0.13229034078770444 -0.08513525404876826
0.8093809371479217 0.30448350593241263 -0.08513525404876826
-0.1459796589635677 0.4827830298589388 -0.08513525404876826
0.5730479329095615 0.40143156487900467 -0.08459691007556015
0.7381811013770548 0.2780969606170266 -0.08459691007556015
0.5809923518284753 0.41708968387117196 -0.08459691007556015
0.5994114063403814 0.17412735813416325 -0.08459691007556015
0.5425776640259825 0.4312250584819792 -0.08459691007556015
-0.2883331867361694 0.14354172982775387 -0.08459691007556015
-0.269821844685999 0.4495902785965644 -0.08459691007556015
-0.17982611362198042 0.4532971613835117 -0.08459691007556015
0.7741963131846774 0.34499773523041727 -0.08421237866612577
-0.6573987428830835 0.12216178346320322 -0.08359712841103081
-0.31540419796034863 0.11203322613870212 -0.08359712841103081
0.02659034696238637 0.13229034078770444 -0.08359712841103081
0.35664903693627853 0.11203322613870212 -0.08359712841103081
0.6469471791746576 0.22846164628723892 -0.08359712841103081
0.6568373270253095 0.3551262925549185 -0.08359712841103081
0.33279270829497054 0.4665481137526198 -0.08359712841103081
0.006702382466440951 0.45641955642811877 -0.08359712841103081
-0.3472203267769479 0.48681291902981094 -0.08359712841103081
-0.6573987428830835 0.37544493222943026 -0.08359712841103081
0.5693102876098595 0.40689960152116117 -0.08305878443782269
0.6073250627465406 0.20453610199223274 -0.08305878443782269
0.6162461914454178 0.40644585445802867 -0.08305878443782269
0.6488621455936407 0.207358562537481 -0.08305878443782269
-0.1565850352357675 0.12522265348230072 -0.08305878443782269
-0.36462421836794723 0.14705634690998393 -0.08305878443782269
-0.24714987278574896 0.4637025813228057 -0.08305878443782269
-0.6867307987947369 0.15074784844055386 -0.08305878443782269
-0.5341256636466151 0.14241889811220554 -0.08267425302838832
-0.20008322827098274 0.12093128295301328 -0.08267425302838832
0.14588737142530345 0.11203322613870212 -0.08267425302838832
0.42424965871483994 0.17280457008570896 -0.08267425302838832
0.7980603324541741 0.22344735670821478 -0.08267425302838832
0.49185797112158985 0.38551965515661063 -0.08267425302838832
0.16974370006661144 0.476676671077121 -0.08267425302838832
-0.17898014452122482 0.48681291902981094 -0.08267425302838832
-0.5207593518546765 0.45641955642811877 -0.08267425302838832
-0.6812550715243915 0.12216178346320322 -0.08205900277329332
-0.31142814318679735 0.11203322613870212 -0.08205900277329332
0.02659034696238637 0.11203322613870212 -0.08205900277329332
0.3884651657528778 0.13229034078770444 -0.08205900277329332
0.8258927158690333 0.22344735670821478 -0.08205900277329332
0.40039333007353195 0.43359377196409477 -0.08205900277329332
0.07032694947145095 0.4747232515171945 -0.08205900277329332
-0.2994999788661433 0.48129873861852207 -0.08205900277329332
-0.6335424142417756 0.38853438140657603 -0.08205900277329332
0.648485304812395 0.39510217787971497 -0.08152065880008522
0.6059792028135205 0.41420569830041426 -0.08152065880008522
0.6010110570036283 0.3885728345475195 -0.08152065880008522
0.7126328345342358 0.2338681579038861 -0.08152065880008522
-0.18386369342104128 0.23145330065263822 -0.08152065880008522
-0.28768717396831966 0.23113798489690207 -0.08152065880008522
-0.26639951514203325 0.46650966061167637 -0.08152065880008522
-0.34384414100211413 0.45434308681717317 -0.08152065880008522
-0.5142376991506697 0.48681291902981094 -0.08113612739065088
-0.18417900917677743 0.4863976251076218 -0.08113612739065088
0.20553588365676204 0.491727230442382 -0.08113612739065088
0.5236664093100004 0.37601403871539313 -0.08113612739065088
0.6071789408109555 0.21331879938371356 -0.08113612739065088
0.2651843958882206 0.11093346630771983 -0.08113612739065088
-0.09669042290227084 0.11203322613870212 -0.08113612739065088
-0.45458918691921113 0.12216178346320322 -0.08113612739065088
-0.571409829105371 0.40577676980561295 -0.08002098630329119
0.42125031372125177 0.4260338844546154 -0.08002098630329119
0.7072263229175885 0.3656316906606653 -0.07998253316234777
0.6380337411039689 0.3711920148410862 -0.07998253316234777
0.6425712117352944 0.3787749742351319 -0.07998253316234777
0.7234458577675301 0.23360667654547068 -0.07998253316234777
-0.18713221040123335 0.22405491633512103 -0.07998253316234777
-0.3734761314131263 0.2176409324257559 -0.07998253316234777
-0.2643999518129745 0.44794448416418536 -0.07998253316234777
-0.6758101067668009 0.17195860098495336 -0.07998253316234777
-0.5449925212772301 0.3945330713937522 -0.07844440752461031
-0.7184623307012606 0.377590617494074 -0.07844440752461031
-0.15973050216494053 0.16969755629747932 -0.07844440752461031
-0.2846570664619768 0.4502362913644142 -0.07844440752461031
0.7977065635574944 0.29701590596119737 -0.07844440752461031
-0.1272837418368689 0.48681291902981094 -0.07798296983328909
0.4523665953726805 0.21146535799023994 -0.07690628188687286
-0.7127558845852546 0.2165642444793397 -0.07690628188687286
-0.5451617150973813 0.3901494133262004 -0.07690628188687286
-0.158392332860109 0.12862191114170057 -0.07690628188687286
-0.25279479387624537 0.43463969739775643 -0.07690628188687286
0.3417753620193573 0.1207928516456169 -0.07690628188687286
0.4310327927772619 0.3943023525480916 -0.07690628188687286
-0.32987796021145815 0.4646716004745801 -0.07690628188687286
0.7309519108796889 0.34542841040898387 -0.07690628188687286
-0.2350602052731325 0.45014400382614994 -0.07536815624913541
0.4595650233572918 0.3771137985463754 -0.07536815624913541
-0.712525165739594 0.2328068512138472 -0.07536815624913541
-0.40013953934330515 0.4716162377289649 -0.07536815624913541
-0.2429354085383483 0.44759840589569433 -0.07536815624913541
-0.3030145959483734 0.19317704415754158 -0.07536815624913541
-0.18554794099436375 0.13319014428578077 -0.07536815624913541
0.4511053323497359 0.3772214673410171 -0.07536815624913541
0.657414124139461 0.22939990292625875 -0.07536815624913541
0.8015903307927816 0.34456706005185084 -0.07536815624913541
0.32565580533586874 0.4870897816446037 -0.07383003061139792
-0.2954777803234598 0.14423388636473577 -0.07383003061139792
-0.19372307875893835 0.14235737308669608 -0.07383003061139792
-0.711171615178385 0.33158527966934664 -0.07383003061139792
-0.30518335309758315 0.23222236347150702 -0.07383003061139792
-0.2768895319914027 0.43239403396665976 -0.07383003061139792
0.35579537720733434 0.1326825628253274 -0.07383003061139792
0.6120317271980172 0.2262544359970856 -0.07383003061139792
-0.36547787809689153 0.46799395185209314 -0.07383003061139792
0.8045204601326714 0.23958998527626943 -0.07383003061139792
-0.13417454469393275 0.46999351518115173 -0.07229190497366048
0.810826775247395 0.2525486937742074 -0.07229190497366048
0.8132185606140768 0.23783652204924866 -0.07075377933592303
0.21943284879372008 0.12181570519471227 -0.07075377933592303
-0.23589848374569938 0.46373334383556036 -0.07075377933592303
-0.0633900028452549 0.12691459168381192 -0.06921565369818558
-0.1561159069162575 0.10189697818601218 -0.0680466782135051
0.2608238097052351 0.4830752737301088 -0.06767752806044812
-0.4180433217665691 0.47095484370473767 -0.06613940242271064
-0.5158988748394262 0.13505896693563185 -0.0646012767849732
0.34342115645173643 0.11120263829432385 -0.06306315114723574
0.1572464292599946 0.1259917163011695 -0.06306315114723574
0.7188853152516383 0.23382201413475395 -0.06152502550949829
0.37871344920962235 0.15232442721923473 -0.06152502550949829
-0.36181713907907637 0.4711855625503983 -0.06152502550949829
-0.436516210675796 0.1337977039126871 -0.06152502550949829
0.06469740963733187 0.468786086555528 -0.05998689987176083
-0.4399769933607053 0.47080103114096405 -0.05998689987176083
-0.06885803948741155 0.46619434485594025 -0.05998689987176083
-0.19416913519388226 0.12926792390955033 -0.05998689987176083
0.022183617010268497 0.12536877541788582 -0.05998689987176083
0.6182380641462879 0.35865629089352596 -0.05998689987176083
-0.5449925212772301 0.3945330713937522 -0.05844877423402336
-0.6795631333228803 0.3733992251312395 -0.05844877423402336
-0.527288695186872 0.4672864140587338 -0.05844877423402336
-0.008863448987462014 0.12593019127565994 -0.05844877423402336
0.024313921018534884 0.4641563283859382 -0.05844877423402336
0.4727775225854565 0.36983077365168854 -0.05844877423402336
0.3412600899307152 0.11727054393519813 -0.056910648596285904
-0.4636026031563526 0.47160854710077615 -0.056910648596285904
-0.10689588650865885 0.4670249327003185 -0.056910648596285904
0.13793526187820085 0.47864547189342493 -0.056910648596285904
0.3577872499082042 0.45665027527377944 -0.056910648596285904
0.2767203381712516 0.12078516101742817 -0.056910648596285904
0.810703725196376 0.29199392575398453 -0.056910648596285904
-0.5446618242651166 0.39564821248111176 -0.055372522958548456
0.5702254723643133 0.3624939143596809 -0.055372522958548456
0.1717509540238588 0.4809526603500312 -0.055372522958548456
-0.16182235303226353 0.46837848326152737 -0.055372522958548456
-0.16470633860302125 0.12900644255113491 -0.055372522958548456
-0.5413856166567358 0.4006778833165132 -0.055372522958548456
-0.619737736643082 0.13678166764989771 -0.055372522958548456
-0.18610935685213797 0.22144779337915604 -0.053834397320811
-0.28618750147152555 0.23437573936433936 -0.053834397320811
-0.15574675676320052 0.2419279362456304 -0.05229627168307355
-0.3092055516402667 0.22487012292312195 -0.05229627168307355
-0.27830460757812114 0.26551509290033426 -0.05129649001854418
-0.22393955691229073 0.11825494434335011 -0.05129649001854418
-0.15744638559290045 0.248795667218128 -0.05075814604533607
-0.3748681351152787 0.15130926429832808 -0.05075814604533607
-0.18602475994206236 0.24704989461929608 -0.04922002040759862
-0.3749142788844108 0.15126312052919597 -0.04922002040759862
-0.16826709945438342 0.12058520468452233 -0.04895853904918326
-0.19229262191584257 0.2458040128527287 -0.04768189476986117
-0.2929937074185138 0.14787155349798484 -0.04768189476986117
-0.1358511016390665 0.10189697818601218 -0.04662058807982231
-0.18533260340508056 0.12655313215894365 -0.046143769132123716
-0.2692142850590928 0.23923621637958975 -0.046143769132123716
-0.19526120439667582 0.12479197830373426 -0.04460564349438626
-0.2657765742587495 0.23679828724377594 -0.04460564349438626
-0.25740148016126907 0.22344735670821478 -0.04428263711046138
-0.1794492728407348 0.23896704439298574 -0.043067517856648786
-0.26239269785572716 0.23702131546124786 -0.043067517856648786
-0.30805195741196356 0.2449272812392183 -0.04194468614110046
-0.16732884281536356 0.1381352182111067 -0.04152939221891133
-0.3751603789864488 0.15080937346606332 -0.04152939221891133
-0.15230904596285727 0.24096660772204448 -0.039991266581173884
-0.2860644514205066 0.23469874574826424 -0.039991266581173884
-0.19914497163196287 0.2335836046609046 -0.039606735171739516
-0.18609397559576055 0.24751133231061734 -0.03845314094343643
-0.2891560839523589 0.2306304034364487 -0.03845314094343643
-0.2541791069502091 0.2280540429932385 -0.03806860953400206
-0.1850095970211557 0.1396887251052215 -0.036915015305698975
-0.30870566080800205 0.22508546051240513 -0.036915015305698975
-0.2776662854384601 0.2639692766344081 -0.03653048389626461
-0.1562158850827105 0.24616547237759698 -0.0353768896679615
-0.3347230559703311 0.1483022286765513 -0.0353768896679615
-0.29810028453580223 0.1289987519229462 -0.03499235825852716
-0.1883242577704799 0.24627314117223867 -0.033838764030224046
-0.37133044614848254 0.15369335903682105 -0.033838764030224046
-0.2833342784135226 0.18197948951481296 -0.033838764030224046
-0.1802644794287356 0.1693284061444223 -0.0323006383924866
-0.3650779654310798 0.22483166978217844 -0.0323006383924866
-0.29401656096760925 0.13218267199306272 -0.0323006383924866
-0.1257225443145654 0.13229034078770444 -0.030993231600409746
-0.17171250088291537 0.133751560143555 -0.030762512754749144
-0.2626080354450103 0.2372212717941537 -0.030762512754749144
-0.18171031752820882 0.14832530056111737 -0.029224387117011693
-0.37133044614848254 0.15370104966500978 -0.029224387117011693
-0.29178627879289 0.1820256332839451 -0.029224387117011693
-0.17992609178843338 0.16342200369551046 -0.027686261479274214
-0.3650702748028911 0.2248547416667445 -0.027686261479274214
-0.37779826445516856 0.22552382631916032 -0.027686261479274214
-0.30805195741196356 0.11203322613870212 -0.026148135841536763
-0.3070521757474342 0.15296274935889576 -0.026148135841536763
-0.3746374162696181 0.14809458171545675 -0.026148135841536763
-0.1878474388227813 0.24645771624876717 -0.02461001020379931
-0.28128857131533175 0.13428990411676306 -0.02461001020379931
-0.27344413056287076 0.12619936326226408 -0.02361022853926997
-0.16001505540792202 0.14544900561854837 -0.023071884566061858
-0.19213111872388014 0.18761671997712068 -0.02207210290153252
-0.1814334549134161 0.22435485083447984 -0.021533758928324407
-0.29203237889492795 0.1414191164476762 -0.021533758928324407
-0.2776662854384601 0.18293312741021014 -0.02053397726379504
-0.18739369175964876 0.19816826185199962 -0.01999563329058693
-0.2687605379959602 0.24349682439612252 -0.01999563329058693
-0.1819179644893034 0.23967458218634496 -0.018457507652849474
-0.1719124572158212 0.13355929443883777 -0.018457507652849474
-0.19663013621426215 0.18293312741021014 -0.017457725988320134
-0.186747678991799 0.2456963440580871 -0.016919382015112023
-0.26676866529509025 0.24125116096502583 -0.016919382015112023
-0.3001306103776156 0.14241889811220554 -0.015919600350582683
-0.15317039631999033 0.2466115288125409 -0.015381256377374572
-0.2961161024631209 0.13475903243627302 -0.015381256377374572
-0.2776662854384601 0.19264639081252224 -0.014381474712845232
-0.15086320786338417 0.13307478486295046 -0.013843130739637121
-0.14644109665488894 0.21331879938371356 -0.012843349075107754
-0.1800029980703202 0.17349672662269083 -0.01230500510189964
-0.28441096635993884 0.1374046085331814 -0.01230500510189964
-0.19478438544897725 0.21331879938371356 -0.011305223437370301
-0.1823640209242472 0.2202480553817209 -0.01076687946416219
-0.28865619312009416 0.23429883308245256 -0.01076687946416219
-0.3002921135695781 0.2335836046609046 -0.00976709779963285
-0.1840559591257584 0.179372366558848 -0.009228753826424737
-0.2925015072144378 0.23389122978845214 -0.009228753826424737
-0.14823301302285302 0.11958542301999302 -0.008228972161895397
-0.1845020155607023 0.24813427319390094 -0.007690628188687286
-0.27877373589763105 0.2422740145141212 -0.007690628188687286
-0.2776662854384601 0.21331879938371356 -0.0066908465241579465
-0.19323087855486243 0.12400753422848812 -0.006152502550949834
-0.14615654341190748 0.20319024205921246 -0.005152720886420468
-0.18325613379413494 0.18477887817549507 -0.0046143769132123555
-0.16791333055770385 0.13755842109695512 -0.0046143769132123555
-0.19032382109953863 0.17222777297155747 -0.0036145952486830155
-0.18644005386425147 0.24620392551854048 -0.0030762512754749036
-0.29223233522783376 0.22999208129678766 -0.0030762512754749036
-0.3004920699024839 0.15254745543670675 -0.002076469610945564
-0.1839867434720602 0.24818041696303306 -0.0015381256377374518
-0.26912199752082855 0.12992162730558868 -0.0015381256377374518
-0.14917126966187286 0.12511498468765914 0.0
-0.29610072120674347 0.24088970144015756 0.0
-0.27915057667887677 0.21331879938371356 2.8455324298142214E-4
-0.15070170467142172 0.13329781308042246 0.0015381256377374518
-0.28392645678405154 0.1434802048022444 0.0015381256377374518
-0.1257225443145654 0.2639692766344081 0.0026378854687197388
-0.1833176588196445 0.24810351068114625 0.003076251275474931
-0.2666148527313164 0.23759811257539942 0.003076251275474931
-0.18386369342104128 0.248380373295939 0.004614376913212382
-0.16969755629747932 0.19519967937116636 0.004614376913212382
-0.19663013621426215 0.17524249922152288 0.004998908322646752
-0.1855325597379864 0.13161356550709988 0.006152502550949834
-0.1675595616610242 0.14214203549741278 0.006152502550949834
-0.2692219756872815 0.243927499574689 0.006152502550949834
-0.2667148308977694 0.1358203391263118 0.007690628188687286
-0.18588632863466598 0.12703764173483095 0.007690628188687286
-0.1802337169159808 0.19486898235905276 0.007690628188687286
-0.2776662854384601 0.21331879938371356 0.008690409853216625
-0.18198718014300158 0.24150495169525252 0.009228753826424737
-0.18395598095930554 0.21258049907759968 0.009228753826424737
-0.1257225443145654 0.12216178346320322 0.010228535490954104
-0.1625145095692454 0.2347525801455851 0.010766879464162217
-0.1825409053725871 0.21363411513944983 0.010766879464162217
-0.3008612200555409 0.19306168473471125 0.011766661128691557
-0.26084688158980096 0.24603473169838933 0.012305005101899668
-0.1840867216385132 0.18188720197654873 0.012305005101899668
-0.30805195741196356 0.12216178346320322 0.013304786766429008
-0.1576463419258063 0.2379595721002677 0.013843130739637121
-0.17975689796828223 0.20250577615041931 0.013843130739637121
-0.2557864482416448 0.13229034078770444 0.01484291240416646
-0.15566215985312498 0.1297062897163054 0.015381256377374572
-0.3034221992423738 0.18293312741021014 0.01576578778680894
-0.28481856965393926 0.1368508833035959 0.016919382015112023
-0.1529012243333863 0.13274408785083697 0.016919382015112023
-0.23098417233312823 0.14241889811220554 0.01791916367964139
-0.26806069083078965 0.1358203391263118 0.0184575076528495
-0.15310118066629214 0.23657525902630394 0.0184575076528495
-0.2776662854384601 0.18293312741021014 0.01945728931737884
-0.29052501576994527 0.13676628639352037 0.019995633290586956
-0.17928007902058363 0.2073278000247262 0.019995633290586956
-0.1787109725346208 0.1201699107623332 0.020995414955116296
-0.1431802703028855 0.12330768706331763 0.020995414955116296
-0.18389445593379597 0.1693207155162337 0.021533758928324407
-0.18826273274497043 0.19306168473471125 0.021918290337758748
-0.27951203620374504 0.16267601276120786 0.022533540592853774
-0.15645429455655974 0.2367829059873985 0.023071884566061886
-0.30113808267033365 0.1604072774455451 0.023456415975496227
-0.1501095263008928 0.2554096074603992 0.024071666230591197
-0.18121042669594417 0.13136746540506192 0.02461001020379931
-0.1257225443145654 0.20319024205921246 0.025609791868328676
-0.29022508127058644 0.16723655527709944 0.026148135841536788
-0.16276060967128336 0.23643682771890756 0.026148135841536788
-0.30805195741196356 0.20319024205921246 0.02745554263361364
-0.29703897784576333 0.24032059495419472 0.027686261479274214
-0.270560144992113 0.1360049142028403 0.029224387117011693
-0.15591595058335167 0.23651373400079448 0.029224387117011693
-0.18031062319786773 0.11783965042116099 0.02930129339889855
-0.16349121934920866 0.23698286232030444 0.03076251275474917
-0.29358588578904277 0.24232015828325335 0.03076251275474917
-0.29590076487383765 0.20362091723777895 0.0323006383924866
-0.18079513277375506 0.1311751997003447 0.0323006383924866
-0.30805195741196356 0.20319024205921246 0.033300420057015966
-0.2930706137004008 0.1636604131693598 0.033838764030224074
-0.15556218168667202 0.13782759308355927 0.033838764030224074
-0.30443736216328054 0.20105993805094607 0.034838545694753385
-0.26736084366561913 0.24243551770608365 0.0353768896679615
-0.18064901083816995 0.24235861142419685 0.0353768896679615
-0.28757181454548936 0.19687623631630022 0.03637667133249087
-0.27089084200422664 0.2435891119343868 0.036915015305698975
-0.15503152834165257 0.2082737472919348 0.036915015305698975
-0.30805195741196356 0.2335836046609046 0.03791479697022834
-0.2967236620900272 0.22458556968014048 0.03845314094343646
-0.15310887129448075 0.20856599116310487 0.03845314094343646
-0.30805195741196356 0.20441305194121379 0.03945292260796577
-0.1548238813805581 0.2276079865582946 0.039991266581173884
-0.2851338854096754 0.14390318935262217 0.039991266581173884
-0.30071509811995595 0.16713657711064644 0.04099104824570325
-0.15970743028037448 0.14459534588960404 0.04152939221891136
-0.14281881077801722 0.13229034078770444 0.04252917388344067
-0.15487002514969025 0.23366051094279153 0.043067517856648786
-0.2964775619879892 0.13127517786679765 0.043067517856648786
-0.3046834622653185 0.21331879938371356 0.04406729952117815
-0.291047978486776 0.1463411184884361 0.04460564349438626
-0.19545347010139294 0.12216178346320322 0.04560542515891563
-0.14973268551964708 0.12542260981520667 0.046143769132123744
-0.14113456320469475 0.15254745543670675 0.047143550796653055
-0.14611039964277533 0.22960754988735332 0.04768189476986117
-0.2938781296602129 0.2426354740389896 0.04768189476986117
-0.14957118232768465 0.24805736691201413 0.049220020407598646
-0.29633913068059287 0.22229376247991164 0.049220020407598646
-0.1605995431502622 0.24395826208744378 0.05075814604533607
-0.2842494631679764 0.23720589053777635 0.05075814604533607
-0.1542624655227839 0.23798264398483376 0.05229627168307355
-0.2913094598451914 0.23705207797400263 0.05229627168307355
-0.1564696758129372 0.24181257682280005 0.05383439732081103
-0.29117871916598365 0.23145330065263822 0.05383439732081103
-0.14551053064405772 0.1447645397097552 0.055372522958548456
-0.3019840517710893 0.13805831192921988 0.05571091059885073
-0.14654876544953055 0.12295391816663796 0.05691064859628593
-0.14324948595658368 0.11903938841859613 0.0581334584782872
-0.15977664593407268 0.1447645397097552 0.05844877423402336
-0.15667732277403176 0.23166863824192152 0.05998689987176083
-0.2692604288282249 0.24153571420800732 0.05998689987176083
-0.15760019815667414 0.24449660606065185 0.061525025509498316
-0.2918401131902107 0.22911534968327726 0.061525025509498316
-0.16129169968724408 0.24419667156129304 0.06306315114723574
-0.29790032820289636 0.14190362602356354 0.06306315114723574
-0.15929213635818534 0.1368893364445394 0.06460127678497322
-0.1561159069162575 0.10189697818601218 0.06537803023203063
-0.18317922751224813 0.12513036594403648 0.06613940242271064
-0.1257225443145654 0.16267601276120786 0.06767752806044812
-0.15291660558976364 0.1310367683929483 0.06767752806044812
-0.18270240856454953 0.24338146497329222 0.06921565369818561
-0.2998383665064455 0.14244196999677158 0.06921565369818561
-0.2776662854384601 0.2639692766344081 0.07021543536271492
-0.29470102687640237 0.13329012245223373 0.07075377933592303
-0.1817718425537183 0.12677616037641554 0.0722919049736605
-0.14112687257650602 0.14952503855855262 0.07263029261396273
-0.15255514606489537 0.13498206065374493 0.07383003061139792
-0.1561159069162575 0.21331879938371356 0.07505284049339925
-0.14393395186537683 0.22870005576108815 0.07536815624913541
-0.28581066069027994 0.23021510951425955 0.07536815624913541
-0.29706974035851813 0.14978651991696793 0.07690628188687289
-0.30805195741196356 0.21331879938371356 0.07746769774464707
-0.14368785176333887 0.13643558938140676 0.07844440752461031
-0.19663013621426215 0.14241889811220554 0.0799825331623478
-0.15162458005406412 0.13828903077488042 0.0799825331623478
-0.2681837408818087 0.24541179081510564 0.0799825331623478
-0.2963160587960268 0.14724861261470115 0.08152065880008522
-0.30805195741196356 0.17280457008570896 0.08229741224714268
-0.1583154265782221 0.13524354201216035 0.08305878443782269
-0.1257225443145654 0.17280457008570896 0.08459691007556018
-0.14321103281564027 0.22870774638927688 0.08459691007556018
-0.2672301029864115 0.23872094429094776 0.08459691007556018
-0.17210472292053844 0.12332306831969497 0.0861350357132976
-0.2493801549604682 0.22896153711950357 0.08713481737782697
-0.19703004888007394 0.2511028556747343 0.08767316135103508
-0.2916093943445501 0.22004040842062633 0.08767316135103508
-0.2810501618414825 0.21331879938371356 0.08867294301556439
-0.15130157367013924 0.13498206065374493 0.0892112869887725
-0.28784098653209333 0.23355284214814984 0.0892112869887725
-0.24461965611167077 0.23109953175595868 0.09021106865330186
-0.15432399054829335 0.2381364565486075 0.09074941262650998
-0.2847185914874863 0.14147295084499695 0.09074941262650998
-0.23714436551226678 0.13229034078770444 0.09113394403594433
-0.2900712687068127 0.17541169304167403 0.09174919429103935
-0.14639495288575682 0.2520564935701315 0.09228753826424746
-0.29656215889806475 0.1298908647928339 0.09228753826424746
-0.3074520884132459 0.19306168473471125 0.0926720696736818
-0.2776662854384601 0.17541169304167403 0.09328731992877677
-0.20015244392468093 0.24810351068114625 0.09382566390198488
-0.28602599827956315 0.1660829610487963 0.09382566390198488
-0.24382752140823602 0.22943835606720214 0.09421019531141928
-0.30805195741196356 0.15254745543670675 0.09482544556651425
-0.15686958847874888 0.22870774638927688 0.09536378953972237
-0.2901789375014543 0.23542166479800092 0.09536378953972237
-0.1393503374649193 0.2527717219916794 0.09636357120425168
-0.21996350213873941 0.2538407193099069 0.09636357120425168
-0.14224201366386563 0.14474915845337777 0.09690191517745979
-0.25830897428753413 0.24704220399110735 0.09690191517745979
-0.18399443410024893 0.2552634855248141 0.09790169684198916
-0.1501710513264023 0.1382813401466918 0.09844004081519726
-0.29650063387255526 0.21489537816239457 0.09844004081519726
-0.16102252770064004 0.24812658256571232 0.09997816645293475
-0.2792813173580844 0.13495898876917886 0.09997816645293475
-0.30805195741196356 0.2538407193099069 0.10097794811746406
-0.14676410303881382 0.23662140279543606 0.10151629209067217
-0.1257225443145654 0.24371216198540582 0.10251607375520154
