0.23342978295717912 0.3289580958624432 -0.13927965686636176
0.3633397174525311 0.31615021133242444 -0.13927965686636176
0.4523618198132686 0.28072642727487496 -0.13927965686636176
0.14296618484705537 0.42169107579423537 -0.13927965686636176
0.11821726120387879 0.303926716971076 -0.13927965686636176
0.24634480568478717 0.15912457301078214 -0.13927965686636176
0.4680332161697704 0.34079199677801153 -0.13927965686636176
0.13623595807120525 0.41087011783769506 -0.13927965686636176
0.13166797491943444 0.510615779793528 -0.13927965686636176
0.42101902710026495 0.6431067708671728 -0.13927965686636176
0.5653926182702007 0.5864209245061778 -0.13927965686636176
0.5900928427326548 0.1857532850298475 -0.13927965686636176
0.22062189842716043 0.39889985921610355 -0.13927965686636176
0.6874327651607961 0.53301740292588 -0.13801347816757667
0.3661253105898583 0.5201900387235724 -0.13801347816757667
0.33582468034431623 0.2764506392074392 -0.13801347816757667
0.2522958455690772 0.46780919993844694 -0.13733168963746162
0.3464800610864002 0.5752103731038575 -0.13733168963746162
0.3598918154573778 0.3110562770288506 -0.13733168963746162
0.1374923969338459 0.3954909165655282 -0.13733168963746162
0.12657404061586053 0.32424401516850465 -0.13733168963746162
0.47805550756246185 0.6167897336047315 -0.13733168963746162
0.32748738060462357 0.6267243664721223 -0.13733168963746162
0.22795599504396954 0.16255299533364648 -0.13733168963746162
0.48993810765875284 0.3322599003154289 -0.13733168963746162
0.47083828897938673 0.3813097151391351 -0.13733168963746162
0.45373513670964327 0.35595692165499937 -0.13733168963746162
0.47803602789017274 0.3482916706092773 -0.13733168963746162
0.617033229508344 0.4786398977311318 -0.13733168963746162
0.42376566089301415 0.11113640032682666 -0.13733168963746162
0.6746054009584884 0.53301740292588 -0.1360655109386765
0.3178157233131342 0.49453531031895703 -0.1360655109386765
0.4413460651338382 0.2636232750051315 -0.1360655109386765
0.2641005269762121 0.12406116289057924 -0.1360655109386765
0.24343259467758135 0.4661923871384597 -0.13538372240856145
0.3026897577807244 0.20971328194531946 -0.13538372240856145
0.3011119043253153 0.2387477334920765 -0.13538372240856145
0.14510894879884553 0.42263583990025205 -0.13538372240856145
0.4069449638714613 0.11765235070749767 -0.13538372240856145
0.5692690730557121 0.5902681597832558 -0.13538372240856145
0.14714457455304622 0.6069427592626411 -0.13538372240856145
0.09389689035106023 0.22048554072113746 -0.13538372240856145
0.5003694721695132 0.3262406815781273 -0.13538372240856145
0.5241346723620951 0.6201012778938616 -0.13538372240856145
0.6051019302313306 0.5701261786364279 -0.13538372240856145
0.6144521729300515 0.5435559056342298 -0.13538372240856145
0.47401347556249396 0.2927356452410445 -0.13538372240856145
0.2788271592266974 0.3904651611149658 -0.13538372240856145
0.4587316726517721 0.32776983585281405 -0.13411754370977635
0.5591493833015758 0.30211510744819886 -0.13411754370977635
0.6104588401108059 0.5971542239374178 -0.13411754370977635
0.3505902719393795 0.46513074499870916 -0.13343575517966128
0.30437474943372306 0.30767655388670884 -0.13343575517966128
0.32742894158775654 0.18619157765635005 -0.13343575517966128
0.39799405445466496 0.38574134058488296 -0.13343575517966128
0.4250220997556548 0.1682702791504685 -0.13343575517966128
0.14641408684220864 0.49771049690206454 -0.13343575517966128
0.3111536753902956 0.6288573905877679 -0.13343575517966128
0.14546932273619212 0.40963315864734334 -0.13343575517966128
0.4175321657605336 0.11308436755572684 -0.13343575517966128
0.45784534756262263 0.38236161744274105 -0.13343575517966128
0.4530436083433836 0.3579828075730555 -0.13343575517966128
0.47127658160588914 0.3537362390140532 -0.13343575517966128
0.30437474943372306 0.3880204622426961 -0.13343575517966128
0.526209257460874 0.3022904244987999 -0.13343575517966128
0.3193253979155318 0.32098117006009697 -0.13216957648087618
0.5463220190992681 0.32776983585281405 -0.13216957648087618
0.3923839088354325 0.6613007847851003 -0.13216957648087618
0.37827088626205085 0.5696489266653476 -0.13148778795076113
0.37575800853676966 0.43987534987601845 -0.13148778795076113
0.22661189765602852 0.33240599785759645 -0.13148778795076113
0.14001501449527162 0.593462826038652 -0.13148778795076113
0.3881860394571527 0.11319150575331631 -0.13148778795076113
0.149452915719293 0.4969800091912268 -0.13148778795076113
0.3605443844790593 0.633698089151585 -0.13148778795076113
0.1836592202587798 0.1817404725383131 -0.13148778795076113
0.468744224208319 0.2901545886627518 -0.13148778795076113
0.4172497105123431 0.6422107059418786 -0.13148778795076113
0.4292199691339346 0.6460189818743783 -0.13148778795076113
0.49455478999124614 0.5806354618363444 -0.13148778795076113
0.5229756318608995 0.30664413125539164 -0.13148778795076113
0.36720643240189793 0.6508499406020508 -0.13100079614353607
0.315419723621587 0.5843268597351101 -0.130221609251976
0.6489506725538734 0.19948645399359363 -0.130221609251976
0.3991628347920051 0.16100436138667093 -0.130221609251976
0.35150581653696256 0.4535695594951867 -0.12953982072186096
0.48799988026599705 0.44017728479649804 -0.12953982072186096
0.47124736209745566 0.4417453984157627 -0.12953982072186096
0.4789223529793224 0.3425549071201662 -0.12953982072186096
0.4479107146952317 0.2988327826675021 -0.12953982072186096
0.5722786824243628 0.5966867118024817 -0.12953982072186096
0.16373151550713116 0.19627230806590837 -0.12953982072186096
0.475084857538389 0.5825639493929556 -0.12953982072186096
0.561525903320834 0.15064117572892197 -0.12953982072186096
0.4239507177797597 0.3761963011632721 -0.12953982072186096
0.333389721308191 0.31300424425775075 -0.12953982072186096
0.11574334282317554 0.32214021056129255 -0.12953982072186096
0.13964490072178062 0.6013910526602756 -0.12953982072186096
0.321877234985391 0.108711181126846 -0.12827364202307584
0.3744528704934066 0.34059720005512156 -0.12827364202307584
0.4328431881796889 0.6537426719369676 -0.12827364202307584
0.5719767475038832 0.12252226877974809 -0.12827364202307584
0.2533964470534058 0.5581851395232699 -0.1275918534929608
0.11174027016778582 0.30929336668669594 -0.1275918534929608
0.33118851833953383 0.3116504070336652 -0.1275918534929608
0.4855454415575829 0.38486475533187786 -0.1275918534929608
0.47362388211671386 0.4418427967772076 -0.1275918534929608
0.5042264472827356 0.327730876508236 -0.1275918534929608
0.45690058345660595 0.2830542481134107 -0.1275918534929608
0.43230749719174144 0.6435255838213861 -0.1275918534929608
0.44843666584703473 0.09762724759440401 -0.1275918534929608
0.48638306746600996 0.4014516962859628 -0.1275918534929608
0.492217229316566 0.3895398766812383 -0.1275918534929608
0.4204735962761729 0.375495032960868 -0.1275918534929608
0.6874327651607961 0.53301740292588 -0.12632567479417567
0.4180386372400477 0.60999132797587 -0.12632567479417567
0.2641005269762121 0.1866590897912861 -0.12632567479417567
0.32202333252755855 0.5494192869932194 -0.12564388626406062
0.35829448232967964 0.5599577897015692 -0.12564388626406062
0.13478472248567477 0.32264668204080654 -0.12564388626406062
0.20497972157909217 0.23851397742460848 -0.12564388626406062
0.5921674278314335 0.5790381287086463 -0.12564388626406062
0.2851775323929119 0.1379988684133599 -0.12564388626406062
0.3976921195341855 0.37250490326450625 -0.12564388626406062
0.3168709592071176 0.11909384645688376 -0.12564388626406062
0.47560106885404757 0.5789212506749123 -0.12564388626406062
0.5186803641211749 0.327477640768479 -0.12564388626406062
0.498051391167122 0.4015685743196968 -0.12564388626406062
0.45853687592888215 0.10852612424010043 -0.12564388626406062
0.5334946548969605 0.34059720005512156 -0.12437770756527551
0.2905441821085319 0.2877975483157825 -0.12437770756527551
0.3641189043440911 0.468880581914342 -0.12437770756527551
0.5719767475038832 0.36625192845973675 -0.12437770756527551
0.3845336009029649 0.5704378533930521 -0.12369591903516046
0.16348801960351858 0.5128462022706185 -0.12369591903516046
0.30477408271564754 0.21738827282718606 -0.12369591903516046
0.4810456372588235 0.44409269892658737 -0.12369591903516046
0.4784353611720973 0.6348181703082026 -0.12369591903516046
0.5973003214795852 0.2101223550633885 -0.12369591903516046
0.457231737885519 0.3501811988213103 -0.12369591903516046
0.5842294613736653 0.5916609563519194 -0.12369591903516046
0.33068204686001984 0.11107796130995964 -0.12369591903516046
0.4761951988588622 0.5668730733641649 -0.12369591903516046
0.6356070970359072 0.5279819076391729 -0.12369591903516046
0.41757112510511163 0.6613007847851003 -0.12320892722793543
0.2641005269762121 0.19948645399359363 -0.12242974033637535
0.4693578338854226 0.49453531031895703 -0.12242974033637535
0.6617780367561807 0.5868007781158134 -0.12242974033637535
0.34941175176589484 0.4566083883722709 -0.1217479518062603
0.3454281587827941 0.44130710578926013 -0.1217479518062603
0.30317674958794943 0.30938102521199645 -0.1217479518062603
0.3066538710915362 0.20985937948748698 -0.1217479518062603
0.4921880098081325 0.6291982848528257 -0.1217479518062603
0.41094803652685113 0.10271144206183336 -0.1217479518062603
0.4016854523534308 0.3770436669078437 -0.1217479518062603
0.5819016405351296 0.2530750324606371 -0.1217479518062603
0.315789837395078 0.38609197468608497 -0.1217479518062603
0.6459313233490781 0.5343128011330984 -0.1217479518062603
0.4986650008442256 0.6252146918697247 -0.1217479518062603
0.48449353925397676 0.29147920637840385 -0.1217479518062603
0.4180386372400477 0.6599469475610146 -0.12048177310747518
0.45653046968311495 0.40473402106665946 -0.12048177310747518
0.35713544182848406 0.08403043633668085 -0.12048177310747518
0.35009354029601 0.5665419189352516 -0.11979998457736012
0.3424769884310103 0.5667269758219973 -0.11979998457736012
0.2299818809620257 0.32753607978534605 -0.11979998457736012
0.20757051799352944 0.23762765233545882 -0.11979998457736012
0.5661328458171827 0.6017319469253332 -0.11979998457736012
0.32825682766003905 0.12027236663036846 -0.11979998457736012
0.4367975616543563 0.3637682702428891 -0.11979998457736012
0.5152324621260215 0.11332786345933929 -0.11979998457736012
0.48862322977924516 0.38833213699932007 -0.11979998457736012
0.6245913423564767 0.4541442098277122 -0.11979998457736012
0.4842013441696419 0.29041756423865334 -0.11979998457736012
0.5053367886032085 0.6151631809685999 -0.11979998457736012
0.6104588401108059 0.30211510744819886 -0.11853380587857502
0.32824708782389467 0.2379685466005163 -0.11853380587857502
0.36396306696577907 0.4817079461166495 -0.11853380587857502
0.5206672906946528 0.3761183824741161 -0.11853380587857502
0.35404791377067724 0.5527113516100606 -0.11785201734845996
0.1312296822929319 0.5107326578272621 -0.11785201734845996
0.22928061275962175 0.33210406293711686 -0.11785201734845996
0.3590639293850951 0.31940331660468774 -0.11785201734845996
0.3917118601414619 0.640233519204545 -0.11785201734845996
0.5495946040438202 0.13204782852906985 -0.11785201734845996
0.45449484392891426 0.2952582628024702 -0.11785201734845996
0.5016746102128763 0.6358700726118085 -0.11785201734845996
0.5047523984345386 0.10486394584976808 -0.11785201734845996
0.4932983511286056 0.43124585505199076 -0.11785201734845996
0.49591836705147624 0.11686342397979307 -0.11785201734845996
0.35390181622850986 0.08403043633668085 -0.11736502554123492
0.35390181622850986 0.09045872819205136 -0.11658583864967485
0.4180386372400477 0.60999132797587 -0.11658583864967485
0.6104588401108059 0.6252828707227361 -0.11658583864967485
0.3443859963153325 0.5565585868871382 -0.1159040501195598
0.34715210978037064 0.4668741756685748 -0.1159040501195598
0.3001671402192987 0.30676100928912564 -0.1159040501195598
0.3296009250479802 0.3258900474769253 -0.1159040501195598
0.37827088626205085 0.6391036982117829 -0.1159040501195598
0.4203274987340054 0.16160823122762996 -0.1159040501195598
0.46320225744209803 0.37661511411748555 -0.1159040501195598
0.6562165903176708 0.4991130333068724 -0.1159040501195598
0.3401491675924746 0.1226683663219156 -0.1159040501195598
0.4946814078611247 0.6171890668866561 -0.1159040501195598
0.5060283169694683 0.6283801386166875 -0.1159040501195598
0.44274860153864637 0.6613007847851003 -0.11541705831233476
0.3590444497128062 0.32874381946726405 -0.1146378714207747
0.46465349302762865 0.45605321771203433 -0.1146378714207747
0.6104588401108059 0.60999132797587 -0.1146378714207747
0.3798974388981825 0.5704281135569075 -0.11395608289065963
0.23742311577642444 0.4692799151962665 -0.11395608289065963
0.21113529802241673 0.24681231781972307 -0.11395608289065963
0.3633494572886756 0.3177085851155447 -0.11395608289065963
0.48350007596723776 0.5712559996291902 -0.11395608289065963
0.4561798355819129 0.29037860489407524 -0.11395608289065963
0.421428100218334 0.37014786291753715 -0.11395608289065963
0.6320910161877422 0.46372820859390096 -0.11395608289065963
0.41041234553890354 0.10820470964733189 -0.11395608289065963
0.4925581235816235 0.6251367731805688 -0.11395608289065963
0.5057069023766997 0.6221174239757735 -0.11395608289065963
0.3750762200066545 0.08937760638001173 -0.1134690910834346
0.32802307159257105 0.250795910802824 -0.11268990419187454
0.4693578338854226 0.5458447671281874 -0.11268990419187454
0.6361233083515657 0.5714994955328027 -0.11268990419187454
0.34969420701408543 0.5616135618461342 -0.11200811566175947
0.3404316228406651 0.45314100670482865 -0.11200811566175947
0.30455980632046864 0.20139546187791577 -0.11200811566175947
0.37164779768379025 0.31981238972275683 -0.11200811566175947
0.39205275440651943 0.641519177575619 -0.11200811566175947
0.43426520425678605 0.10839950637022186 -0.11200811566175947
0.4842208238419308 0.34118159022379163 -0.11200811566175947
0.5363873862318772 0.6254387081010481 -0.11200811566175947
0.46654302123966185 0.09374105297274817 -0.11200811566175947
0.49724298476712847 0.39714668871009334 -0.11200811566175947
0.5091645442079974 0.433661334415827 -0.11200811566175947
0.46289058268547406 0.6562360699899598 -0.11152112385453443
0.42563570943275836 0.19948645399359363 -0.11074193696297435
0.39414681917758715 0.5699606014219715 -0.11074193696297435
0.6874327651607961 0.45605321771203433 -0.11074193696297435
0.244318919766731 0.5475784579619085 -0.1100601484328593
0.15704024807585912 0.499356529210485 -0.1100601484328593
0.32352326729381176 0.3081927652023673 -0.1100601484328593
0.49729168394785095 0.3830628856451452 -0.1100601484328593
0.34406458172256393 0.11113640032682666 -0.1100601484328593
0.46627030582761575 0.3559082224742769 -0.1100601484328593
0.6110042709348981 0.2060705832272762 -0.1100601484328593
0.4139673857316463 0.3635247743392765 -0.1100601484328593
0.5920310701254103 0.5983035246024688 -0.1100601484328593
0.539280117566794 0.6173643839372571 -0.1100601484328593
0.5946023868675586 0.22759562110662296 -0.1100601484328593
0.3367597046141883 0.5765447306556541 -0.1087939697340742
0.46222827382764803 0.3063714158433457 -0.1087939697340742
0.5719767475038832 0.09439362199442966 -0.1087939697340742
0.3524505806429792 0.5673016261545227 -0.10811218120395914
0.3757872280452032 0.43895006544229087 -0.10811218120395914
0.30880637487947094 0.30246574154940076 -0.10811218120395914
0.4958988873791873 0.3808714225126325 -0.10811218120395914
0.367693424209123 0.10016934482811868 -0.10811218120395914
0.4680039966613369 0.3557231655875313 -0.10811218120395914
0.5886708266555576 0.2545944468991793 -0.10811218120395914
0.4890517825696032 0.33379879442626004 -0.10811218120395914
0.5004571306948137 0.6433502667707851 -0.10811218120395914
0.5062523332007917 0.6309222358504022 -0.10811218120395914
0.38231291826201863 0.08077733106441753 -0.10762518939673409
0.4180386372400477 0.19793782004661792 -0.10684600250517402
0.3636611320452996 0.468880581914342 -0.10684600250517402
0.5206672906946528 0.6447235836671599 -0.10684600250517402
0.35087272718757 0.4510761614421945 -0.10616421397505899
0.30145279859037283 0.304530586812035 -0.10616421397505899
0.33557144460455923 0.3110173176842725 -0.10616421397505899
0.4177854015002907 0.6453274535081188 -0.10616421397505899
0.4766042719769312 0.10109462926184624 -0.10616421397505899
0.41728866985692115 0.15759541873609556 -0.10616421397505899
0.5053270487670641 0.5863819651615999 -0.10616421397505899
0.5244073877741413 0.3321235426094058 -0.10616421397505899
0.5184660877259957 0.6199941396962722 -0.10616421397505899
0.6062901902409595 0.20479466469234658 -0.10616421397505899
0.4720460286613048 0.4817079461166495 -0.10489803527627387
0.28028813464837254 0.250795910802824 -0.10489803527627387
0.6361233083515657 0.15064117572892197 -0.10489803527627387
0.2533964470534058 0.45994915216983473 -0.1042162467461588
0.21086258261037064 0.24836095176669876 -0.1042162467461588
0.30880637487947094 0.20314863238392597 -0.1042162467461588
0.42155471808821254 0.6458826241683555 -0.1042162467461588
0.49194451390451993 0.10368542567628351 -0.1042162467461588
0.44633286123982263 0.14570307880366 -0.1042162467461588
0.46850072830470646 0.582008778732719 -0.1042162467461588
0.49942470806349654 0.37211530981872626 -0.1042162467461588
0.5137812265404909 0.43409962704232946 -0.1042162467461588
0.5132552753886878 0.5839762256339083 -0.1042162467461588
0.4693578338854226 0.4817079461166495 -0.10295006804737371
0.27692789117851974 0.250795910802824 -0.10295006804737371
0.6361233083515657 0.16100436138667093 -0.10295006804737371
0.2521594878630541 0.46006603020356873 -0.10226827951725864
0.23177401081261398 0.3238154623781467 -0.10226827951725864
0.3060305215782882 0.20953796489471843 -0.10226827951725864
0.4327750093266775 0.6467397297490716 -0.10226827951725864
0.5620226349642035 0.13070373114112882 -0.10226827951725864
0.4477256578084862 0.1448167537145105 -0.10226827951725864
0.4726498985022638 0.5822912339809097 -0.10226827951725864
0.492996416208126 0.3700212450476586 -0.10226827951725864
0.6268704640142898 0.5574156924678545 -0.10226827951725864
0.6104588401108059 0.60999132797587 -0.10100210081847354
0.36672918043081737 0.5458447671281874 -0.10100210081847354
0.4180386372400477 0.12252226877974809 -0.10100210081847354
0.5548735952341397 0.10968516474129603 -0.10100210081847354
0.3795370649608359 0.44608936533621 -0.10032031228835847
0.2279657348801141 0.3305749086624303 -0.10032031228835847
0.19782094201288405 0.24402672468239583 -0.10032031228835847
0.5133331940778438 0.6192052129685677 -0.10032031228835847
0.5231704285837896 0.32569525075403527 -0.10032031228835847
0.5778401288628727 0.13481394199410812 -0.10032031228835847
0.4507060476687035 0.35638547444535734 -0.10032031228835847
0.47104282553842114 0.6518434038887899 -0.10032031228835847
0.49890849674783805 0.286560589125431 -0.10032031228835847
0.6375550642648072 0.44321611367358227 -0.09905413358957338
0.315419723621587 0.44601144664705394 -0.09905413358957338
0.44550497516753995 0.3102965698095795 -0.09905413358957338
0.3494214916020394 0.5605616595425281 -0.09837234505945831
0.3590444497128062 0.45535194950963026 -0.09837234505945831
0.3015501969518179 0.20279799828272393 -0.09837234505945831
0.2015707789285169 0.2330694090198324 -0.09837234505945831
0.47370180080586993 0.5760674786845735 -0.09837234505945831
0.457251217557808 0.3716380578476457 -0.09837234505945831
0.6511616153586748 0.5412183449595496 -0.09837234505945831
0.6283996182889765 0.17237075016730327 -0.09837234505945831
0.515320120651322 0.38805942158727413 -0.09837234505945831
0.5968035898362158 0.23475440067283107 -0.09837234505945831
0.5848041117061908 0.39438057524505515 -0.0971061663606732
0.3382791190527304 0.5795932993688828 -0.0971061663606732
0.40521127303774007 0.34059720005512156 -0.0971061663606732
0.3236791046721237 0.5570358388582188 -0.09642437783055816
0.38701725911981255 0.581463347908627 -0.09642437783055816
0.3240394786094703 0.19354515394544813 -0.09642437783055816
0.3227051210576737 0.1851688948611774 -0.09642437783055816
0.379498105616258 0.09972131236547171 -0.09642437783055816
0.4601147293842912 0.35765165314414255 -0.09642437783055816
0.46998118339867057 0.6507622820767505 -0.09642437783055816
0.4881459778081646 0.35799254740920006 -0.09642437783055816
0.524076233345228 0.6025793126699048 -0.09642437783055816
0.563279073826844 0.6100789865011703 -0.09642437783055816
0.49614238328279986 0.19190886147317193 -0.09642437783055816
0.5719767475038832 0.36625192845973675 -0.09515819913177304
0.39027036439207585 0.5877942414025527 -0.09515819913177304
0.3025923594192795 0.34059720005512156 -0.09515819913177304
0.3315001930961578 0.4692799151962665 -0.09447641060165798
0.3505123532502234 0.5765544704917986 -0.09447641060165798
0.3057285866578086 0.20001240514539667 -0.09447641060165798
0.3368473631394888 0.30734539945779576 -0.09447641060165798
0.3981206723245435 0.0958740770883938 -0.09447641060165798
0.47313689030948886 0.36347607515855407 -0.09447641060165798
0.611530222086701 0.5857001766314849 -0.09447641060165798
0.5781615434556414 0.28519701206520087 -0.09447641060165798
0.5193913721597232 0.44123892693624855 -0.09447641060165798
0.5015187728345643 0.2900766699735958 -0.09447641060165798
0.6361233083515657 0.19948645399359363 -0.09321023190287288
0.33662334690816537 0.5775187142701041 -0.09321023190287288
0.3524311009706901 0.32776983585281405 -0.09321023190287288
0.32824708782389467 0.250795910802824 -0.09321023190287288
0.37516387853195504 0.446595836815724 -0.09252844337275783
0.22795599504396954 0.3305943883347192 -0.09252844337275783
0.2960569293663194 0.20866137964171333 -0.09252844337275783
0.48774664452624006 0.576583690000232 -0.09252844337275783
0.4781821254323403 0.3550705965658498 -0.09252844337275783
0.6308443171612462 0.44822238945185566 -0.09252844337275783
0.5567241641015949 0.11491545675089289 -0.09252844337275783
0.5486206204293702 0.5746454626074763 -0.09252844337275783
0.4899283678226083 0.5665613986075407 -0.09252844337275783
0.5191770957645443 0.26150973056177484 -0.09252844337275783
0.4847565148298783 0.1345217469097731 -0.09252844337275783
0.5719767475038832 0.36625192845973675 -0.0912622646739727
0.36672918043081737 0.468880581914342 -0.0912622646739727
0.427573936825514 0.20073315302008973 -0.0912622646739727
0.3494701907827618 0.4686760453553075 -0.09058047614385764
0.3588399131537717 0.4551571527867403 -0.09058047614385764
0.20693742864413675 0.24074439990169916 -0.09058047614385764
0.19439251969001972 0.2465590820799661 -0.09058047614385764
0.47219212620347234 0.6476844938550882 -0.09058047614385764
0.4793996049504029 0.35492449902368234 -0.09058047614385764
0.48397732793831827 0.36941737520669954 -0.09058047614385764
0.4180094177316142 0.1528034193530011 -0.09058047614385764
0.4740037357263494 0.510791096844129 -0.09058047614385764
0.5435072064535073 0.59272259849167 -0.09058047614385764
0.473935556873338 0.11876269202797081 -0.09058047614385764
0.4308660014423552 0.23831918070171837 -0.09009348433663261
0.4308660014423552 0.2383289205378629 -0.08931429744507255
0.3178157233131342 0.5201900387235724 -0.08931429744507255
0.5318388827523954 0.34059720005512156 -0.08931429744507255
0.35086298735142546 0.5675061627135574 -0.08863250891495748
0.37527101672954455 0.43846307363506587 -0.08863250891495748
0.3083096432361014 0.3089135130770604 -0.08863250891495748
0.29766400233016205 0.2211575894151079 -0.08863250891495748
0.39318257539928153 0.09194892312216003 -0.08863250891495748
0.4786885969118544 0.357661392980287 -0.08863250891495748
0.623568659561304 0.4391448621651809 -0.08863250891495748
0.45551752672408685 0.14081368105912065 -0.08863250891495748
0.4794580439672699 0.5228587538271656 -0.08863250891495748
0.5536463758799326 0.43996300840131897 -0.08863250891495748
0.5919336717639654 0.14698873717473418 -0.08863250891495748
0.4632119972782426 0.10243872664978741 -0.08863250891495748
0.28028813464837254 0.250795910802824 -0.08736633021617238
0.49814878952856695 0.31690017871555115 -0.08736633021617238
0.5082197801019809 0.610809474212008 -0.08736633021617238
0.5976314759084985 0.10722098619673731 -0.08736633021617238
0.32298757630586417 0.5531009450558405 -0.08668454168605733
0.3532297675345393 0.45690058345660595 -0.08668454168605733
0.23302070983911008 0.33213328244555035 -0.08668454168605733
0.292277872942253 0.21183656622482067 -0.08668454168605733
0.5330174029258798 0.3918482178474849 -0.08668454168605733
0.4830715231768798 0.37253412277293974 -0.08668454168605733
0.5149207873693973 0.6315650650359393 -0.08668454168605733
0.46287110301318496 0.6569860373730864 -0.08668454168605733
0.41811655592920366 0.16098488171438183 -0.08668454168605733
0.4377131062519393 0.25922086906781716 -0.08619754987883228
0.433563936054382 0.24750384618598276 -0.08541836298727222
0.48264297038652165 0.5902584199471111 -0.08541836298727222
0.623295944149258 0.423200750396633 -0.08541836298727222
0.4836948726901278 0.5666393172966968 -0.08473657445715715
0.34986952406468647 0.5650517240051431 -0.08473657445715715
0.3397206148021166 0.45205988489278903 -0.08473657445715715
0.3028358553228919 0.20148312040321628 -0.08473657445715715
0.3091083097999505 0.20823282685135533 -0.08473657445715715
0.5395236134704064 0.6227797328335994 -0.08473657445715715
0.5257709648343712 0.6376719422985412 -0.08473657445715715
0.5366795813162122 0.6377206414792639 -0.08473657445715715
0.5159921693452926 0.24320857844625787 -0.08473657445715715
0.48241895415519814 0.12212293549782359 -0.08473657445715715
0.5610973505304758 0.41066558127866054 -0.08473657445715715
0.4346450578664216 0.250795910802824 -0.08424958264993213
0.45281959211206013 0.11563620462558608 -0.08347039575837206
0.326815331910653 0.24931545570885985 -0.08347039575837206
0.5136838281790458 0.40473402106665946 -0.08347039575837206
0.4765263532877751 0.48720121370214803 -0.082788607228257
0.35499267787669386 0.5687528617400534 -0.082788607228257
0.37586514673435917 0.43791764281097384 -0.082788607228257
0.3255199337034344 0.1924250727888306 -0.082788607228257
0.29092403571816744 0.19716837299120243 -0.082788607228257
0.6343019589925439 0.45240077915784654 -0.082788607228257
0.4795164829841369 0.36672918043081737 -0.082788607228257
0.4953631963912397 0.35287913343333704 -0.082788607228257
0.5450266208920495 0.32370832418055717 -0.082788607228257
0.45613113640119046 0.2491109191498253 -0.082788607228257
0.6874327651607961 0.5714994955328027 -0.08152242852947188
0.40521127303774007 0.1866590897912861 -0.08152242852947188
0.315419723621587 0.5345660368728555 -0.08152242852947188
0.6380615357443212 0.19948645399359363 -0.08152242852947188
0.5094177799477545 0.5409261498752145 -0.08084063999935683
0.3015599367879623 0.21021975342483357 -0.08084063999935683
0.5604155620003609 0.3970590301847928 -0.08084063999935683
0.5461759215571005 0.3916144617800169 -0.08084063999935683
0.5501205551956233 0.6153190183469118 -0.08084063999935683
0.46750726501796736 0.639493291657563 -0.08084063999935683
0.5595681962557891 0.2628830474581495 -0.08084063999935683
0.5273390784536359 0.14483623338679946 -0.08084063999935683
0.46753648452640084 0.27853496414236234 -0.08084063999935683
0.3178157233131342 0.47348752441069086 -0.07957446130057172
0.379556544633125 0.28928774324589124 -0.07957446130057172
0.6361233083515657 0.15649481725176698 -0.07957446130057172
0.47523095508055657 0.44019676446878697 -0.07889267277045667
0.37880657724999833 0.4400506669266195 -0.07889267277045667
0.3583431815104021 0.3206013164504614 -0.07889267277045667
0.62345178152757 0.1643451251842346 -0.07889267277045667
0.5446857266269919 0.3201532839878143 -0.07889267277045667
0.5974171995133193 0.26740233142919784 -0.07889267277045667
0.5614090252871 0.12430465879419181 -0.07889267277045667
0.44562185320127395 0.28709628011337857 -0.07889267277045667
0.38981259209328434 0.42862583912912 -0.07762649407167156
0.37191077325969174 0.5872390707423158 -0.07762649407167156
0.46049458299392676 0.11023059556538804 -0.07762649407167156
0.5206672906946528 0.3094784235734415 -0.07762649407167156
0.4770328247672892 0.4360573341073742 -0.07694470554155651
0.3582750026573907 0.5658016913882696 -0.07694470554155651
0.46480933040594075 0.2847587194386983 -0.07694470554155651
0.457251217557808 0.09136453295348997 -0.07694470554155651
0.5452408972872284 0.3140366668890678 -0.07694470554155651
0.622945310048056 0.43364185474353795 -0.07694470554155651
0.4908926116009139 0.36041776660918073 -0.07694470554155651
0.5814730877447715 0.5963263378651353 -0.07694470554155651
0.5520587825883791 0.18556822814310192 -0.07694470554155651
0.379556544633125 0.28928774324589124 -0.0756785268427714
0.4196554500400348 0.14300514419163327 -0.0756785268427714
0.6617780367561807 0.21231381819590114 -0.0756785268427714
0.3711315863681317 0.43038874947127465 -0.0756785268427714
0.48100667791424556 0.5355400204873056 -0.07499673831265635
0.3487494429080688 0.4473847635434286 -0.07499673831265635
0.33944789939007053 0.31293606540473917 -0.07499673831265635
0.4589849083915291 0.14021955105430617 -0.07499673831265635
0.563532309566601 0.6186403024721867 -0.07499673831265635
0.5074698127188543 0.11378563575813079 -0.07499673831265635
0.48924657929249316 0.3799656177511939 -0.07499673831265635
0.558165659850981 0.6121438317638047 -0.07499673831265635
0.3410744520262022 0.2764506392074392 -0.07373055961387122
0.5169466732874535 0.23706274183907786 -0.07373055961387122
0.6489506725538734 0.2251411823982088 -0.07373055961387122
0.315419723621587 0.5201900387235724 -0.07373055961387122
0.5130117794850753 0.43839489478205435 -0.07304877108375615
0.3489442396309589 0.45655968919154843 -0.07304877108375615
0.3386005336454989 0.30931284635898487 -0.07304877108375615
0.47002014274324866 0.21568380150189845 -0.07304877108375615
0.5238522171139046 0.10354906797026055 -0.07304877108375615
0.5102943652007594 0.09546500397032474 -0.07304877108375615
0.4929671966996925 0.10421137682808658 -0.07304877108375615
0.5924985822603464 0.5995015244482426 -0.07304877108375615
0.533270638665637 0.16094592236980393 -0.07304877108375615
0.6108094742120079 0.22074851629703898 -0.07304877108375615
0.4436933656446629 0.12004835039904484 -0.07178259238497106
0.5537048148967996 0.32776983585281405 -0.07178259238497106
0.549565384535387 0.53301740292588 -0.07178259238497106
0.4716856547239582 0.5722592027520738 -0.071100803854856
0.37671251247893073 0.5753662104821694 -0.071100803854856
0.4523618198132686 0.25366916246545174 -0.071100803854856
0.4159153529605465 0.09053664688120733 -0.071100803854856
0.622711553980588 0.20901201374291536 -0.071100803854856
0.6354317799853062 0.18402933403227079 -0.071100803854856
0.4134706540882769 0.0821506479607922 -0.071100803854856
0.6104880596192395 0.5817263234845285 -0.071100803854856
0.35529461279717334 0.32776983585281405 -0.0698346251560709
0.5099145115911239 0.08403043633668085 -0.0698346251560709
0.47092594750468714 0.5024830166128698 -0.0698346251560709
0.33605843641178423 0.5782005028002192 -0.0698346251560709
0.350249377674322 0.4471510074759606 -0.06915283662595584
0.3253835759974113 0.1851104558443104 -0.06915283662595584
0.43055432668573124 0.18792526849007116 -0.06915283662595584
0.6627228008621975 0.5373321503378937 -0.06915283662595584
0.4823702549744757 0.35665818985740344 -0.06915283662595584
0.5126416657115842 0.6360161701539762 -0.06915283662595584
0.6626059228284634 0.5500718560149007 -0.06915283662595584
0.5908233304434923 0.22970916554997964 -0.06915283662595584
0.5849502092483582 0.1941879831309852 -0.06915283662595584
0.3052415948505836 0.2764506392074392 -0.06788665792717075
0.7002601293631038 0.4817079461166495 -0.06788665792717075
0.4180386372400477 0.5996281423181211 -0.06788665792717075
0.47775357264198226 0.4796333610178709 -0.06720486939705568
0.35649261264294696 0.45641359164938095 -0.06720486939705568
0.43893058577000194 0.18244174074071717 -0.06720486939705568
0.520706250039231 0.10204913320400731 -0.06720486939705568
0.5769148444291451 0.2824893376170297 -0.06720486939705568
0.5927518180001036 0.27251574540506085 -0.06720486939705568
0.4702441589745721 0.08307593239451977 -0.06720486939705568
0.6062609707325262 0.5835963720242726 -0.06720486939705568
0.3025923594192795 0.34059720005512156 -0.06593869069827059
0.5571040177112305 0.09933171891969163 -0.06593869069827059
0.5591493833015758 0.4175613852689671 -0.06593869069827059
0.5666393172966967 0.635646056380485 -0.06593869069827059
0.34897345913939243 0.4558292014807109 -0.06525690216815552
0.332668973433498 0.3092544073421179 -0.06525690216815552
0.5011291793887843 0.28586906075917146 -0.06525690216815552
0.4859447748395074 0.3665733430525053 -0.06525690216815552
0.5907454117543365 0.4111623129220301 -0.06525690216815552
0.5545424408052267 0.630084609941975 -0.06525690216815552
0.6571808340959766 0.4585076564204485 -0.06525690216815552
0.5985178009976478 0.204551168788734 -0.06525690216815552
0.618065652139661 0.577090161479746 -0.06525690216815552
0.33736357445514736 0.28928774324589124 -0.06399072346937039
0.6498272578068782 0.44012858561577545 -0.06399072346937039
0.4818248241503837 0.4231617910520551 -0.06399072346937039
0.47805550756246185 0.5465752548390251 -0.06330893493925532
0.37564113050303566 0.4351612691820801 -0.06330893493925532
0.4389792849507245 0.18199370827807007 -0.06330893493925532
0.594806923426593 0.6035727759566439 -0.06330893493925532
0.6137411648915028 0.4333496596592029 -0.06330893493925532
0.5012947566032407 0.09139375246192347 -0.06330893493925532
0.5331342809596139 0.11416548936776634 -0.06330893493925532
0.5413741823378616 0.39377670540409604 -0.06330893493925532
0.629091146655236 0.2379685466005163 -0.06282194313203031
0.5052686097501972 0.2764506392074392 -0.06204275624047023
0.6240556513685291 0.24518576518359142 -0.06204275624047023
0.5918362734025205 0.6228186921781776 -0.06204275624047023
0.315419723621587 0.49453531031895703 -0.06204275624047023
0.49238280653102245 0.5579611232919465 -0.06136096771035517
0.35637573460921296 0.31362759377099875 -0.06136096771035517
0.4247104249990308 0.1854416102732235 -0.06136096771035517
0.5968133296723603 0.26192854351598843 -0.06136096771035517
0.6157962703179923 0.42946346503754707 -0.06136096771035517
0.5559547170461795 0.6300553904335416 -0.06136096771035517
0.6480448677924346 0.44697569042535956 -0.06136096771035517
0.6048779140000071 0.18175995221060218 -0.06136096771035517
0.6063388894216822 0.1256097968375549 -0.06087397590313012
0.4436933656446629 0.12004835039904484 -0.060094789011570074
0.6489506725538734 0.19948645399359363 -0.060094789011570074
0.6874327651607961 0.5714994955328027 -0.060094789011570074
0.36672918043081737 0.468880581914342 -0.060094789011570074
0.4816105477552046 0.552857449152228 -0.059413000481455015
0.30365400155903 0.20093768957912425 -0.059413000481455015
0.4348106350808781 0.17974380612869043 -0.059413000481455015
0.5997547601879996 0.25122446359318196 -0.059413000481455015
0.6231303669348016 0.5809763561014019 -0.059413000481455015
0.5576104891907445 0.39615322542335424 -0.059413000481455015
0.48213649890700766 0.6569762975369418 -0.059413000481455015
0.6315455853636504 0.5696586665014919 -0.059413000481455015
0.6542686230887708 0.4356580008254497 -0.058926008674229965
0.28719367847482363 0.21231381819590114 -0.058146821782669916
0.6489506725538734 0.2379685466005163 -0.058146821782669916
0.4693578338854226 0.53301740292588 -0.058146821782669916
0.3347532983684211 0.5558767983570233 -0.058146821782669916
0.49268474145150204 0.5576591883714669 -0.05746503325255486
0.32834448618533957 0.3238641615588691 -0.05746503325255486
0.43112897701825675 0.18006522072145897 -0.05746503325255486
0.6056960602361452 0.2506985124413789 -0.05746503325255486
0.6290619271468026 0.5776453321399827 -0.05746503325255486
0.5381989957547544 0.3296009250479801 -0.05746503325255486
0.40579566320641014 0.08065071319453912 -0.05746503325255486
0.591300582414573 0.4189639216737753 -0.05746503325255486
0.6156014735951025 0.1686988319408265 -0.05746503325255486
0.3410744520262022 0.14817699718436328 -0.05697804144532981
0.640798429700926 0.21985245137174478 -0.05697804144532981
0.5848041117061908 0.6484734205827927 -0.05697804144532981
0.3347532983684211 0.53301740292588 -0.05697804144532981
0.4906880750418794 0.574733121132777 -0.05551706602365469
0.3604664657899033 0.3133646181950972 -0.05551706602365469
0.427632375842381 0.19426590182014117 -0.05551706602365469
0.5726877555424318 0.29360249065790506 -0.05551706602365469
0.5369717764005473 0.3827901702330991 -0.05551706602365469
0.5868494772965361 0.2705482985038717 -0.05551706602365469
0.5427572390703806 0.6402140395322559 -0.05551706602365469
0.5453577753209624 0.32913341291304404 -0.05551706602365469
0.43924226052662607 0.24105607465832316 -0.05503007421642965
0.44983920225184293 0.13534963298205574 -0.05503007421642965
0.36228781514892494 0.5458447671281874 -0.05503007421642965
0.6617780367561807 0.5971542239374178 -0.05503007421642965
0.4799450357744949 0.47602962164440554 -0.0535690987947545
0.2993392541470162 0.20534983535258317 -0.0535690987947545
0.4360573341073742 0.19197704032618348 -0.0535690987947545
0.6393861534599736 0.17408496132873544 -0.0535690987947545
0.6737677750500612 0.5290630294512126 -0.0535690987947545
0.6054038651518102 0.13163875541100092 -0.0535690987947545
0.4921880098081325 0.34491194746713544 -0.0535690987947545
0.637759600823842 0.582262014472476 -0.0535690987947545
0.6198090828095267 0.19754822660083798 -0.0535690987947545
0.4693578338854226 0.4817079461166495 -0.05230292009596941
0.5659477889304372 0.37907929266204426 -0.05230292009596941
0.5086580727284834 0.28928774324589124 -0.05230292009596941
0.5146967711380738 0.5791550067423804 -0.05162113156585434
0.3527622553996032 0.44670297501331363 -0.05162113156585434
0.36468381484047224 0.31254647195895924 -0.05162113156585434
0.4246325063098748 0.1823053830346942 -0.05162113156585434
0.6110140107710426 0.24334493615228084 -0.05162113156585434
0.6553010457200878 0.5418027351282196 -0.05162113156585434
0.628292480091387 0.5751227145785569 -0.05162113156585434
0.5670873497593439 0.3058357248553981 -0.05162113156585434
0.6119587748770592 0.21245991573806866 -0.05162113156585434
0.6152313598216114 0.15061195622048848 -0.05162113156585434
0.3345390219732422 0.5714994955328027 -0.05035495286706925
0.5848041117061908 0.32776983585281405 -0.05035495286706925
0.49911303330687257 0.250795910802824 -0.05035495286706925
0.5768953647568561 0.3999517615197095 -0.049673164336954186
0.5544840017883598 0.39756550166430693 -0.049673164336954186
0.6121146122553711 0.18885055292379874 -0.049673164336954186
0.5870540138555704 0.11875295219182627 -0.049673164336954186
0.45174821013616506 0.3039948958240875 -0.049673164336954186
0.34825271126469926 0.5655094963039347 -0.049673164336954186
0.4835585149841048 0.5011389192249286 -0.049673164336954186
0.6488532741924282 0.4685396876492844 -0.049673164336954186
0.5117942999670126 0.634262999647966 -0.049673164336954186
0.4957138304924417 0.2379685466005163 -0.04840698563816909
0.6067966617204738 0.2764506392074392 -0.04840698563816909
0.4693578338854226 0.53301740292588 -0.04840698563816909
0.3344903227925196 0.5519711240630786 -0.04840698563816909
0.5047231789261051 0.3522363042478001 -0.04772519710805403
0.6104004010939389 0.12908691834114172 -0.04772519710805403
0.5018791467719108 0.08561802962823445 -0.04772519710805403
0.4595205993794767 0.1384761203844405 -0.04772519710805403
0.34828193077313274 0.4559265998421558 -0.04772519710805403
0.48046124709015353 0.5475687181257642 -0.04772519710805403
0.653070623242997 0.5449097428583153 -0.04772519710805403
0.6471780223755741 0.5749181780195225 -0.04772519710805403
0.5289948505982012 0.4817079461166495 -0.04645901840926893
0.6361233083515657 0.60999132797587 -0.04645901840926893
0.5988684350988499 0.12878498342066214 -0.04645901840926893
0.3056993671493751 0.18378583812865834 -0.04645901840926893
0.5125345275139946 0.33840573692260895 -0.04577722987915387
0.5312252730752918 0.3881081207679966 -0.04577722987915387
0.42967774143272613 0.08785819194146968 -0.04577722987915387
0.4256454492689029 0.15822850808548808 -0.04577722987915387
0.297741921019318 0.2008110717092457 -0.04577722987915387
0.3770631465801328 0.4399824880736079 -0.04577722987915387
0.48054890561545405 0.5425527025113461 -0.04577722987915387
0.6930623904523175 0.5162941042657719 -0.04577722987915387
0.5599675295377137 0.6342045606310989 -0.04577722987915387
0.3410744520262022 0.14817699718436328 -0.04451105118036874
0.5990534919855954 0.2375399938101583 -0.04451105118036874
0.5182907706753946 0.3616742054718214 -0.04451105118036874
0.4743543698275514 0.4817079461166495 -0.04451105118036874
0.6361233083515657 0.5458447671281874 -0.04451105118036874
0.6240166920239513 0.42568440861348084 -0.04382926265025368
0.6351298450648266 0.1890648293189778 -0.04382926265025368
0.48963617273827326 0.08688420832701951 -0.04382926265025368
0.45987123348067876 0.29690429511089084 -0.04382926265025368
0.2990275793903922 0.20518425813812655 -0.04382926265025368
0.3558790029658434 0.5610291716774641 -0.04382926265025368
0.480704742993766 0.49656119623701317 -0.04382926265025368
0.6755404252283606 0.48852583141780015 -0.04382926265025368
0.5855443392531728 0.6038065320241117 -0.04382926265025368
0.27692789117851974 0.2147877365766044 -0.04256308395146858
0.3343344854142077 0.44321611367358227 -0.04256308395146858
0.6355389181828957 0.23070262883671874 -0.04256308395146858
0.5719767475038832 0.36625192845973675 -0.04256308395146858
0.6874327651607961 0.5714994955328027 -0.04256308395146858
0.610205604371049 0.4149413693460963 -0.04188129542135352
0.638908901488893 0.1774354649624438 -0.04188129542135352
0.5380821177210204 0.11129223770513859 -0.04188129542135352
0.4514462752156855 0.25788651151602054 -0.04188129542135352
0.3325715750720529 0.3108906998143941 -0.04188129542135352
0.48577919762505095 0.5137422671959128 -0.04188129542135352
0.49169127816476293 0.5427864585788142 -0.04188129542135352
0.6804493026451889 0.5100703489694358 -0.04188129542135352
0.5726293165255648 0.628662593864878 -0.04188129542135352
0.3926371445751895 0.45605321771203433 -0.04061511672256842
0.7130874935654111 0.5201900387235724 -0.04061511672256842
0.6361233083515657 0.1328757146013525 -0.04061511672256842
0.5078399264923453 0.1866590897912861 -0.04061511672256842
0.5304363463475873 0.32714648633956595 -0.03993332819245336
0.627474333855249 0.15408907772407526 -0.03993332819245336
0.5384717111668004 0.11119483934369366 -0.03993332819245336
0.445563414184407 0.23607901838848327 -0.03993332819245336
0.4614977861168104 0.21900508562717333 -0.03993332819245336
0.3779592115054269 0.44459917040610136 -0.03993332819245336
0.47790941002029436 0.4334957572013704 -0.03993332819245336
0.5015674720152867 0.44868990158679173 -0.03993332819245336
0.6108192140481524 0.5918947124193874 -0.03993332819245336
0.32705882781426554 0.33450980246480855 -0.038667149493668264
0.5869273959856919 0.12393454502070067 -0.038667149493668264
0.5591493833015758 0.5971542239374178 -0.038667149493668264
0.6617780367561807 0.5868007781158134 -0.038667149493668264
0.5983424839470468 0.411259711283475 -0.037985360963553205
0.5419683123426763 0.31392952869147833 -0.037985360963553205
0.5201413395428498 0.1011628081148578 -0.037985360963553205
0.43440156196280905 0.18188657008048062 -0.037985360963553205
0.4771204832925897 0.22655345863916138 -0.037985360963553205
0.3076181148698418 0.20744390012365072 -0.037985360963553205
0.49125298553826036 0.5566949445931614 -0.037985360963553205
0.49792477329724344 0.5553995463859427 -0.037985360963553205
0.5049277154851396 0.6479669491032787 -0.037985360963553205
0.5334946548969605 0.6543270621056376 -0.037498369156328155
0.3224031861371941 0.2379685466005163 -0.036719182264768106
0.5450168810559048 0.36625192845973675 -0.036719182264768106
0.474967979504655 0.4817079461166495 -0.036719182264768106
0.5892162574796498 0.27831094791103883 -0.03603739373465305
0.5301831106078302 0.3678492615874349 -0.03603739373465305
0.6510934365056635 0.17526348150222013 -0.03603739373465305
0.439514975938672 0.18112686286120952 -0.03603739373465305
0.4656761758228013 0.25326982918352725 -0.03603739373465305
0.3256562914094574 0.32766269765522443 -0.03603739373465305
0.4913990830804279 0.4603874447963373 -0.03603739373465305
0.4950223021261822 0.5468674499233601 -0.03603739373465305
0.6752677098163146 0.5483479050173241 -0.03603739373465305
0.5434682471089294 0.339847232671995 -0.035550401927428
0.32066949530347294 0.35342456425742924 -0.034771215035867914
0.5463220190992681 0.3436847281129284 -0.034771215035867914
0.4709746466854097 0.49453531031895703 -0.034771215035867914
0.3341981277081846 0.5760382591761399 -0.034771215035867914
0.5309428178271013 0.3380356231491178 -0.034089426505752855
0.6078485640240799 0.14724197291449115 -0.034089426505752855
0.4478620155145092 0.21956025628740974 -0.034089426505752855
0.4765263532877751 0.22694305208494148 -0.034089426505752855
0.3479215568357863 0.4555954454132428 -0.034089426505752855
0.4848052140106009 0.5438481007185649 -0.034089426505752855
0.5011291793887843 0.5760772185207181 -0.034089426505752855
0.5705839509352195 0.6259841389251403 -0.034089426505752855
0.3185072516793938 0.32776983585281405 -0.032823247806967756
0.5976314759084985 0.09685780053898836 -0.032823247806967756
0.68374136726203 0.468880581914342 -0.032823247806967756
0.48427926285879785 0.594651086048281 -0.032823247806967756
0.3552166941080174 0.4462062433699441 -0.0321414592768527
0.48029566987569694 0.5504030104438139 -0.0321414592768527
0.546809010906493 0.640778950028637 -0.0321414592768527
0.6216206923324039 0.4323172370278859 -0.0321414592768527
0.5090184466658298 0.36065152267664874 -0.0321414592768527
0.5320336794752853 0.1042698158449536 -0.0321414592768527
0.5023271792345578 0.29039808456636435 -0.0321414592768527
0.33139305489856835 0.19343801574785865 -0.0321414592768527
0.4693578338854226 0.45605321771203433 -0.0308752805780676
0.6874327651607961 0.5714994955328027 -0.0308752805780676
0.6510349974887966 0.19948645399359363 -0.0308752805780676
0.4436933656446629 0.10968516474129603 -0.0308752805780676
0.37562165083074656 0.444706308603691 -0.030193492047952537
0.47684776788054367 0.5087846905983617 -0.030193492047952537
0.604118206780736 0.5931414114458834 -0.030193492047952537
0.5458739866366209 0.3761378621464051 -0.030193492047952537
0.6036896539903779 0.2732462331158983 -0.030193492047952537
0.5740415927665176 0.11216882295814369 -0.030193492047952537
0.43613525279653026 0.19125629245149042 -0.030193492047952537
0.5636199680919014 0.6402432590406895 -0.02970650024072749
0.3025923594192795 0.28928774324589124 -0.02892731334916744
0.4545630227819258 0.1885875773478972 -0.02892731334916744
0.6489506725538734 0.4713447604589007 -0.02892731334916744
0.5303681674945757 0.5201900387235724 -0.02892731334916744
0.3476488414237402 0.4508424053747264 -0.02824552481905238
0.5124955681694167 0.5697268453545034 -0.02824552481905238
0.5940472162073223 0.6136729860384911 -0.02824552481905238
0.5437214828486865 0.322734340566107 -0.02824552481905238
0.6129717178360872 0.42993097717248313 -0.02824552481905238
0.5689671381352325 0.11434080641836736 -0.02824552481905238
0.46363081023245606 0.139674120230214 -0.02824552481905238
0.3377726475732164 0.3106959030915041 -0.02824552481905238
0.6874327651607961 0.5714994955328027 -0.02697934612026728
0.6489506725538734 0.2140280293573333 -0.02697934612026728
0.5081321215766803 0.2764506392074392 -0.02697934612026728
0.4655105986083447 0.4513488768542404 -0.02697934612026728
0.33392541229613865 0.48719147386600353 -0.02697934612026728
0.5407897921691915 0.6382855519756448 -0.02629755759015222
0.37343018769823394 0.5719085686508718 -0.02629755759015222
0.5165278603332402 0.5714507963520803 -0.02629755759015222
0.6209096842938553 0.4359404560736402 -0.02629755759015222
0.5352867847475486 0.3425938664647442 -0.02629755759015222
0.4773444995239132 0.09623445102574038 -0.02629755759015222
0.4572999167385306 0.2543899103401448 -0.02629755759015222
