0.37553577605912786 0.3396216684519051 -0.15623538167113088
0.4562073144797022 0.3272730642467445 -0.15623538167113088
0.16013125112434054 0.415025270285363 -0.15623538167113088
0.4692669899732378 0.486873515676946 -0.15623538167113088
0.6324528431110201 0.3997121998638785 -0.15623538167113088
0.4749455451916692 0.5373295318858662 -0.15623538167113088
0.4511797400182337 0.3039379078817615 -0.15623538167113088
0.4715904905211674 0.49526615989748485 -0.15623538167113088
0.48367870242354266 0.3319300804311725 -0.15623538167113088
0.1479328732477099 0.5051610674033231 -0.15623538167113088
0.5291972799681126 0.2083238573167432 -0.15623538167113088
0.680465177709187 0.36857528950390767 -0.15563447635701114
0.25093805917640094 0.5692275889770554 -0.15563447635701114
0.14895441228171347 0.5243299469237427 -0.15563447635701114
0.1887944346078518 0.2868922271378984 -0.15563447635701114
0.2457602583864026 0.2530712730415261 -0.15563447635701114
0.46941721630176775 0.27413300430142273 -0.15563447635701114
0.5291972799681126 0.5884365288517496 -0.15423236395739842
0.24877480004556995 0.5784214402830874 -0.15423236395739842
0.24502915692089033 0.2339825142296558 -0.15423236395739842
0.3480643881152874 0.47117987188985216 -0.15423236395739842
0.3878743651757197 0.46522089419149815 -0.15423236395739842
0.4749355301031005 0.30583075962123873 -0.15423236395739842
0.1594702552788088 0.4071534106703945 -0.15423236395739842
0.43133984956371385 0.5358172535119983 -0.15423236395739842
0.4790917918590954 0.3300372286916953 -0.15423236395739842
0.4978700829253371 0.5278552580999119 -0.15423236395739842
0.12516857693114067 0.5057319274517369 -0.15423236395739842
0.48033366284160944 0.5202538058762972 -0.15423236395739842
0.5072642360027423 0.19688662617133096 -0.15423236395739842
0.46941721630176775 0.5902793051483834 -0.1537316095289653
0.1421842124092978 0.5243299469237427 -0.1537316095289653
0.22503904013784043 0.1995907000848697 -0.1537316095289653
0.48914694078203236 0.19020656209603323 -0.1537316095289653
0.2715591265392766 0.2605124838480421 -0.15293040244347234
0.43736893288204853 0.505401429528971 -0.15293040244347234
0.31112874147406105 0.3924212153858925 -0.15293040244347234
0.680465177709187 0.47410427775190156 -0.15293040244347234
0.25621601085208595 0.5406946016449368 -0.15293040244347234
0.11468277919975134 0.5090569368565327 -0.15293040244347234
0.21211957588426622 0.5858025605581914 -0.15222934624366596
0.24911531305690454 0.21688675804294943 -0.15222934624366596
0.248003638225783 0.36812461051831785 -0.15222934624366596
0.343717839676488 0.3570078622071028 -0.15222934624366596
0.15458289205730164 0.4007637841635881 -0.15222934624366596
0.16037161324998844 0.418971215181416 -0.15222934624366596
0.1306268002010616 0.42094418762944247 -0.15222934624366596
0.5057118972745996 0.5222668386785982 -0.15222934624366596
0.4812250057242204 0.30750327941220523 -0.15222934624366596
0.38698302229310877 0.2813839284251342 -0.15222934624366596
0.549908483128106 0.31042768527425463 -0.15222934624366596
0.5836993919587724 0.3487153688722504 -0.15222934624366596
0.5013953941015062 0.19789815011676581 -0.15222934624366596
0.411469913843488 0.3491460176807028 -0.15092738472973988
0.31825948453494857 0.3499973002090392 -0.15092738472973988
0.33897068769494204 0.48475031690038956 -0.15092738472973988
0.4425467336720469 0.5131531080811156 -0.15092738472973988
0.680465177709187 0.48475031690038956 -0.15092738472973988
0.476257521794164 0.33445388275047533 -0.15022632852993353
0.4607741948670122 0.5245102185179786 -0.15022632852993353
0.13281008950903 0.3960566925363168 -0.15022632852993353
0.4714703094583435 0.28912559188871007 -0.15022632852993353
0.477499392776678 0.5260224968918465 -0.15022632852993353
0.43665786159367354 0.5363680833832748 -0.15022632852993353
0.5127925648926438 0.2949643885242402 -0.15022632852993353
0.12158317522355955 0.31360246835052064 -0.15022632852993353
0.48456003021758504 0.5818666307507071 -0.15022632852993353
0.5400135756222678 0.31636663279547134 -0.15022632852993353
0.5060423951973655 0.3005027325027103 -0.15022632852993353
0.2424252338930381 0.36838500282110304 -0.15022632852993353
0.37892087599533575 0.4732329650464279 -0.15022632852993353
0.33137925055989614 0.4397625390499587 -0.15022632852993353
0.614515819484546 0.315815802924195 -0.14892436701600745
0.3900676695722568 0.49063918897876285 -0.14892436701600745
0.3623859647684743 0.3924212153858925 -0.14892436701600745
0.4783406602164457 0.2728110126103592 -0.14892436701600745
0.46816533023068496 0.2924305711163686 -0.14822331081620108
0.4629674992635492 0.4695474124531603 -0.14822331081620108
0.1317484901207517 0.42462974022271016 -0.14822331081620108
0.26562017901805984 0.2953649920669867 -0.14822331081620108
0.47018837812155473 0.47759954366236473 -0.14822331081620108
0.572893111393186 0.49327315727232107 -0.14822331081620108
0.6197136504516818 0.36557076293330887 -0.14822331081620108
0.24787344207439033 0.2934521101503722 -0.14822331081620108
0.21723728614285256 0.581135529285195 -0.14822331081620108
0.5116508447958164 0.5270039755715754 -0.14822331081620108
0.508606257870943 0.2965467725180888 -0.14822331081620108
0.5882662723460825 0.35523519153044947 -0.14822331081620108
0.34736333191548097 0.46195597531811433 -0.14822331081620108
0.2382088816056314 0.4616254773953485 -0.14822331081620108
0.30272608216495345 0.5433486001156321 -0.147722556387768
0.31112874147406105 0.43199083032067687 -0.146921349302275
0.574936189461193 0.28943605963433866 -0.146921349302275
0.14682119841658847 0.42213598316911327 -0.14622029310246865
0.1383183882217942 0.5032281553095713 -0.14622029310246865
0.13916967075013043 0.39340269406562134 -0.14622029310246865
0.3675737806470414 0.5346454881494647 -0.14622029310246865
0.5225773064242268 0.28081306837672043 -0.14622029310246865
0.4607441496013063 0.28651165377228927 -0.14622029310246865
0.25267066949877953 0.5301787586478415 -0.14622029310246865
0.5767389054035522 0.49679846844849024 -0.14622029310246865
0.23919036028536028 0.2479535627829396 -0.14622029310246865
0.48805529612804804 0.2972578438064638 -0.14622029310246865
0.4954764767574268 0.5424873024987273 -0.14622029310246865
0.5637192902642911 0.3335324946021584 -0.14622029310246865
0.2391302697539483 0.5364782493575301 -0.14622029310246865
0.34802432776101266 0.45879120733041706 -0.14622029310246865
0.33828966167227303 0.46449980781455447 -0.14622029310246865
0.3142434340189151 0.37763894465854686 -0.14491833158854253
0.42983758627841445 0.4699780612616128 -0.14491833158854253
0.614515819484546 0.49795020363388637 -0.14491833158854253
0.48015339124737355 0.5239794188238396 -0.1442172753887362
0.25168919081905067 0.5141345867608446 -0.1442172753887362
0.4841193663205638 0.34988713423478396 -0.1442172753887362
0.48688353076551466 0.4866431686398666 -0.1442172753887362
0.45159035864954894 0.2825857390533736 -0.1442172753887362
0.3408535243458506 0.532562349727183 -0.1442172753887362
0.12284507638321103 0.41220101530900033 -0.1442172753887362
0.3102974891228621 0.5383210256541638 -0.1442172753887362
0.6314112738998794 0.41580644719371873 -0.1442172753887362
0.5074945830398215 0.21532440422623805 -0.1442172753887362
0.4948154809118952 0.539502806105266 -0.1442172753887362
0.23499403817509068 0.2890354560915921 -0.1442172753887362
0.34824465970952334 0.3554455083903914 -0.1442172753887362
0.3754556553505786 0.33920103473202123 -0.1442172753887362
0.35387313948511145 0.2605124838480421 -0.1429153138748101
0.47015833285584874 0.3660414720960361 -0.1429153138748101
0.574936189461193 0.5243299469237427 -0.1429153138748101
0.1335111457088363 0.3935228751284453 -0.14221425767500373
0.1387189917645406 0.320052185388739 -0.14221425767500373
0.48277734445236303 0.28603092952099346 -0.14221425767500373
0.21849918730250406 0.30034249108561184 -0.14221425767500373
0.12989569873554918 0.42569133961098826 -0.14221425767500373
0.204858636671986 0.5199132928649626 -0.14221425767500373
0.48811538665946 0.5424572572330212 -0.14221425767500373
0.5887770418630842 0.3300973192231072 -0.14221425767500373
0.48456003021758504 0.27628624834368515 -0.14221425767500373
0.5034284570809447 0.5444402447696164 -0.14221425767500373
0.488145431925166 0.28771346440052864 -0.14221425767500373
0.21255022469271861 0.5224270800956968 -0.14221425767500373
0.35251108743977344 0.34895573099789834 -0.14221425767500373
0.34401829233354786 0.34547048017600385 -0.14221425767500373
0.3286150861149453 0.2605124838480421 -0.14171350324657062
0.33897068769494204 0.2605124838480421 -0.14091229616107764
0.4783406602164457 0.5654819458523758 -0.14091229616107764
0.15517378228285267 0.41473483271687184 -0.1402112399612713
0.4406739121097071 0.5359774949290969 -0.1402112399612713
0.1376073169334192 0.42679299935354115 -0.1402112399612713
0.5225773064242268 0.6109804932198083 -0.1402112399612713
0.4457215167483129 0.2803123139482874 -0.1402112399612713
0.1322792898148908 0.5113503921387565 -0.1402112399612713
0.18692161304551197 0.3030465649991506 -0.1402112399612713
0.585492092812563 0.3309085413971689 -0.1402112399612713
0.43446455719713645 0.27453360784416925 -0.1402112399612713
0.32047281910862296 0.2767569575064122 -0.1402112399612713
0.515546714249026 0.5476050127573137 -0.1402112399612713
0.4883156884308334 0.2905577495540288 -0.1402112399612713
0.24910529796833583 0.2133213865125056 -0.1402112399612713
0.34801431267244415 0.35314203801959904 -0.1402112399612713
0.31856995228057705 0.35961178523495485 -0.1402112399612713
0.3638882280537737 0.268103920983088 -0.13971048553283819
0.39292196981432553 0.3396617288061798 -0.1389092784473452
0.31112874147406105 0.49795020363388637 -0.1389092784473452
0.6540854344193308 0.4583705736105332 -0.1389092784473452
0.48187598648118357 0.482837434983775 -0.13820822224753884
0.3961368132448661 0.5324321535757905 -0.13820822224753884
0.6473653099897582 0.41407383687134014 -0.13820822224753884
0.3400222719946516 0.28208498462494047 -0.13820822224753884
0.244768764618105 0.5207245150390243 -0.13820822224753884
0.33084845086575704 0.5374997883915337 -0.13820822224753884
0.6384018057208057 0.4353358699026101 -0.13820822224753884
0.5305092565706073 0.291378986816659 -0.13820822224753884
0.47173070176112863 0.274183079744266 -0.13820822224753884
0.5731535036959711 0.329125855631947 -0.13820822224753884
0.5195427345879222 0.5289068423996214 -0.13820822224753884
0.24115331764481804 0.2212733668360234 -0.13820822224753884
0.32831463345788553 0.3700174622577949 -0.13820822224753884
0.23526444556644457 0.4605438478299329 -0.13820822224753884
0.6540854344193308 0.3239280246648113 -0.13690626073361276
0.3620654819342772 0.4188009586757486 -0.13690626073361276
0.39026797134363006 0.5638995618585273 -0.13690626073361276
0.4341941498057826 0.5378503164914368 -0.1362052045338064
0.3879044104414257 0.5322819272472604 -0.1362052045338064
0.14920478949593008 0.4003431504437042 -0.1362052045338064
0.48361861189213073 0.5371592753801989 -0.1362052045338064
0.33106878281426755 0.5377601806943186 -0.1362052045338064
0.25979139747109836 0.2924606163820746 -0.1362052045338064
0.48628262545139495 0.27808896428604424 -0.1362052045338064
0.18200420455829883 0.29958134435439343 -0.1362052045338064
0.1489343821045762 0.5219463558444011 -0.1362052045338064
0.5095176309306912 0.5297681400165263 -0.1362052045338064
0.4983107468223582 0.488826457947835 -0.1362052045338064
0.5197129910935894 0.2896263463171432 -0.1362052045338064
0.21485369506351096 0.5318412633502395 -0.1362052045338064
0.37641710385317023 0.34731325647263767 -0.1362052045338064
0.3563268361844338 0.3528115400968332 -0.1362052045338064
0.3648697067335026 0.26399773466993653 -0.13570445010537327
0.3620154064914339 0.37923134374096423 -0.1349032430198803
0.3638882280537737 0.5573897542888967 -0.1349032430198803
0.6277056911294743 0.48475031690038956 -0.1349032430198803
0.12886414461297704 0.39235110976591175 -0.13420218682007395
0.24612080157487448 0.45051874417270193 -0.13420218682007395
0.34296670803383833 0.4645498832573979 -0.13420218682007395
0.34477943906476616 0.4024963944859665 -0.13420218682007395
0.47700865343681365 0.4785710072535249 -0.13420218682007395
0.24212478123597822 0.2956153692812032 -0.13420218682007395
0.4478847758791439 0.28273596538190354 -0.13420218682007395
0.2403220652936191 0.5279453938970298 -0.13420218682007395
0.47656798953979257 0.27350205372159697 -0.13420218682007395
0.47471519815459 0.3335324946021584 -0.13420218682007395
0.488235567722284 0.40901621714416575 -0.13420218682007395
0.614515819484546 0.32647185716125154 -0.13290022530614787
0.3633674434482033 0.4188009586757486 -0.13290022530614787
0.4011143122634912 0.5589621231941768 -0.13290022530614787
0.128894189878683 0.41217097004329434 -0.1321991691063415
0.24129352888477928 0.3635477150424391 -0.1321991691063415
0.2381387759856507 0.3616748934800993 -0.1321991691063415
0.5066232703343478 0.2885146714860218 -0.1321991691063415
0.3056905483812775 0.5332734210155582 -0.1321991691063415
0.3265619929583695 0.2846288171213808 -0.1321991691063415
0.26711242721479056 0.2888952448516309 -0.1321991691063415
0.46730403261378 0.48519098079741063 -0.1321991691063415
0.3646093144307174 0.5512104446420323 -0.1321991691063415
0.5536541262527856 0.3126810802022037 -0.1321991691063415
0.49988311572763827 0.5271041264572621 -0.1321991691063415
0.6540854344193308 0.3553854178589794 -0.1308972075924154
0.3619152556057472 0.37923134374096423 -0.1308972075924154
0.38709318826736416 0.5612455633878316 -0.1308972075924154
0.7200347926439714 0.4188009586757486 -0.1308972075924154
0.24617087701771773 0.45632749554252605 -0.13019615139260907
0.34743343753546163 0.46416930989178856 -0.13019615139260907
0.35559573471892136 0.3582697633667541 -0.13019615139260907
0.4968986193341769 0.3044787226644693 -0.13019615139260907
0.41490508922253905 0.5450711953494423 -0.13019615139260907
0.4764978839198119 0.3377889072438398 -0.13019615139260907
0.27964130301418694 0.5277851524799312 -0.13019615139260907
0.6599142159662922 0.4014047498319824 -0.13019615139260907
0.4990718935535766 0.2969774213265413 -0.13019615139260907
0.5003337947132279 0.48461010566042834 -0.13019615139260907
0.48043381372729616 0.26484901719827275 -0.12889418987868295
0.31112874147406105 0.37434398051945705 -0.12889418987868295
0.48043381372729616 0.555486887460851 -0.12889418987868295
0.12955518572421476 0.416477458127819 -0.1281931336788766
0.24612080157487448 0.42103432342656044 -0.1281931336788766
0.24402764806402402 0.4621963374437622 -0.1281931336788766
0.3446292127362362 0.4085755532471446 -0.1281931336788766
0.5009647452930537 0.28503943575269586 -0.1281931336788766
0.3479742523181694 0.28102338523666237 -0.1281931336788766
0.35634686636157104 0.2748741208555037 -0.1281931336788766
0.48166566962124163 0.3516397747342998 -0.1281931336788766
0.29423328705872787 0.5262428288403572 -0.1281931336788766
0.6110906591940637 0.3542637279392893 -0.1281931336788766
0.5045301168234976 0.531230342947551 -0.1281931336788766
0.31112874147406105 0.43199083032067687 -0.12689117216495052
0.3926215171572657 0.3396617288061798 -0.12689117216495052
0.6936550493541151 0.43199083032067687 -0.12689117216495052
0.15544418967420656 0.4109891895921922 -0.12619011596514418
0.3475335884211483 0.4585007697619259 -0.12619011596514418
0.35606644388164843 0.3525611628826167 -0.12619011596514418
0.6069243823495003 0.4762374916170267 -0.12619011596514418
0.37056829212907144 0.5433586152042008 -0.12619011596514418
0.39217083817167586 0.27654664064647033 -0.12619011596514418
0.510769517001774 0.537369592240141 -0.12619011596514418
0.49682851371419623 0.2752847394868188 -0.12619011596514418
0.5054114446175397 0.3314493561798767 -0.12619011596514418
0.58596280197529 0.48478036216609555 -0.12619011596514418
0.4332327013031911 0.5625174796360518 -0.12488815445121806
0.47158047543259873 0.4188009586757486 -0.12488815445121806
0.5353665745264085 0.24732261220311383 -0.12488815445121806
0.14576961411687892 0.4004132560636848 -0.1241870982514117
0.347303241384069 0.3486052028979952 -0.1241870982514117
0.23753787067153093 0.45971259547873394 -0.1241870982514117
0.344519046761981 0.4027567867887518 -0.1241870982514117
0.3659313061217809 0.5426074835615513 -0.1241870982514117
0.3819153874773657 0.27549505634676075 -0.1241870982514117
0.6435095008908234 0.4430575031890487 -0.1241870982514117
0.4871238928911626 0.27180950375349305 -0.1241870982514117
0.5070038436999571 0.29904052957168564 -0.1241870982514117
0.5066933759543285 0.48709384762545643 -0.1241870982514117
0.31112874147406105 0.37434398051945705 -0.12288513673748562
0.31112874147406105 0.3380693297237624 -0.12288513673748562
0.614515819484546 0.49795020363388637 -0.12288513673748562
0.1385487352588734 0.42560120381387034 -0.12218408053767926
0.33765871109244733 0.45874113188757376 -0.12218408053767926
0.35175995579712377 0.4641492797146513 -0.12218408053767926
0.5658424890408478 0.509467555487848 -0.12218408053767926
0.3874236861901299 0.5463531266862309 -0.12218408053767926
0.3915999781232621 0.273381872658773 -0.12218408053767926
0.5373896224172783 0.5287065406282481 -0.12218408053767926
0.5523822100045658 0.29477410184143565 -0.12218408053767926
0.5084259862767071 0.330578043474403 -0.12218408053767926
0.5079753072911173 0.4880653112166168 -0.12218408053767926
0.31112874147406105 0.3924212153858925 -0.12088211902375316
0.3686854554781629 0.3333622380964912 -0.12088211902375316
0.7200347926439714 0.40561108703082055 -0.12088211902375316
0.15374162461753396 0.41155003455203726 -0.12018106282394683
0.3549747992276643 0.3484049011266218 -0.12018106282394683
0.23629599968901688 0.3700174622577949 -0.12018106282394683
0.33686751909552304 0.40081385960643134 -0.12018106282394683
0.37346265272541485 0.5443000335296553 -0.12018106282394683
0.40542080034801603 0.27021710467107574 -0.12018106282394683
0.5594929228883158 0.3021752522936769 -0.12018106282394683
0.4521812488751 0.28191472811927326 -0.12018106282394683
0.4947553903804832 0.526723553091653 -0.12018106282394683
0.6532641971567003 0.40825507041294734 -0.12018106282394683
0.43219113209205023 0.25275079020732877 -0.1196803083955137
0.48467019619184026 0.49795020363388637 -0.11887910131002073
0.4594021277331055 0.2489150112855312 -0.11887910131002073
0.6277056911294743 0.49795020363388637 -0.11887910131002073
0.31856995228057705 0.36812461051831785 -0.11817804511021437
0.3566172737529249 0.4723516372523857 -0.11817804511021437
0.37507508198496947 0.3362165383385599 -0.11817804511021437
0.4869536363854952 0.34087355452298784 -0.11817804511021437
0.4754763448858083 0.47917191256764463 -0.11817804511021437
0.5005140663074639 0.29392281931309927 -0.11817804511021437
0.4990318331993019 0.48510084500029266 -0.11817804511021437
0.46694348942530817 0.5543651975411609 -0.11817804511021437
0.6324127827567455 0.3697270246893038 -0.11817804511021437
0.45106957404397846 0.2548639738953165 -0.11767729068178127
0.3615446973287068 0.3924212153858925 -0.11687608359628829
0.35594626281882463 0.31327197042775473 -0.11687608359628829
0.6540854344193308 0.5004840210417579 -0.11687608359628829
0.24612080157487448 0.3700174622577949 -0.11617502739648193
0.3737430752053373 0.4733531461092519 -0.11617502739648193
0.2429760637643146 0.46712376101954395 -0.11617502739648193
0.5036688192065926 0.4826872086552451 -0.11617502739648193
0.4793621992504493 0.5441998826439685 -0.11617502739648193
0.47512581678590515 0.33694763980407233 -0.11617502739648193
0.49197119575839504 0.5367586718374525 -0.11617502739648193
0.6465340576385593 0.4523915657350419 -0.11617502739648193
0.5843002972728921 0.3236275720077514 -0.11617502739648193
0.5098881892077318 0.5339844923039332 -0.11617502739648193
0.3614946218858634 0.3924212153858925 -0.11487306588255583
0.44303747301191143 0.2489150112855312 -0.11487306588255583
0.6408955627744025 0.5136738926866862 -0.11487306588255583
0.24636116370052238 0.45144013232101887 -0.11417200968274947
0.31856995228057705 0.3606833997118017 -0.11417200968274947
0.3746744784422229 0.33845991817794024 -0.11417200968274947
0.5068636324599958 0.2916794394737189 -0.11417200968274947
0.41575637175087543 0.26958615409125014 -0.11417200968274947
0.5333234964584015 0.2870925289092716 -0.11417200968274947
0.491380305532844 0.2869623327578791 -0.11417200968274947
0.5006042021045819 0.49018850999317304 -0.11417200968274947
0.535797223334861 0.5247605957321952 -0.11417200968274947
0.45808013604204206 0.5770894335034554 -0.11287004816882339
0.46941721630176775 0.3660414720960361 -0.11287004816882339
0.6936550493541151 0.36349763959959586 -0.11287004816882339
0.31856995228057705 0.4562874351882515 -0.11216899196901703
0.2405223670649923 0.45774963811927616 -0.11216899196901703
0.3392911705291392 0.4693571257703556 -0.11216899196901703
0.509437510222142 0.4873842851939478 -0.11216899196901703
0.47990301403315705 0.5453115574750902 -0.11216899196901703
0.45112966457539044 0.2615941134134576 -0.11216899196901703
0.5018560881756646 0.3302375304630686 -0.11216899196901703
0.5017759674671154 0.5230980910297972 -0.11216899196901703
0.6547864906191371 0.41879094358718005 -0.11216899196901703
0.4562273446568395 0.2512284967448921 -0.11166823754058391
0.46061395344991357 0.49540637113744607 -0.11086703045509093
0.6672753060642588 0.33711789630973954 -0.11086703045509093
0.5542650466554742 0.5210449978732214 -0.1101659742552846
0.4459819090510981 0.5545054087811219 -0.1101659742552846
0.4963678196400377 0.2783193113231236 -0.1101659742552846
0.4073036369989244 0.5539345487327083 -0.1101659742552846
0.6205949782457241 0.4847403018118208 -0.1101659742552846
0.5112802865187758 0.3381594655208804 -0.1101659742552846
0.514004390609452 0.49057909844735087 -0.1101659742552846
0.31856995228057705 0.4600330783129311 -0.1101659742552846
0.37486476512502753 0.48451996986331036 -0.1101659742552846
0.45942215791024277 0.32647185716125154 -0.1088640127413585
0.6013159327510494 0.31007715717435147 -0.1088640127413585
0.6559682710702391 0.4583705736105332 -0.1088640127413585
0.4281750815760166 0.5520617271703683 -0.10816295654155214
0.44090425914678627 0.2698565614826039 -0.10816295654155214
0.6374904326610573 0.4632679519206091 -0.10816295654155214
0.585371911749739 0.3076034302978919 -0.10816295654155214
0.6621475807171037 0.41815999300735435 -0.10816295654155214
0.518481135199644 0.2963064103924409 -0.10816295654155214
0.35466433148203586 0.34810444846956196 -0.10816295654155214
0.3756960174762265 0.3422756669226006 -0.10816295654155214
0.3638882280537737 0.37923134374096423 -0.10686099502762605
0.5357171026263117 0.2737023554929702 -0.10686099502762605
0.6408955627744025 0.476938547816833 -0.10686099502762605
0.6687875844381268 0.41523558714530495 -0.1061599388278197
0.4657717240627746 0.27077794963092094 -0.1061599388278197
0.664360915290778 0.3905483938235525 -0.1061599388278197
0.4501481858956615 0.25765818360597337 -0.1061599388278197
0.5061125008173462 0.3290958103662411 -0.1061599388278197
0.6672552758871216 0.410458389898053 -0.1061599388278197
0.3734826829025521 0.34693268310702857 -0.1061599388278197
0.3778592766070575 0.3396316835404738 -0.1061599388278197
0.3612342295830782 0.3924212153858925 -0.1048579773138936
0.6013259478396181 0.28435840973002685 -0.1048579773138936
0.6408955627744025 0.48475031690038956 -0.1048579773138936
0.661045920974551 0.4295972241527666 -0.10415692111408724
0.48355852136071875 0.2736122196958522 -0.10415692111408724
0.5113904524930311 0.524109614975232 -0.10415692111408724
0.46978777457880816 0.5629180831787982 -0.10415692111408724
0.51521621632626 0.48223652966965525 -0.10415692111408724
0.3204628040200543 0.3700174622577949 -0.10415692111408724
0.34954662122344937 0.3495165759577434 -0.10415692111408724
0.3371880019297202 0.46817534531925353 -0.10415692111408724
0.46002306322436254 0.4715604452554613 -0.10285495960016115
0.6408955627744025 0.48475031690038956 -0.10285495960016115
0.5523922250931342 0.5248707617064504 -0.1021539034003548
0.5076347942797828 0.540804767619192 -0.1021539034003548
0.6541355098621741 0.3729618982969816 -0.1021539034003548
0.4992822104135185 0.2681539964259314 -0.1021539034003548
0.6047010326872572 0.3323507141510563 -0.1021539034003548
0.4893672727305428 0.3447994692419034 -0.1021539034003548
0.24263555075298002 0.36227579879421906 -0.1021539034003548
0.37551574588199055 0.4740642173976269 -0.1021539034003548
0.3548546181648404 0.3575787222555164 -0.1021539034003548
0.361124063608823 0.4188009586757486 -0.1008519418864287
0.6672753060642588 0.33711789630973954 -0.1008519418864287
0.5112302110759326 0.3388004311892747 -0.10015088568662235
0.45706861209660715 0.26910542983995434 -0.10015088568662235
0.484770347077527 0.5515409425647979 -0.10015088568662235
0.6402145367517333 0.47104967573845963 -0.10015088568662235
0.67071048144331 0.4105385106066024 -0.10015088568662235
0.5143248734436492 0.34110390156006704 -0.10015088568662235
0.2888852297630622 0.45241159591217917 -0.10015088568662235
0.34844496148089654 0.3497168777291166 -0.10015088568662235
0.33708785104403355 0.4682354358506655 -0.10015088568662235
0.3367673682098364 0.48475031690038956 -0.09884892417269626
0.574936189461193 0.2711685380850986 -0.09884892417269626
0.6451319452389467 0.45473509646010885 -0.0981478679728899
0.5016858316699974 0.5442499580868118 -0.0981478679728899
0.5772396598319854 0.5173694603685225 -0.0981478679728899
0.6581215151125016 0.45155029829527427 -0.0981478679728899
0.5449810595523243 0.38396848063394146 -0.0981478679728899
0.5292273252338185 0.3488355499350744 -0.0981478679728899
0.34469931835621687 0.4637787214376109 -0.0981478679728899
0.3730520340940997 0.4778399057880126 -0.0981478679728899
0.4736135384120372 0.4188009586757486 -0.09764711354445679
0.46941721630176775 0.42219607370052525 -0.09684590645896382
0.6936550493541151 0.4188009586757486 -0.09684590645896382
0.5196328703850401 0.3361364176300106 -0.09614485025915746
0.5164380571316368 0.33365267566498236 -0.09614485025915746
0.47424448899186294 0.3340132188534542 -0.09614485025915746
0.4803136326644722 0.46987791037592613 -0.09614485025915746
0.5476751183772945 0.3880746669470929 -0.09614485025915746
0.5829582754046916 0.31428349437318964 -0.09614485025915746
0.3191107670632848 0.3604730828518598 -0.09614485025915746
0.23979126559947989 0.464099204271808 -0.09614485025915746
0.33953153265478714 0.4316102569550677 -0.09614485025915746
0.45996297269295056 0.48475031690038956 -0.09484288874523136
0.6672753060642588 0.4539038441089099 -0.09484288874523136
0.5216659333644786 0.48270723883238237 -0.094141832545425
0.47736919662528554 0.47990301403315705 -0.094141832545425
0.49772987168537586 0.5504793431765198 -0.094141832545425
0.6289275319348512 0.4854213278344898 -0.094141832545425
0.6696789273207377 0.41890110956143534 -0.094141832545425
0.5543451673640235 0.41665772972205495 -0.094141832545425
0.23807868545423871 0.45425437220881304 -0.094141832545425
0.3559963382616679 0.3475836638639916 -0.094141832545425
0.37414367874808385 0.48257704268098983 -0.094141832545425
0.5078851714939994 0.4970989211055501 -0.09283987103149892
0.5083158203024518 0.3108082586398639 -0.09283987103149892
0.3142434340189151 0.43199083032067687 -0.09283987103149892
0.48929716711056226 0.4804738740815707 -0.09213881483169256
0.480023195095981 0.27052757241670433 -0.09213881483169256
0.4764377933883999 0.5571694223403862 -0.09213881483169256
0.6759183274990143 0.3899775337751387 -0.09213881483169256
0.4945450735205413 0.4776996945480512 -0.09213881483169256
0.5416260048818224 0.30051274759127905 -0.09213881483169256
0.5488669139169653 0.4531326822891229 -0.09213881483169256
0.24071265374779693 0.4605538629185016 -0.09213881483169256
0.3559362477302559 0.34754360350971686 -0.09213881483169256
0.3387804010121374 0.47705872887965695 -0.09213881483169256
0.5137540133952354 0.5131531080811156 -0.09083685331776646
0.510268762573341 0.29974158577149207 -0.09083685331776646
0.3142434340189151 0.43199083032067687 -0.09083685331776646
0.23911023957681088 0.36077353550891966 -0.09013579711796012
0.23827898722561192 0.4522313243179433 -0.09013579711796012
0.23753787067153093 0.35294173624822583 -0.09013579711796012
0.4846601811032716 0.4310494119952227 -0.09013579711796012
0.47120991715555816 0.551631078361916 -0.09013579711796012
0.47127000768697014 0.26901529404283636 -0.09013579711796012
0.524590339226528 0.28742302683203746 -0.09013579711796012
0.5390421120311076 0.5310300411761777 -0.09013579711796012
0.34042287553739803 0.3341233848277095 -0.08883383560403402
0.46941721630176775 0.3801827771549871 -0.08883383560403402
0.6408955627744025 0.5136738926866862 -0.08883383560403402
0.24744279326593793 0.46011319902148035 -0.08813277940422766
0.34743343753546163 0.3513994126086519 -0.08813277940422766
0.2316489985931576 0.46257691080937136 -0.08813277940422766
0.48879641268212903 0.3863721018904203 -0.08813277940422766
0.503328306195258 0.34231572727687526 -0.08813277940422766
0.6511910738229872 0.4535332858318693 -0.08813277940422766
0.6139950348789757 0.49525614480891617 -0.08813277940422766
0.5427276646243754 0.541786246298921 -0.08813277940422766
0.6714415829088222 0.4206537500609512 -0.08813277940422766
0.6557879994760032 0.4715604452554613 -0.08683081789030159
0.3326912271623909 0.4795124255789792 -0.08683081789030159
0.34628170235006556 0.4711698568012836 -0.08612976169049523
0.34282649679387706 0.48035369301874675 -0.08612976169049523
0.48077432673863074 0.3492862289206642 -0.08612976169049523
0.6076855290807185 0.3249796089645209 -0.08612976169049523
0.6269946198410993 0.3354053161644982 -0.08612976169049523
0.6878262678071538 0.4052305136652114 -0.08612976169049523
0.5692676493313301 0.5016257411385854 -0.08612976169049523
0.6298188748174621 0.49795020363388637 -0.08482780017656913
0.3142434340189151 0.37923134374096423 -0.08482780017656913
0.3488856253779176 0.351068914685886 -0.08412674397676277
0.48992811769038785 0.4807142362072186 -0.08412674397676277
0.49217149752976824 0.4704087100700652 -0.08412674397676277
0.6310307005342701 0.34404833759925374 -0.08412674397676277
0.6052919229128082 0.3167271759839432 -0.08412674397676277
0.6407653666230099 0.3421554858597766 -0.08412674397676277
0.5737744391872283 0.30936608588597647 -0.08412674397676277
0.7200347926439714 0.445180701965605 -0.08282478246283669
0.36065335444609586 0.4188009586757486 -0.08282478246283669
0.3234372853249469 0.4709595399413417 -0.08282478246283669
0.37241106842570526 0.48210633351826276 -0.08212372626303033
0.4800632554502556 0.33245086503674287 -0.08212372626303033
0.5489570497140831 0.5311902825932762 -0.08212372626303033
0.5121716294013867 0.2757955090038206 -0.08212372626303033
0.5563982605205992 0.30531999010423694 -0.08212372626303033
0.5701089167710978 0.5130128968411544 -0.08212372626303033
0.39097904263200506 0.3306281189172464 -0.08082176474910424
0.5294977326251724 0.3000820987828265 -0.08082176474910424
0.5956974680640298 0.5243299469237427 -0.08082176474910424
0.373783135559612 0.3376086356496039 -0.08012070854929788
0.47873124867062355 0.48875635232785447 -0.08012070854929788
0.5149658391120434 0.5440797015811445 -0.08012070854929788
0.5122317199327987 0.27973143881130486 -0.08012070854929788
0.5188416783881158 0.2693257617884648 -0.08012070854929788
0.5780909423603215 0.30607112174688667 -0.08012070854929788
0.6936550493541151 0.39493500261662656 -0.07881874703537181
0.5461127645605831 0.3047591451443919 -0.07881874703537181
0.3638882280537737 0.4188009586757486 -0.07881874703537181
0.3560163684388052 0.35509498029048825 -0.07811769083556544
0.4721513354810125 0.34475940888762885 -0.07811769083556544
0.5494277588768103 0.5324121233986531 -0.07811769083556544
0.4801934516016482 0.26859466032295254 -0.07811769083556544
0.5637994109728406 0.30097344166543755 -0.07811769083556544
0.6066740051352837 0.49176087889845316 -0.07811769083556544
0.36976708504357847 0.49141035079854983 -0.07681572932163933
0.5459324929663473 0.499532587627735 -0.07681572932163933
0.671661914857333 0.4583705736105332 -0.07681572932163933
0.3817451309716985 0.47080931361281175 -0.07611467312183297
0.47823049424219044 0.442987397569068 -0.07611467312183297
0.48480039234323297 0.5553166309551837 -0.07611467312183297
0.5878155933604926 0.49267225195820136 -0.07611467312183297
0.5722821909904976 0.5153864728319273 -0.07611467312183297
0.5773598408948094 0.3153050334071932 -0.07611467312183297
0.680465177709187 0.36857528950390767 -0.0748127116079069
0.5089868312365522 0.3000820987828265 -0.0748127116079069
0.31112874147406105 0.37923134374096423 -0.0748127116079069
0.37478464441647813 0.34578094792163233 -0.07411165540810052
0.4899080875132506 0.36996738681495167 -0.07411165540810052
0.4820462429868508 0.35153962384861315 -0.07411165540810052
0.6415365284427968 0.35028773777753036 -0.07411165540810052
0.6874657246186819 0.40274677170018314 -0.07411165540810052
0.6360883202614445 0.48694362129692653 -0.07411165540810052
0.6297387541089128 0.3425060139596798 -0.07411165540810052
0.5277350770370879 0.327703713055197 -0.07280969389417445
0.31112874147406105 0.48475031690038956 -0.07280969389417445
0.34881551975793706 0.350478024460335 -0.0721086376943681
0.48344835538646347 0.38161493482030584 -0.0721086376943681
0.47969269717321517 0.4320308906749516 -0.0721086376943681
0.5929633488847851 0.31306165356781285 -0.0721086376943681
0.5914911308651918 0.3041983001845467 -0.0721086376943681
0.6855528427020675 0.4295371336213546 -0.0721086376943681
0.665522665564743 0.38170507061742376 -0.0721086376943681
0.5353665745264085 0.24732261220311383 -0.07080667618044201
0.4702284384758293 0.42304735622886147 -0.07080667618044201
0.34757364877542285 0.46789492283933093 -0.07010561998063565
0.4885460354679126 0.4761273256427713 -0.07010561998063565
0.4691267787332764 0.4719410186210706 -0.07010561998063565
0.6003544842484578 0.504159558546457 -0.07010561998063565
0.4913302300900006 0.2617944151848308 -0.07010561998063565
0.6545260983163518 0.35062825078886495 -0.07010561998063565
0.625902975187115 0.3505581451688842 -0.07010561998063565
0.5603742506823582 0.2753348149296622 -0.06880365846670956
0.47348334226064454 0.42697327094777704 -0.06880365846670956
0.349085927149291 0.4704587855129085 -0.0681026022669032
0.37323230568833565 0.48308781219799163 -0.0681026022669032
0.5201937153448852 0.4906792493330376 -0.0681026022669032
0.5235087096611124 0.5433586152042008 -0.0681026022669032
0.5590222137255887 0.2951546752070448 -0.0681026022669032
0.5806047295910558 0.29248064655921185 -0.0681026022669032
0.6353972791502069 0.35154963893718183 -0.0681026022669032
0.6755778144876798 0.35285160045110786 -0.06680064075297709
0.3506983564088456 0.5111400752788146 -0.06680064075297709
0.33729816790397543 0.3342135206248274 -0.06680064075297709
0.3814847386689133 0.4710596908270282 -0.06609958455317073
0.48089450780145465 0.4431376238975979 -0.06609958455317073
0.4935535797522437 0.5510101428706589 -0.06609958455317073
0.62122592882555 0.47846084127926963 -0.06609958455317073
0.6220371509996114 0.49662821194282286 -0.06609958455317073
0.48040376846159016 0.5460226287634652 -0.06609958455317073
0.6672753060642588 0.3528115400968332 -0.06559883012473765
0.6838502776453947 0.3660414720960361 -0.06479762303924465
0.5485564461713367 0.4715604452554613 -0.06479762303924465
0.31112874147406105 0.3396617288061798 -0.06479762303924465
0.35006740582901985 0.464900411357301 -0.06409656683943829
0.47918192765621337 0.4500179897442689 -0.06409656683943829
0.48951749905907277 0.5517212141590339 -0.06409656683943829
0.6238799272962453 0.4843997888004864 -0.06409656683943829
0.6568295686871443 0.4644597474602799 -0.06409656683943829
0.5016758165814287 0.5578905087173299 -0.06409656683943829
0.6672753060642588 0.4732930555778399 -0.06359581241100518
0.31112874147406105 0.37923134374096423 -0.06279460532551222
0.3506983564088456 0.5004840210417579 -0.06279460532551222
0.677170213570097 0.35285160045110786 -0.06279460532551222
0.37661740562454343 0.3451199520761006 -0.06209354912570585
0.49166072801276645 0.4813952622298876 -0.06209354912570585
0.4795925462875285 0.3289455840377111 -0.06209354912570585
0.6854526918163807 0.42020307107536137 -0.06209354912570585
0.6083865852805248 0.31295148759355756 -0.06209354912570585
0.6339050309534762 0.32813436186364947 -0.06209354912570585
0.6537549364965648 0.44569147148260674 -0.06209354912570585
0.3638882280537737 0.43199083032067687 -0.060791587611779774
0.4736135384120372 0.40561108703082055 -0.060791587611779774
0.6506903193945542 0.48793511506522413 -0.060791587611779774
0.6548666113276862 0.3350047126217518 -0.060791587611779774
0.38132449725181466 0.34933630436350743 -0.060090531411973416
0.4863126707171009 0.454995488762894 -0.060090531411973416
0.49773988677394443 0.5532635377986078 -0.060090531411973416
0.6547864906191371 0.3553854178589794 -0.060090531411973416
0.6446612360762196 0.3422456216568946 -0.060090531411973416
0.5041996189007317 0.26288605983881497 -0.060090531411973416
0.666353917915942 0.44314763898616666 -0.060090531411973416
0.6794636688523208 0.360082494397682 -0.059589776983540295
0.33160959759697534 0.46743422876517254 -0.05878856989804733
0.5617463178162649 0.48475031690038956 -0.05878856989804733
0.6540854344193308 0.31327197042775473 -0.05878856989804733
0.3729719133855503 0.48333818941220813 -0.05808751369824097
0.48458006039472235 0.3769178582816033 -0.05808751369824097
0.49378392678932287 0.2657103148151778 -0.05808751369824097
0.6479461851267408 0.3654505818704849 -0.05808751369824097
0.4899481478675253 0.548366159488532 -0.05808751369824097
0.5789822852429324 0.5308798148476479 -0.05808751369824097
0.6486973167693904 0.35546553856752866 -0.05808751369824097
0.696919968227499 0.43199083032067687 -0.05678555218431486
0.46941721630176775 0.4353058246369041 -0.05678555218431486
0.3638882280537737 0.445180701965605 -0.05678555218431486
0.35416357705360263 0.4654011657857341 -0.0560844959845085
0.4866431686398668 0.36454922389930544 -0.0560844959845085
0.5022366615412739 0.26890512806858097 -0.0560844959845085
0.646634208524246 0.4691568239989824 -0.0560844959845085
0.5011149716215836 0.5583512027914883 -0.0560844959845085
0.5517512594247399 0.5435489018870054 -0.0560844959845085
0.6617169319086514 0.3682748368468478 -0.0560844959845085
0.6936550493541151 0.36349763959959586 -0.054782534470582414
0.47125999259840157 0.3858012418420067 -0.054782534470582414
0.35991223789201476 0.42583155085094965 -0.054782534470582414
0.38525041197073023 0.3528415853625392 -0.05408147827077606
0.48344835538646347 0.40655250535627474 -0.05408147827077606
0.4923217238582982 0.4785710072535249 -0.05408147827077606
0.658401937592424 0.3636378508395571 -0.05408147827077606
0.6763089159531922 0.37625686243607154 -0.05408147827077606
0.547244469568842 0.27973143881130486 -0.05408147827077606
0.6423677807939958 0.3566473190186309 -0.05408147827077606
0.5353665745264085 0.24732261220311383 -0.05277951675684998
0.5485564461713367 0.4715604452554613 -0.05277951675684998
0.31112874147406105 0.35285160045110786 -0.05277951675684998
0.5308497695819419 0.5385413576026744 -0.05207846055704362
0.6873856039101326 0.398390208172815 -0.05207846055704362
0.6796639706236939 0.4141138972256148 -0.05207846055704362
0.546853881114664 0.29173953000513086 -0.05207846055704362
0.4876647076738702 0.45951229370736074 -0.05207846055704362
0.49469529984907123 0.3491460176807028 -0.05207846055704362
0.337728816712428 0.47803019247081713 -0.05207846055704362
0.680465177709187 0.3503077679546676 -0.05077649904311754
0.5617463178162649 0.35285160045110786 -0.05077649904311754
0.3686253649467509 0.3290056745691231 -0.05077649904311754
0.6147361514330568 0.5048806449234007 -0.050075442843311176
0.6975308886301875 0.4105284955180337 -0.050075442843311176
0.6495786445634326 0.34044290571453534 -0.050075442843311176
0.48927713693342484 0.4448702342199765 -0.050075442843311176
0.5248507315293132 0.33277134787094015 -0.050075442843311176
0.3484649916580338 0.349706862640548 -0.050075442843311176
0.3914297216175949 0.35285160045110786 -0.048773481329385096
0.47315284433787863 0.3924212153858925 -0.048773481329385096
0.6864542006732471 0.3704380959776788 -0.048773481329385096
0.6692482785122852 0.4694272313903363 -0.048773481329385096
0.5688269854343091 0.5194125384365296 -0.04807242512957874
0.6748467130221674 0.3691962249951647 -0.04807242512957874
0.6406051252059114 0.3410438110286551 -0.04807242512957874
0.4919511655812578 0.4713501283955194 -0.04807242512957874
0.5237791170524664 0.329866972186028 -0.04807242512957874
0.5060924706402088 0.345079891721826 -0.04807242512957874
0.3715197255430943 0.3375886054724666 -0.04807242512957874
0.31112874147406105 0.4715604452554613 -0.046770463615652624
0.5485564461713367 0.3000820987828265 -0.046770463615652624
0.6548666113276862 0.3796119171065733 -0.046770463615652624
0.6445110097476895 0.45797998515635535 -0.046770463615652624
0.6438099535478832 0.48258705776955857 -0.04606940741584626
0.6880566148442331 0.4233277787087841 -0.04606940741584626
0.5024269482240784 0.26629118995216017 -0.04606940741584626
0.5853218363068957 0.29162936403087564 -0.04606940741584626
0.4856216296058632 0.39883087206983614 -0.04606940741584626
0.5140444509637265 0.4560570881511723 -0.04606940741584626
0.3414744598371076 0.34308688909666224 -0.04606940741584626
0.3638882280537737 0.43199083032067687 -0.04476744590192018
0.4703486195386532 0.445180701965605 -0.04476744590192018
0.6611761171259436 0.48475031690038956 -0.04476744590192018
0.6672753060642588 0.32647185716125154 -0.04476744590192018
0.6664640838901972 0.3627765532226522 -0.04476744590192018
0.609658501528745 0.4952761749860536 -0.04406638970211382
0.6945664224138636 0.4127318150031394 -0.04406638970211382
0.5192122366651564 0.2738625969100688 -0.04406638970211382
0.6391228920977494 0.3499973002090392 -0.04406638970211382
0.4882856431651274 0.36066336953466444 -0.04406638970211382
0.4963477894629004 0.41841037022157096 -0.04406638970211382
0.34518004260751267 0.47221142601242444 -0.04406638970211382
0.5254015614005896 0.5638995618585273 -0.0435656352736807
0.3905383787349839 0.3396617288061798 -0.04276442818818774
0.5089868312365522 0.31073815301988317 -0.04276442818818774
0.6939655170997437 0.37923134374096423 -0.04276442818818774
0.5225272309813835 0.545932492966347 -0.042063371988381386
0.6480363209238587 0.48691357603122054 -0.042063371988381386
0.6990631971811927 0.42228620949764323 -0.042063371988381386
0.498791471073654 0.2581889833001125 -0.042063371988381386
0.48476033198895824 0.44881617911602933 -0.042063371988381386
0.4929727046152612 0.3989810983983661 -0.042063371988381386
0.5032381703981401 0.3607535053317824 -0.042063371988381386
0.33869026521501944 0.3400022418175142 -0.042063371988381386
0.5617463178162649 0.32647185716125154 -0.0407614104744553
0.5320215349444752 0.43199083032067687 -0.0407614104744553
0.7088579538013445 0.4188009586757486 -0.0407614104744553
0.6132238730591887 0.5025170840211963 -0.04006035427464894
0.5277751373913626 0.5538143676698843 -0.04006035427464894
0.5067033910428972 0.2669521857976919 -0.04006035427464894
0.64518202068179 0.3328114082252147 -0.04006035427464894
0.48106476430712186 0.3697069945121665 -0.04006035427464894
0.48867623161930507 0.41177036650054777 -0.04006035427464894
0.3545741956849179 0.4742845493461375 -0.04006035427464894
0.5357571629805863 0.5603942808594955 -0.03955959984621582
0.33107879790283623 0.40561108703082055 -0.03875839276072286
0.5617463178162649 0.48475031690038956 -0.03875839276072286
0.6540854344193308 0.31327197042775473 -0.03875839276072286
0.585642319141093 0.5203739869391212 -0.038057336560916505
0.6927436762943668 0.4024363039545547 -0.038057336560916505
0.5645004671726469 0.28963636140571186 -0.038057336560916505
0.6361283806157193 0.3460513553129862 -0.038057336560916505
0.48875635232785447 0.34887561028934894 -0.038057336560916505
0.4930928856780852 0.4422663111921243 -0.038057336560916505
0.37384322609102394 0.4756466013914755 -0.038057336560916505
0.6770199872415672 0.3560163684388052 -0.036755375046990384
0.6277056911294743 0.2868922271378984 -0.036755375046990384
0.4718809280896586 0.37923134374096423 -0.036755375046990384
0.3892364172210579 0.3290056745691231 -0.036755375046990384
0.5442699882639493 0.5478153296172558 -0.036054318847184026
0.6671651400900035 0.44181563220653447 -0.036054318847184026
0.6429787011966843 0.3352751200131057 -0.036054318847184026
0.47487543957168865 0.48813541683659734 -0.036054318847184026
0.488205522456578 0.37161987642878086 -0.036054318847184026
0.3757561080076385 0.3388104462778434 -0.036054318847184026
0.7068449209990434 0.37668751124452393 -0.03475235733325795
0.5803543523768392 0.2737023554929702 -0.03475235733325795
0.46941721630176775 0.3924212153858925 -0.03475235733325795
0.46564152791138197 0.35175995579712377 -0.03475235733325795
0.5446505616295583 0.5516410934504845 -0.03405130113345159
0.6752072562106393 0.431690377663617 -0.03405130113345159
0.621426230596923 0.3329916798194506 -0.03405130113345159
0.4750356809887872 0.3323406990624876 -0.03405130113345159
0.48012334598166756 0.40724354646751243 -0.03405130113345159
0.3725713098428039 0.3364769306413451 -0.03405130113345159
0.47631761232557596 0.43199083032067687 -0.03274933961952551
0.574936189461193 0.2737023554929702 -0.03274933961952551
0.5617463178162649 0.499532587627735 -0.03274933961952551
0.3593413778436011 0.445180701965605 -0.03274933961952551
0.6107902065370039 0.4956267030859567 -0.032048283419719145
0.6823980898029389 0.4519709320151581 -0.032048283419719145
0.6286270792777914 0.3181693487378306 -0.032048283419719145
0.4721212902153065 0.34743343753546163 -0.032048283419719145
0.3715397557202316 0.3450999218989633 -0.032048283419719145
0.5668339828091452 0.5507096902135991 -0.03154752899128603
0.6905904322521045 0.3675437353813354 -0.030746321905793066
0.532802711852831 0.3396617288061798 -0.030746321905793066
0.31112874147406105 0.37923134374096423 -0.030746321905793066
0.5538744582012964 0.535496770677801 -0.030045265705986708
0.5640998636299005 0.5403340584564649 -0.030045265705986708
0.5530532209386659 0.2805626911625038 -0.030045265705986708
0.4824067861753226 0.4818960166583208 -0.030045265705986708
0.48480039234323297 0.4451306265227617 -0.030045265705986708
0.3751552026935187 0.4814853980270056 -0.030045265705986708
0.5668339828091452 0.5507096902135991 -0.029544511277553587
0.42983758627841445 0.4583705736105332 -0.028743304192060625
0.6417268151256015 0.35285160045110786 -0.028743304192060625
0.32092349809421267 0.4188009586757486 -0.028743304192060625
0.565181493195316 0.5311201769732958 -0.028042247992254268
0.570549580668119 0.5376800599857695 -0.028042247992254268
0.5662330774950255 0.2896764217599866 -0.028042247992254268
0.5167385097886967 0.4837187627778174 -0.028042247992254268
0.48180588086120285 0.37389330153386724 -0.028042247992254268
0.3542637279392893 0.34595120442729965 -0.028042247992254268
0.5771895843891419 0.2756152374095847 -0.02754149356382115
0.47435465496611817 0.4343043157800378 -0.02674028647832815
0.6143555780674476 0.3000820987828265 -0.02674028647832815
0.32092349809421267 0.445180701965605 -0.02674028647832815
0.3243186131189893 0.445180701965605 -0.02674028647832815
0.6023474868736214 0.5018861334413706 -0.026039230278521792
0.6831592365341571 0.45443464380304893 -0.026039230278521792
0.6400142349803604 0.3267422645526054 -0.026039230278521792
0.5088766652622969 0.34523011805035597 -0.026039230278521792
0.34217551603691404 0.42100427816085445 -0.026039230278521792
0.3340332490305916 0.3952855307165297 -0.026039230278521792
0.6672753060642588 0.4872941493968298 -0.02553847585008871
0.5315307956046109 0.32647185716125154 -0.02553847585008871
0.47224147127813043 0.43664784650510485 -0.02553847585008871
0.6277056911294743 0.297548281374955 -0.02553847585008871
0.5487968082969846 0.5291972799681126 -0.024036212564789352
0.681506746920328 0.4520009772808641 -0.024036212564789352
0.6475656117611316 0.33294160437660736 -0.024036212564789352
