0.141732857218322 0.2664090382097972 -0.03880619459018047
0.1976228021245982 0.0424611966387905 -0.03880619459018047
0.4486537576409844 0.09051770505570009 -0.03880619459018047
0.32221776084832665 0.08636634470419247 -0.03880619459018047
0.36347867286374635 0.22631231203208282 -0.03880619459018047
0.49894839076914166 0.26657148274529097 -0.03880619459018047
0.6172080126086125 0.20235174304675044 -0.03880619459018047
0.5619317470586461 0.37743987821979513 -0.03880619459018047
0.3742361109920011 0.45835530628852944 -0.03880619459018047
0.32352634182869316 0.6437045212869311 -0.03880619459018047
0.09203385405364209 0.137292706581492 -0.038354959769364406
0.6810306656648349 0.2442714579005618 -0.03763298405605874
0.2512836470160431 0.4819909862028742 -0.03763298405605874
0.095210547192187 0.14132674587958755 -0.03763298405605874
0.3820424733921188 0.4408744693301157 -0.03763298405605874
-0.040385516463036626 0.28256324479501194 -0.03700125530691627
0.11788960928640183 0.267807866154327 -0.03700125530691627
0.33980689416373633 -0.07117778063552409 -0.03700125530691627
0.2721036216484958 0.10465037964365886 -0.03700125530691627
0.23911835624684236 0.33394084149312764 -0.03700125530691627
0.26736565602992735 0.2207079755575475 -0.03700125530691627
0.4825595420771026 0.33293910019091594 -0.03700125530691627
0.6639469153487392 0.29528806674202457 -0.03700125530691627
0.3188154502993735 0.4633188893175061 -0.03700125530691627
0.20125975478037564 0.4843374072711179 -0.03700125530691627
0.09203385405364209 0.137292706581492 -0.036550020486100204
0.653451193416558 0.31558460898233054 -0.03582804477279454
0.2551281676893959 0.3631357343999262 -0.03582804477279454
0.4606927026603567 0.5176565864401752 -0.03582804477279454
0.10101342698788143 0.3973754326034483 -0.035196316023652065
0.14621813133723355 0.3395993261461609 -0.035196316023652065
0.017390589994250714 0.1868021911214293 -0.035196316023652065
0.41323182420692434 0.03300331479448603 -0.035196316023652065
0.2756864261257753 0.08586998640129474 -0.035196316023652065
0.3673683170191807 0.22389369339250878 -0.035196316023652065
0.4995079219469534 0.30691187572624606 -0.035196316023652065
0.6326402434805216 0.20948125321564412 -0.035196316023652065
0.531428273171481 0.4077989569642992 -0.035196316023652065
0.32608033091451205 0.46430258122688517 -0.035196316023652065
0.3318741860137901 0.6399773216669905 -0.035196316023652065
0.09756599295684688 0.13742807702773682 -0.03402310548953034
0.28037024356584594 0.44633441066198987 -0.03402310548953034
0.3992345200652104 0.6365118382431233 -0.03402310548953034
0.3992345200652104 -0.05288472099964132 -0.03402310548953034
-0.04225362862121515 0.26900815077769774 -0.03339137674038786
0.04000647921355126 0.1799524465414416 -0.03339137674038786
0.2744229686274903 -0.07634893168207599 -0.03339137674038786
0.25500182193956744 0.11299822382875581 -0.03339137674038786
0.2640084689630559 0.2317903027567897 -0.03339137674038786
0.2465908048795562 0.22493153348038578 -0.03339137674038786
0.5042910110476035 0.2193181723094341 -0.03339137674038786
0.5553527433711481 0.3929443066630346 -0.03339137674038786
0.3379387820055578 0.4565232929160165 -0.03339137674038786
0.3133284348782503 0.6317558232317222 -0.03339137674038786
0.3455646504773491 -0.055176993889386905 -0.0322181662062661
0.33439207631394363 0.6623134452973852 -0.0322181662062661
0.3754544450082044 0.42256336030140035 -0.0322181662062661
0.0782982661080014 0.22050040753997216 -0.0322181662062661
0.013176056767828669 0.34847962741982086 -0.031586437457123626
0.0703384838688062 0.16877084768161993 -0.031586437457123626
0.40724845048290353 0.00412428626225866 -0.031586437457123626
0.3420901423570656 0.10272811930698242 -0.031586437457123626
0.36874909557087787 0.2259603488718463 -0.031586437457123626
0.4920535227070723 0.2691074224382773 -0.031586437457123626
0.6662843117205665 0.2505977700884028 -0.031586437457123626
0.44920426412238007 0.5232789723075432 -0.031586437457123626
0.21747713424050452 0.5017189725689521 -0.031586437457123626
0.07803654991192813 0.4072213763936544 -0.0304132269230019
0.3992345200652104 0.11352165622090249 -0.0304132269230019
0.3754544450082044 0.41067783512110545 -0.0304132269230019
0.6513213650623061 0.3465754164759771 -0.0304132269230019
-0.04415783956505888 0.292995793852279 -0.029781498173859423
0.10722241812231034 0.33211785281703077 -0.029781498173859423
0.24992091785717868 -0.0406111338734447 -0.029781498173859423
0.23955154167482579 0.10312520594930064 -0.029781498173859423
0.25854852763118163 0.2172605415265128 -0.029781498173859423
0.26022712116461727 0.2088224503772526 -0.029781498173859423
0.5648286746082851 0.1735719861751027 -0.029781498173859423
0.4533375750810551 0.5113483236451667 -0.029781498173859423
0.24368485263350081 0.5774542248947183 -0.029781498173859423
0.6517725998831222 0.343173105927024 -0.028608287639737696
0.14946702204710913 0.2799280334414462 -0.028608287639737696
0.3754544450082044 0.42256336030140035 -0.028608287639737696
0.29368167077991947 0.20861488235967726 -0.028608287639737696
0.3279123442870251 -0.11232137159753171 -0.028608287639737696
0.1378341883664713 0.3434438468195137 -0.02797655889059522
0.3063703939412669 -0.08445310906393237 -0.02797655889059522
0.3418013520717432 0.10365766303786356 -0.02797655889059522
0.3927006398597939 0.21670101034870093 -0.02797655889059522
0.49496849964954404 0.2386941955152753 -0.02797655889059522
0.6705890919111517 0.26182449243030614 -0.02797655889059522
0.26903522486694675 0.4836515303434776 -0.02797655889059522
0.35837069469210864 0.6415205447541815 -0.02797655889059522
-0.01944822077717186 0.20861488235967726 -0.026803348356473494
0.5418698469251646 0.3750212595802211 -0.026803348356473494
0.25038117737441107 0.4938765113831691 -0.026803348356473494
0.3113610510594924 0.3199976855299116 -0.026803348356473494
0.19003303243847225 0.01842843008212759 -0.026803348356473494
0.1069336278369881 0.33222614917402665 -0.02617161960733102
0.29237308979955295 -0.07997685964143705 -0.02617161960733102
0.341990870696486 0.10080585897030608 -0.02617161960733102
0.37458807415223766 0.21667393625945197 -0.02617161960733102
0.4919181522608276 0.23821588660521031 -0.02617161960733102
0.6731250316041377 0.28580311080847115 -0.02617161960733102
0.267582248743919 0.4808268003651689 -0.02617161960733102
0.2907847432302804 0.6377572463485757 -0.02617161960733102
0.24471366802496144 -0.07665577136023095 -0.024998409073209292
0.3426586982312937 0.2428365311703667 -0.024998409073209292
0.4574528366468974 0.5533131619810596 -0.024998409073209292
0.09389294151540412 0.2799280334414462 -0.024998409073209292
0.5537553721054594 0.20861488235967726 -0.024998409073209292
0.08976865525314545 0.40479373305766425 -0.024366680324066813
0.20547428800679757 0.022327098933978298 -0.024366680324066813
0.37743987821979513 0.07523889402286858 -0.024366680324066813
0.3687851943565432 0.3246724782735659 -0.024366680324066813
0.36316280848917515 0.22672744806723366 -0.024366680324066813
0.4980820199131748 0.2475835214853515 -0.024366680324066813
0.5658123665176642 0.3857065001371452 -0.024366680324066813
0.401698262186866 0.4569384289511672 -0.024366680324066813
0.33979786946732 0.31558460898233054 -0.023915445503250757
-0.06432803605553641 0.3036990838020358 -0.023193469789945055
0.3879085260627275 0.20402131188376985 -0.023193469789945055
0.4062828079663572 0.44073909888387075 -0.023193469789945055
0.2504894737314069 0.2399305789243113 -0.023193469789945055
0.4221933477483311 0.0034925575131162486 -0.023193469789945055
0.10595896062402539 0.3915274293256722 -0.02256174104080258
0.19458147943229812 0.04990657118225539 -0.02256174104080258
0.2530073640315605 0.07057312597563063 -0.02256174104080258
0.3702201210867382 0.22068090146829852 -0.02256174104080258
0.2638911479096437 0.36410137691647254 -0.02256174104080258
0.5176024382616773 0.3411696233226008 -0.02256174104080258
0.5718950119022647 0.3822139426240289 -0.02256174104080258
0.4020592500435189 0.49582584580909456 -0.02256174104080258
0.6369540483675231 0.3750212595802211 -0.022110506219986555
0.0782982661080014 0.18483480730267127 -0.022110506219986555
0.47926552788514537 0.35462544567933546 -0.022110506219986555
0.24471366802496144 0.3869067847605158 -0.022110506219986555
0.18536726439123433 0.006542904901832706 -0.022110506219986555
0.22292805087596243 0.5265188383210025 -0.020756801757538378
0.4329507858765857 0.5580782016888771 -0.020756801757538378
0.6434157310016088 0.205880399345532 -0.020756801757538378
0.2523395364967527 0.20347983009879056 -0.020756801757538378
0.2684756936891347 0.3354389410982369 -0.020756801757538378
0.2847923448098432 0.10297178611022309 -0.020756801757538378
0.2710296827749536 -0.07720627784162647 -0.020756801757538378
0.07083484217170391 0.16046812697860455 -0.020756801757538378
0.2133618726746621 0.5607495118281081 -0.02030556693672232
0.4186917655387986 -0.005342620278462047 -0.01958359122341665
0.3992345200652104 0.22894752338564858 -0.01958359122341665
0.2840432950072886 0.34542025533468806 -0.01958359122341665
0.6488395735478177 0.33362497711855643 -0.01958359122341665
0.23122174688256145 0.09974094479318024 -0.01958359122341665
0.03382456216837132 0.38343227664023216 -0.01958359122341665
0.39430703582189913 0.45711892287949346 -0.018951862474274175
0.6871945333171822 0.2780508965868514 -0.018951862474274175
0.49254085631355365 0.24962310287544007 -0.018951862474274175
0.3690378858562001 0.21599708402822787 -0.018951862474274175
0.26244719648303233 0.3402581289845524 -0.018951862474274175
0.420866717375132 0.013212155553493997 -0.018951862474274175
0.13951278189990707 0.24988481907151347 -0.018951862474274175
0.02718238560595899 0.3639208829881462 -0.018951862474274175
0.6509062290271553 0.21620465204580322 -0.018500627653458116
0.24471366802496144 0.3085904692596818 -0.01777865194015245
0.22093359296795545 0.22050040753997216 -0.01777865194015245
0.6945586855929001 0.2918135586217409 -0.01777865194015245
0.22093359296795545 0.570297640636576 -0.01777865194015245
0.35310929668139346 0.2799280334414462 -0.01777865194015245
0.2801265767626053 -0.05288472099964132 -0.01777865194015245
0.2926167566027936 0.46305717312143285 -0.017146923191009973
0.5902963678951432 0.38474988231701507 -0.017146923191009973
0.4930552640092841 0.20097998919146964 -0.017146923191009973
0.3597604979402222 0.2273140533342945 -0.017146923191009973
0.3963646666048203 0.20985126576871327 -0.017146923191009973
0.38535453697690863 0.11262821127568667 -0.017146923191009973
0.1979025677135042 0.013121908589330869 -0.017146923191009973
-0.055167969192970547 0.27188702893450406 -0.017146923191009973
0.31602681910673036 0.11352165622090249 -0.016695688370193914
0.30414129392643563 0.6201049401582516 -0.016695688370193914
0.2727443750940546 0.6241660535455962 -0.015973712656888246
0.6542453667011942 0.22435395290974117 -0.015973712656888246
0.14803209531691416 0.26804250826115145 -0.015973712656888246
0.021532925649341974 0.3761042231501795 -0.015973712656888246
0.3486962201338126 0.2442714579005618 -0.015973712656888246
0.264098715927219 -0.07971514344536378 -0.015973712656888246
0.36540093320042283 0.46320156826409387 -0.01534198390774577
0.6101236259218005 0.36537385911117387 -0.01534198390774577
0.5182883151893176 0.33377839695763384 -0.01534198390774577
0.3686859226959636 0.2173598131870923 -0.01534198390774577
0.37218750490549624 0.323661712274938 -0.01534198390774577
0.23910933155042613 0.10198809420084415 -0.01534198390774577
0.1381951762231242 0.300838255038062 -0.01534198390774577
-0.03516924193440316 0.22725990515579658 -0.01534198390774577
0.14962044188618667 0.3036990838020358 -0.014890749086929712
0.6660135708280769 0.20861488235967726 -0.014890749086929712
0.4093602294443226 -0.02911367063905168 -0.014890749086929712
-0.06718886481951011 0.28574896262997324 -0.014168773373624011
0.48243319632727405 0.2710928556498679 -0.014168773373624011
0.3516833946476147 0.4476790904280217 -0.014168773373624011
0.2684847183855511 0.6272073762378962 -0.014168773373624011
0.26200498635863256 0.6123166271509665 -0.013537044624481536
0.6103582680286249 0.3606358934926053 -0.013537044624481536
0.48723433482075695 0.3461422310479937 -0.013537044624481536
0.3427669945882896 0.2274764978697883 -0.013537044624481536
0.37296362879729983 0.3264232693783322 -0.013537044624481536
0.23689828092842743 0.102574699467905 -0.013537044624481536
0.1359570515118765 0.29642517849048106 -0.013537044624481536
-0.023382988414687774 0.31145129802365557 -0.013537044624481536
0.14790574956708558 0.2612469118596617 -0.01308580980366551
-0.07622258593224752 0.25615698308085655 -0.012363834090359809
0.4111200452455053 0.31558460898233054 -0.012363834090359809
0.6426486318062217 0.35201730841501866 -0.012363834090359809
0.29736374691777845 0.11161744527705864 -0.012363834090359809
0.6008191639165734 0.37103234376420713 -0.011732105341217334
0.4930552640092841 0.3053957267283042 -0.011732105341217334
0.36864079921388204 0.2174410354548392 -0.011732105341217334
0.23862199794394476 0.34448168690739067 -0.011732105341217334
0.24021936920963352 -0.03297624070523707 -0.011732105341217334
0.0289512261035579 0.3694078984092694 -0.011732105341217334
0.07152974379576062 0.17013357684048439 -0.011732105341217334
0.40324148527405695 0.4953204628097805 -0.011732105341217334
0.2794046010492995 0.6061256854093704 -0.011732105341217334
-0.06740545753350183 0.28631751850420145 -0.010558894807095607
0.24185283926098775 0.05122417685903827 -0.010558894807095607
0.2786916500324102 0.5032531709597269 -0.010558894807095607
0.6403112354343944 0.19672033248296616 -0.010558894807095607
0.2870304695210909 0.6232906579932129 -0.00992716605795313
0.39564269089151466 0.4825505173806863 -0.00992716605795313
0.2712282260961127 0.2393710477464994 -0.00992716605795313
0.10572431851720107 0.3342657305641152 -0.00992716605795313
0.03539485934481111 0.17364418374643323 -0.00992716605795313
0.3465573670831444 -0.07472448632713827 -0.00992716605795313
0.3682888360536455 0.2343172177533596 -0.00992716605795313
0.3758154328648573 0.32444686086315794 -0.00992716605795313
0.5795569791597212 0.38190710294587393 -0.00992716605795313
0.29736374691777845 0.5032531709597269 -0.009475931237137072
0.6183270749642366 0.3750212595802211 -0.008753955523831403
0.25234856119316906 0.44187621063232724 -0.008753955523831403
0.18527701742707106 0.23238593272026692 -0.008753955523831403
0.40910753794466553 0.4964485498618206 -0.008753955523831403
0.033039413580151354 0.3594536582620672 -0.008122226774688927
0.26005565193270724 0.2390912821575934 -0.008122226774688927
0.36836103362497613 0.31439334905537625 -0.008122226774688927
0.3279303936798578 0.22041918527222526 -0.008122226774688927
0.41583093677482474 0.012481155143771966 -0.008122226774688927
0.6545792804685981 0.3276416033945356 -0.008122226774688927
0.4950136231316256 0.2799190087450298 -0.008122226774688927
0.3723138506553247 0.6233448061717108 -0.008122226774688927
0.3953539006061924 -0.040999195819346565 -0.007670991953872869
0.27589399414335064 0.2691525459203588 -0.0069490162405672
0.3300241232484443 0.3188515490850389 -0.0069490162405672
0.0897596305567291 0.31558460898233054 -0.0069490162405672
0.050050966324916575 0.16695688370193934 -0.006317287491424725
0.2593066021301526 0.3334264337973973 -0.006317287491424725
0.37629374177492225 0.2170078500268559 -0.006317287491424725
0.2504894737314069 0.1075653565861305 -0.006317287491424725
0.3704006150150647 -0.06187331863029703 -0.006317287491424725
0.49613268548724937 0.2103837228572762 -0.006317287491424725
0.35846996635268824 0.31430310209121304 -0.006317287491424725
0.38328788149757115 0.6219279288343483 -0.006317287491424725
0.6459155719089299 0.35125020921963146 -0.005144076957302966
0.25536280979622034 0.2646401977121983 -0.005144076957302966
0.47820963840443587 0.3527212347354918 -0.005144076957302966
0.2684847183855511 0.1729492821223765 -0.005144076957302966
0.684062963660719 0.2800995026733563 -0.004512348208160491
0.3904444657557136 0.33984299294940157 -0.004512348208160491
0.2882758776265431 0.32470857705923123 -0.004512348208160491
0.3996857548860264 0.20933685807298294 -0.004512348208160491
0.40172533627611495 -0.006082645384600315 -0.004512348208160491
-0.027877287230015695 0.31227254539754085 -0.004512348208160491
0.3557986562134572 0.4542671188119362 -0.004512348208160491
0.3194291296556834 0.643948188090172 -0.004512348208160491
0.3516833946476147 0.35353345741296066 -0.0033391376740387634
0.2754608087153672 0.2672844337621804 -0.0033391376740387634
0.5537553721054594 0.3631357343999262 -0.0033391376740387634
0.22093359296795545 0.12540718140119725 -0.0033391376740387634
0.6253753628653831 0.3450051192995372 -0.0027074089248962877
0.38889221797210644 0.35598817483819994 -0.0027074089248962877
0.27142676941727184 0.3174075976584275 -0.0027074089248962877
0.39975795245735707 0.2115118099093163 -0.0027074089248962877
0.3838293632825504 -0.037271996199405875 -0.0027074089248962877
-0.006479732026918542 0.20590747343478097 -0.0027074089248962877
0.38788145197347856 0.4910608061012771 -0.0027074089248962877
0.2898371501065667 0.6168470247519597 -0.0027074089248962877
0.5418698469251646 0.3393556593429202 -0.001534198390774561
0.3992345200652104 0.6276856851479612 -0.001534198390774561
0.3992345200652104 0.1729492821223765 -0.001534198390774561
0.08933546982516204 0.22050040753997216 -0.001534198390774561
0.3704276891043137 0.6155655178608421 -9.024696416320853E-4
0.09507517674594218 0.33445524918885794 -9.024696416320853E-4
0.35166534525478216 -0.06616004942804961 -9.024696416320853E-4
0.2938892387974948 0.0988114010622991 -9.024696416320853E-4
0.24159112306491434 0.1930292316486908 -9.024696416320853E-4
0.35833459590644345 0.3040600716586887 -9.024696416320853E-4
0.6405910010233004 0.21870449295312416 -9.024696416320853E-4
0.5428715882273761 0.31558460898233054 2.707408924896416E-4
0.3516833946476147 0.6625751614934585 2.707408924896416E-4
0.36614998300297746 -0.07074459520754066 2.707408924896416E-4
0.39850351965548836 0.5958194821019316 9.024696416321173E-4
0.2551913405643102 0.4954287591667763 9.024696416321173E-4
-0.04957265741485145 0.253359327191797 9.024696416321173E-4
0.24940651016144835 -0.03325600629414307 9.024696416321173E-4
0.36591534089615313 0.21227890910470368 9.024696416321173E-4
0.28518943145216136 0.33200955646003494 9.024696416321173E-4
0.5270151966239 0.21416507065571466 9.024696416321173E-4
0.66419058215198 0.248440867644902 9.024696416321173E-4
0.15081170181314096 0.19546589968109757 0.002075680175753844
0.34915647965104496 0.3417201298039963 0.002075680175753844
0.15311299939930278 0.34981528248943633 0.002075680175753844
0.6494893516897928 0.20744167182555556 0.00270740892489632
0.39635564190840394 0.34541123063827167 0.00270740892489632
0.23984033196014815 0.20863293175250988 0.00270740892489632
0.3704367138007299 0.06455365346594448 0.00270740892489632
0.015080267711672524 0.19347144177309059 0.00270740892489632
0.10833245578151787 0.3292209252673918 0.00270740892489632
0.37683522355990157 0.6198793227478437 0.00270740892489632
-0.04093602294443227 0.32747013416262544 0.003880619459018079
0.5003201446244223 0.19672033248296616 0.003880619459018079
0.36026588093953615 0.345447329423937 0.003880619459018079
0.3993067176365409 0.5964421861546579 0.004512348208160554
0.3328669026195854 0.458283108717199 0.004512348208160554
-0.0012815068911175515 0.3461693051372427 0.004512348208160554
0.23658241655385623 -0.018726245063866193 0.004512348208160554
0.40001064395701397 0.21908353020260965 0.004512348208160554
0.23825198539087564 0.33920223950384276 0.004512348208160554
0.5183966115463136 0.21250452651511162 0.004512348208160554
0.6152496534862709 0.20131390295887358 0.004512348208160554
0.2490003988227139 0.052613980107151674 0.005685558742282281
0.24941553485786472 0.44633441066198987 0.005685558742282281
0.3116769154340636 0.6602919133001292 0.005685558742282281
0.5340634845250468 0.21890303627428326 0.006317287491424757
0.2835198626151419 0.6110170708670165 0.006317287491424757
0.25552525433171414 0.3305204815513419 0.006317287491424757
0.374515876580907 0.2082899932886897 0.006317287491424757
0.10720436872947774 0.33952712857483036 0.006317287491424757
-0.002517890300153539 0.21787422088282263 0.006317287491424757
0.27842090913992057 -0.07764848796602626 0.006317287491424757
0.31602681910673036 0.34164793223266576 0.007490498025546484
0.2565991932052563 0.25844925597060214 0.007490498025546484
0.6955333528058628 0.25615698308085655 0.007490498025546484
0.5249936646266442 0.33959030144974467 0.00812222677468896
0.3986569394945659 0.46102661642776066 0.00812222677468896
0.3760681243645143 0.3342837799569478 0.00812222677468896
0.24945163364353004 0.21411092247721675 0.00812222677468896
-0.013374600088987783 0.33541186700898795 0.00812222677468896
0.2542617968334292 -0.049301916522361815 0.00812222677468896
0.2684847183855511 -0.10043584641723695 0.009295437308810687
0.0973403755464388 0.19540272680618329 0.009295437308810687
0.29225576874614073 0.19672033248296616 0.009295437308810687
0.6652464716326895 0.3175158940154234 0.009927166057953163
0.27241948602306715 0.609067736441091 0.009927166057953163
0.2603624916108621 0.46117101157042173 0.009927166057953163
0.3970144447467954 0.35653868131959554 0.009927166057953163
0.2545596118151677 0.21846082614988346 0.009927166057953163
-0.03573779780863128 0.23087880841874128 0.009927166057953163
0.25407227820868644 -0.05107075701996085 0.009927166057953163
0.5180897718681584 0.36541898259325545 0.01110037659207489
0.29225576874614073 0.5050761596358236 0.01110037659207489
0.11213185297278895 0.31600876971389774 0.01110037659207489
-0.039663540749730955 0.2304185489015089 0.011732105341217365
0.3700215777655792 0.22477811364130823 0.011732105341217365
0.26950450908059537 0.35754042262180713 0.011732105341217365
0.3805082750013442 0.6158633328425807 0.011732105341217365
0.5209506006321323 0.22614986749658905 0.011732105341217365
0.3862389572257081 0.11035398777877369 0.011732105341217365
-0.07596086973617425 0.2799280334414462 0.012183340162033424
0.23120369748972885 0.06597955549972322 0.012905315875339123
0.28297838083016263 0.23238593272026692 0.012905315875339123
-0.06272164009343129 0.2618064430374736 0.0135370446244816
0.24541759434543453 0.22395686626742306 0.0135370446244816
0.3798675215557854 0.3416659816254984 0.0135370446244816
0.3486601213481473 0.6481266225309286 0.0135370446244816
0.6615282967091651 0.2309329565972392 0.0135370446244816
0.2386761461224427 0.09859480834830739 0.0135370446244816
0.37691644582764844 0.3631357343999262 0.014710255158603327
0.2265379294424909 0.19934651914011556 0.014710255158603327
0.3432362788019383 0.6392372965608522 0.015341983907745802
0.38933442809650626 0.3555188906245513 0.015341983907745802
0.251391943373039 0.2034527560095416 0.015341983907745802
-0.0464410877583881 0.2544783895474209 0.015341983907745802
0.24819720084166133 0.07665577136023095 0.015341983907745802
0.6684321894676509 0.23864004733677738 0.015341983907745802
0.4098746371400529 0.4938765113831691 0.01651519444186753
0.5537553721054594 0.20861488235967726 0.01651519444186753
0.4901854105488939 0.2137409099241476 0.017146923191010004
0.3680361445539886 -0.06214405952278668 0.017146923191010004
0.11068790154617762 0.22615889219300542 0.017146923191010004
0.38819731634804977 0.3386427083260309 0.017146923191010004
0.2540452041194375 0.4596999860545613 0.017146923191010004
0.25157243730136547 0.31632463408846895 0.01832013372513173
0.22662817640665403 0.19925627217595243 0.01832013372513173
0.6733145502288805 0.31112640895266797 0.018951862474274207
0.23767440482023103 0.09957850025768647 0.018951862474274207
0.141732857218322 0.33717168281017057 0.018951862474274207
0.3953358512133597 0.21488704636902045 0.018951862474274207
0.2614003316987391 0.341314018465262 0.018951862474274207
0.33074609896175 0.6473775727283739 0.018951862474274207
0.3809595098221602 0.09782770915292016 0.02075680175753841
-0.06858769276403989 0.27074089248963135 0.02075680175753841
0.3753461486512085 0.21637612127771336 0.02075680175753841
0.27599326580393013 0.3286974928752451 0.02075680175753841
0.30474594858632903 0.6363132949219643 0.02075680175753841
0.2649199633011043 0.5057710612598804 0.021027542650028052
0.5418698469251646 0.34981528248943633 0.021027542650028052
0.3749219879196415 0.07609624018241908 0.022561741040802646
-0.042966579638104456 0.25923440455882196 0.022561741040802646
0.3653467850219249 0.22803602904760018 0.022561741040802646
0.272500708290814 0.3346989159920986 0.022561741040802646
0.31300354580726286 0.6388041111328687 0.022561741040802646
0.254144475780017 0.35264903716416124 0.023734951574924373
0.6836388029291519 0.2732136593077033 0.024366680324066848
0.3115686190770678 -0.08854129654052571 0.024366680324066848
0.25777240373937804 0.23203396956003036 0.024366680324066848
0.39948721156486744 0.3564303849625997 0.024366680324066848
0.32216361266982874 0.6496969197073684 0.024366680324066848
0.24141062913658795 0.0996326484361844 0.02617161960733105
0.25804314463186767 0.21224281031903833 0.02617161960733105
0.39295333135945093 0.33029486414093395 0.02617161960733105
0.39026397182738726 0.5003472187136714 0.02617161960733105
0.28037024356584594 0.41067783512110545 0.02644236049982069
0.5279176662655323 0.33799293018405574 0.027976558890595252
0.10549870110679299 0.34019495610963807 0.027976558890595252
0.36754881094750724 0.21920085125602187 0.027976558890595252
0.2776086864624516 0.33170271678187996 0.027976558890595252
0.29225576874614073 0.26804250826115145 0.02914976942471698
0.1489977378334605 0.19466270170004502 0.02914976942471698
0.5344876452566139 0.20042045801365774 0.029781498173859455
0.11021861733252887 0.21569926904648926 0.029781498173859455
0.3538583464839481 0.22291000148312984 0.029781498173859455
0.2558230693134526 0.4611349127847565 0.029781498173859455
0.10197004480801154 0.2185781472032957 0.03158643745712369
0.36781955183999687 0.20823584511019178 0.03158643745712369
0.3969061483897996 0.34644004602973233 0.03158643745712369
0.4052359431820639 0.4565052435231838 0.03158643745712369
0.22093359296795545 0.32747013416262544 0.0318571783496133
0.3777828166836153 0.09916336422253563 0.03339137674038789
0.25776337904296165 0.22868580718957532 0.03339137674038789
0.5375921408238282 0.2160151334210606 0.03339137674038789
0.278068945979684 0.33493355809892295 0.03339137674038789
0.29225576874614073 0.4938765113831691 0.03456458727450962
0.35890315178067167 0.20484255925765515 0.03456458727450962
0.23599581128679537 0.10925297481598252 0.03519631602365209
0.26367455519565197 0.33508697793800035 0.03519631602365209
0.3757703093827757 0.21505851560093048 0.03519631602365209
0.3915906022005865 0.48884073078286205 0.03519631602365209
0.10369376182352875 0.2073604495578087 0.037001255306916295
0.27472078360922897 0.31644195514188117 0.037001255306916295
0.3924840471458022 0.20725215320081283 0.037001255306916295
0.31602681910673036 0.34164793223266576 0.03727199619940594
0.09216019980347054 0.35476984082199664 0.03727199619940594
0.37541834622253917 0.07481473329130152 0.0388061945901805
0.2559855138489464 0.21050104391068838 0.0388061945901805
0.3825568810878491 0.32395050256026026 0.0388061945901805
0.540110031123982 0.33041218519434606 0.0388061945901805
0.481052417775577 0.3563672120876854 0.03997940512430226
0.3565928294980935 0.07786508068001798 0.03997940512430226
0.09530079415635026 0.33184711192454114 0.040611133873444734
0.26000150375420933 0.3296541106953752 0.040611133873444734
0.3780445328796886 0.21122301962399406 0.040611133873444734
0.27283462205821785 0.4998959838928553 0.040611133873444734
0.2539549571552742 0.3750212595802211 0.042416073156708936
0.5537553721054594 0.3407905860731153 0.042416073156708936
0.2510129061235536 0.20569088072078928 0.042416073156708936
0.39723103746078714 0.3383900168263739 0.042416073156708936
0.5369874861639349 0.20088071753089015 0.042416073156708936
0.25084143689164345 0.06532075266133172 0.04422101243997314
0.25980296043305023 0.20880440098442002 0.04422101243997314
0.40068749618823807 0.3687851943565432 0.04422101243997314
0.39605782692666536 0.49473385754271965 0.04422101243997314
0.4230055704258 0.44633441066198987 0.044789568314201354
0.23328840236189896 0.05409403031942834 0.044789568314201354
0.10132026666603641 0.33670239859652185 0.04602595172323734
0.2647845928548595 0.32846285076842074 0.04602595172323734
0.37045476319356263 0.22636646021058077 0.04602595172323734
0.40182460793669456 0.4514423888336276 0.04602595172323734
0.3754544450082044 0.44633441066198987 0.04719916225735907
0.2490003988227139 0.0493470400044435 0.04719916225735907
0.5373304246277549 0.3318380872281248 0.04783089100650154
0.3864555499396998 0.33140490180014137 0.04783089100650154
0.25744751466839044 0.2152570589220896 0.04783089100650154
0.2554530567603835 0.4583282321992806 0.04783089100650154
0.37967800293104265 0.31534996687550626 0.04963583028976578
0.35534742139264114 0.07591574625409268 0.04963583028976578
0.24524612511352437 0.21468850304786136 0.04963583028976578
0.493984807740165 0.34951746750769774 0.04963583028976578
0.39765519819235423 0.33950907918199774 0.04963583028976578
0.27312341234354004 0.5014211575872136 0.04963583028976578
0.37082477574663175 0.2282074982795103 0.05144076957302998
0.2682139774930614 0.31777761021149664 0.05144076957302998
0.0943532010326365 0.35025749261383615 0.05144076957302998
0.23589653962621576 0.11519122505792177 0.05144076957302998
0.38999323093489763 0.12310588381503543 0.0520093254472582
0.38734899488491564 0.24655470609389102 0.0520093254472582
0.39280893621678975 0.3360345710617141 0.053245708856294184
0.26880960745653865 0.49898448955480684 0.053245708856294184
0.3814739175178905 0.21518486135075893 0.053245708856294184
0.0908155200374387 0.21641222006337868 0.053245708856294184
0.3516833946476147 0.06597955549972322 0.05441891939041591
0.3754544450082044 0.3869067847605158 0.05441891939041591
0.3800750895733608 0.06611492594596804 0.055050648139558386
0.26387309851681107 0.23324327887981738 0.055050648139558386
0.393828726911834 0.3361518921151263 0.055050648139558386
0.3671517243051891 0.23064416631191698 0.055050648139558386
0.3860223645117164 0.12403542754591644 0.05550188296037444
0.38583284588697364 0.051431744876613616 0.05622385867368011
0.24165429593982862 0.44633441066198987 0.05622385867368011
0.4111200452455053 0.32455515722015366 0.05622385867368011
0.09673572088654522 0.21470655244069395 0.05685558742282259
0.28673265453935226 0.3255929973080307 0.05685558742282259
0.36505799473660266 0.224967632266051 0.05685558742282259
0.3880980446874703 0.49974256405377787 0.05685558742282259
0.3279123442870251 0.20861488235967726 0.05802879795694435
0.23440746471752286 0.052009325447258226 0.05802879795694435
0.1733914922467762 0.33126953135389653 0.05802879795694435
0.3979981366561744 0.31918546285244265 0.05802879795694435
0.2586838980774264 0.05773098297520578 0.058660526706086825
0.26481166694410846 0.368667873303131 0.058660526706086825
0.39620222206932654 0.4547815265076664 0.058660526706086825
0.37651033448891397 0.22034698770089461 0.058660526706086825
0.10850392501342788 0.21088910585659013 0.058660526706086825
0.3341754835999519 0.22081627191454337 0.05911176152690285
0.22976877075953375 0.137292706581492 0.05983373724020855
0.3724040976194879 0.137292706581492 0.05983373724020855
0.2090480677876607 0.32790331959060887 0.05983373724020855
0.23282814284466669 0.4701054610225796 0.05983373724020855
0.1433843766625088 0.34943624523995087 0.06046546598935103
0.36867689799954734 0.2325303278629281 0.06046546598935103
0.47534880964046206 0.333922792100295 0.06046546598935103
0.26192376409088564 0.3392202888966754 0.06046546598935103
0.3815822138748864 0.10687947965849016 0.06046546598935103
0.34259552535637955 0.35125020921963146 0.06091670081016708
0.28586628368338546 0.5043361345296854 0.061638676523472755
0.4230055704258 0.4938765113831691 0.061638676523472755
0.4280233016332745 0.23238593272026692 0.061638676523472755
0.14441319205396932 0.19359778752291903 0.061638676523472755
0.1620293994586281 0.32747013416262544 0.061638676523472755
0.3912476637367662 0.3670344032517769 0.06227040527261523
0.2618786406088041 0.33926541237875707 0.06227040527261523
0.5268076286063247 0.33868783180811246 0.06227040527261523
0.35855118862043517 0.22201655653791402 0.06227040527261523
0.14314973455568436 0.34187354964307387 0.06227040527261523
0.36269352427552654 0.26804250826115145 0.06272164009343129
0.24895527534063233 0.4283030672221805 0.06272164009343129
0.17645086433190912 0.19385950371899233 0.06344361580673695
0.39442435687531124 0.10376595939485941 0.06344361580673695
0.5478441959527691 0.22050040753997216 0.06344361580673695
0.23282814284466669 0.45821993584228476 0.06344361580673695
0.24395559352599044 0.11225819872261754 0.06407534455587943
0.3722055542983288 0.21082593298167596 0.06407534455587943
0.3561596440701101 0.33405816254653986 0.06407534455587943
0.26115666489549844 0.4868282234820223 0.06407534455587943
0.524542429805828 0.21463435486936341 0.06407534455587943
0.39068813255895435 0.14917823176178688 0.0645265793766955
0.25168073365836136 0.3631357343999262 0.06524855509000116
0.22093359296795545 0.07786508068001798 0.06524855509000116
0.357423101568395 0.34639492254765064 0.06524855509000116
0.4852308522163336 0.35805483031753743 0.06524855509000116
0.3889463661506044 0.504101492422861 0.06588028383914363
0.3914913305400069 0.3697237627838406 0.06588028383914363
0.4074469938040625 0.21189987185521816 0.06588028383914363
0.23795417040913702 0.11020056793969626 0.06588028383914363
0.09603179456607229 0.33658507754310973 0.06588028383914363
0.31471823812636385 0.23716902182091706 0.06633151865995969
0.4684719909712254 0.3280296653404373 0.0670534943732654
0.37417293811708685 0.14477417991062222 0.0670534943732654
0.2834205909545624 0.26804250826115145 0.0670534943732654
0.4230055704258 0.5057710612598804 0.0670534943732654
0.2098873645543786 0.21620465204580322 0.06768522312240786
0.39084155239803187 0.3411605986261844 0.06768522312240786
0.36109615300983766 0.2242907800348269 0.06768522312240786
0.3883236620978782 0.49665611787939595 0.06768522312240786
0.4513521418694645 0.3375597447560723 0.0681364579432239
0.3953539006061924 0.16106375694208164 0.0681364579432239
0.5537553721054594 0.35124118452321507 0.06885843365652959
0.2755871544651958 0.20501402848956515 0.06885843365652959
0.10656361528391896 0.32470857705923123 0.06949016240567207
0.25777240373937804 0.20716190623664957 0.06949016240567207
0.36370429027415446 0.242872629956032 0.06949016240567207
0.3964819876582325 0.3414042654294251 0.06949016240567207
0.2745673637701515 0.3231382798827913 0.06949016240567207
0.48149462789997677 0.20167489081552634 0.06949016240567207
0.3992345200652104 0.16106375694208164 0.0706633729397938
0.29225576874614073 0.35124118452321507 0.0706633729397938
0.5397400185709126 0.35014017156042393 0.07129510168893627
0.1557572354492849 0.20310079284930507 0.07129510168893627
0.3653016615398432 0.2345518598601839 0.07129510168893627
0.2688547309386202 0.3449509711210393 0.07129510168893627
0.2729068196295483 0.22079822252171064 0.07129510168893627
0.5376643383951589 0.35763066958597034 0.07246831222305804
0.4230055704258 0.43444888548169525 0.07246831222305804
0.2721758192198264 0.2481881761452451 0.0731000409722005
0.5241002196814285 0.2069723876119068 0.0731000409722005
0.2636835798920683 0.4393853944214228 0.0731000409722005
0.38222296732044514 0.21827130752514085 0.0731000409722005
0.525778813214864 0.3246995523628149 0.0731000409722005
0.38603138920813274 0.19672033248296616 0.0742732515063222
0.09019281598471252 0.3036990838020358 0.0742732515063222
0.26849374308196744 0.22709746062030278 0.07490498025546467
0.30440301012250887 0.32883286332148987 0.07490498025546467
0.36786467532207845 0.056449476084088096 0.07490498025546467
0.5253907512689624 0.33653995406102805 0.07490498025546467
0.4047756836648315 0.3538222476982829 0.07607819078958644
0.09400123787239997 0.35775701533579884 0.07607819078958644
0.4677770893471687 0.20724312850439647 0.07670991953872891
0.4188903088599576 0.3396173755389936 0.07670991953872891
0.1595385832477234 0.20579917707778514 0.07670991953872891
0.37139333162086 0.0698421255659086 0.07670991953872891
0.3041773927121008 0.3146460405550332 0.07788313007285061
0.2684847183855511 0.07786508068001798 0.07788313007285061
0.10041779702440422 0.20609699205952373 0.07851485882199308
0.2084885366098488 0.33857953545111663 0.07851485882199308
0.26596682808539757 0.3212069948496986 0.07851485882199308
0.09368537349782877 0.3518909626651902 0.07851485882199308
0.23671778700010104 0.19672033248296616 0.07968806935611485
0.2833664427760645 0.2427914076882851 0.07968806935611485
0.272527782380063 0.23405550155728633 0.08031979810525731
0.3634064752924158 0.2272328310665476 0.08031979810525731
0.38395570903237886 0.33602554636529774 0.08031979810525731
0.5376462890023261 0.21686345488419473 0.08031979810525731
0.4027541516675756 0.38885611918644114 0.08031979810525731
0.38734899488491564 0.25615698308085655 0.08149300863937908
0.23070733918683126 0.137292706581492 0.08149300863937908
0.3810046333042419 0.06213503482637044 0.08212473738852155
0.36599656316390006 0.3218748223845064 0.08212473738852155
0.3252139600585452 0.3301865677839381 0.08212473738852155
0.3819612511243719 0.34008665975264224 0.08212473738852155
0.3927999115203735 0.07929098271379671 0.08329794792264325
0.33979786946732 0.26804250826115145 0.08329794792264325
0.28037024356584594 0.4819909862028742 0.08329794792264325
0.2572670207400641 0.23003048695560716 0.08392967667178572
0.5339190893823857 0.2076763139323799 0.08392967667178572
0.18080076800457587 0.2041566823300147 0.08392967667178572
0.3864735993325324 0.05514089510372158 0.08392967667178572
0.32554787382594913 0.24316142024135426 0.08510288720590749
0.24984872028584815 0.3869067847605158 0.08510288720590749
0.11396386634530216 0.22050040753997216 0.08510288720590749
0.36099688134925817 0.3308273212294969 0.08573461595504996
0.24226797529613844 0.2175222577225861 0.08573461595504996
0.2600285778434583 0.07786508068001798 0.08690782648917166
0.09019281598471252 0.36541898259325545 0.08690782648917166
0.4230055704258 0.5176565864401752 0.08690782648917166
0.39344066496593233 0.05409403031942834 0.08690782648917166
0.24236724695671794 0.07118680533194045 0.08753955523831412
0.37004865185482816 0.2365643671610235 0.08753955523831412
0.0937575710691593 0.1984440494984835 0.08753955523831412
0.2894581128570812 0.4819909862028742 0.08799079005913021
0.3495896650790283 0.26804250826115145 0.08871276577243589
0.43735483772775036 0.3531453954670588 0.08871276577243589
0.2750817714658817 0.23725024408866396 0.08934449452157836
0.2602000470753683 0.33608871924021205 0.08934449452157836
0.2565540697231746 0.21060934026768424 0.08934449452157836
0.27346635080736037 0.32116187136761704 0.0911494338048426
0.3627205983647755 0.3273618378056296 0.0911494338048426
0.245345396774104 0.20740557303989024 0.0911494338048426
0.23207909304211194 0.16466461081219375 0.09148334757224647
0.3244739349524069 0.31558460898233054 0.09148334757224647
0.10524600960713608 0.3370994852388399 0.09295437308810676
0.3715557761563538 0.22526544724778957 0.09295437308810676
0.24961407817902384 0.2042740033834269 0.09295437308810676
0.2337035383970498 0.14917823176178688 0.09424490467564069
0.348822565883641 0.19672033248296616 0.09424490467564069
0.2594239231835647 0.2343803906282739 0.094759312371371
0.3807699911974176 0.0706182494577122 0.094759312371371
0.5388736477149461 0.35264001246774485 0.094759312371371
0.2721758192198264 0.2251030027122958 0.09656425165463517
0.26677905076286645 0.32014208067257277 0.09656425165463517
0.3887207487401964 0.056891686208487884 0.09656425165463517
0.3992345200652104 0.14917823176178688 0.09701548647545126
0.0782982661080014 0.3036990838020358 0.09701548647545126
0.35717943476515435 0.3337061993863033 0.0983691909378994
0.38332398028323633 0.4986144770017377 0.0983691909378994
0.24049913479853954 0.20625041189860116 0.0983691909378994
0.26469434589069624 0.19980677865734794 0.09882042575871544
0.37202506037000244 0.3573599286934807 0.09882042575871544
0.10467745373290784 0.21354236660298861 0.10017413022116364
0.2625554928400282 0.49618683366574734 0.10017413022116364
0.3721604308162472 0.05367889428427764 0.10017413022116364
0.2322415375776057 0.12540718140119725 0.10062536504197966
0.3992345200652104 0.22577083024710354 0.10062536504197966
0.3954351228739393 0.4900139413169837 0.10197906950442781
0.39014665077397503 0.34449973630022324 0.10197906950442781
0.39001128032773025 0.21265794635418916 0.10197906950442781
0.2567616377407501 0.346882256154132 0.10197906950442781
0.2710928556498679 0.32959996251687723 0.10197906950442781
0.3992345200652104 0.1016361310406076 0.1024303043252439
0.3880709705982213 0.22109603750344922 0.10378400878769205
0.10398255210885113 0.20578112768495252 0.10378400878769205
0.275930092929016 0.2216375192884285 0.10378400878769205
0.24176259229682448 0.20326323738479887 0.10378400878769205
0.2847923448098432 0.32661278800307497 0.10378400878769205
0.26230280134037115 0.33951810387841397 0.10378400878769205
0.41271741651119404 0.5043902827081833 0.10495721932181375
0.3533890622702995 0.2425296914922117 0.10558894807095622
0.28200371361720006 0.2050050037931488 0.10558894807095622
0.26355723414223986 0.3851018454772516 0.10558894807095622
0.395399024088274 0.4206681740539729 0.10558894807095622
0.2696308548304238 0.3263239977177527 0.10558894807095622
0.3614661655629068 0.24302604979510944 0.10558894807095622
0.37021109639032196 0.32291266247238337 0.10558894807095622
0.0782982661080014 0.3393556593429202 0.10676215860507798
0.3992345200652104 0.13424235919277555 0.10676215860507798
0.24727668180719667 0.24370290202633355 0.10739388735422045
0.20332641025971315 0.21106959978491666 0.10739388735422045
0.3960307528374164 0.4246751392628193 0.10739388735422045
0.3893434527929225 0.1795643845955399 0.10739388735422045
0.36681781053778517 0.341990870696486 0.10739388735422045
0.4700242387548326 0.35603329832028163 0.10784512217503647
0.39363018359067503 0.07786508068001798 0.1085670978883422
0.3200969571904911 0.31248011341511617 0.10919882663748469
0.25625625474143604 0.19742425880343922 0.10919882663748469
0.2763452289641667 0.34045667230571136 0.10919882663748469
0.15272493745340107 0.3430196860879466 0.10919882663748469
0.24771889193159635 0.20708068396890267 0.10919882663748469
0.1293690231279621 0.3631357343999262 0.10965006145830071
0.4606927026603567 0.3631357343999262 0.10965006145830071
0.263169172196338 0.3121552243441286 0.11100376592074886
0.3996677054931938 0.42876332673941275 0.11100376592074886
0.5032170721740614 0.34423802010415 0.11100376592074886
0.2534134753702949 0.4457297560020965 0.11100376592074886
0.38240346124877167 0.1517412455440221 0.11100376592074886
0.10604018289177228 0.19146795916866724 0.11145500074156495
0.3723319000481574 0.2837003565434684 0.1128087052040131
0.38094146042932764 0.09867603061605429 0.1128087052040131
0.2426560372420403 0.0981977217059893 0.1128087052040131
0.1486367499768076 0.350365788970832 0.1128087052040131
0.34155768526850255 0.32196506934866964 0.1128087052040131
0.22093359296795545 0.045601790991670214 0.11325994002482911
0.11370215014922888 0.20418375641926365 0.11461364448727726
0.3617459311518128 0.25807021872111663 0.11461364448727726
0.3569357679619137 0.34394020512241136 0.11461364448727726
0.3580277562282885 0.515174794925687 0.11506487930809335
0.5500281724855187 0.19521320818144053 0.11506487930809335
0.24728570650361292 0.4786157497431702 0.1164185837705415
0.5343703242032016 0.3134096571459972 0.1164185837705415
0.2843591593818598 0.18731659881715962 0.1164185837705415
0.25813339159603077 0.4053983877175576 0.1164185837705415
0.09772843749234067 0.287905865073474 0.1164185837705415
0.2506970417489823 0.04219948044271722 0.11686981859135752
0.2821390840634449 0.3132833113961687 0.11822352305380573
0.2926438306920426 0.2041566823300147 0.11822352305380573
0.11775423884015701 0.35694479265833 0.11822352305380573
0.25651797093750944 0.438997332475521 0.11822352305380573
0.23483162544908992 0.21327162571049899 0.11822352305380573
0.3981425317988356 0.2992228343795406 0.11822352305380573
0.2865972840931075 0.20183733535102014 0.11822352305380573
0.28106514518990267 0.2536210433878703 0.1200284623370699
0.4086653278202659 0.2769228095348113 0.1200284623370699
0.39406336901865846 0.061801121058966506 0.1200284623370699
0.2608047017352619 0.2922738181389733 0.1200284623370699
0.22517520028362645 0.22358685371435394 0.1200284623370699
0.3574682250504766 0.27465761073431466 0.1200284623370699
0.5261488257679331 0.2664722110847115 0.1200284623370699
0.5351193740057563 0.20390399083035762 0.1200284623370699
0.38380228919330145 0.28956640921407706 0.12183340162033414
0.32044892035072764 0.34137719134017613 0.12183340162033414
0.2608047017352619 0.31001637129346055 0.12183340162033414
0.30554012187096524 0.33634141073986906 0.12183340162033414
0.5373755481098365 0.3452848848884432 0.12183340162033414
0.3599770906542139 0.24570638463075675 0.12183340162033414
0.2893678658929181 0.20195465640443233 0.1236383409035983
0.32924799935664073 0.3384080662192066 0.1236383409035983
0.2835198626151419 0.34671078692222196 0.1236383409035983
0.3676300332152541 0.26397237017739056 0.1236383409035983
0.38441596854961124 0.05388646230185299 0.1236383409035983
0.5151386961400215 0.3511058140769703 0.1236383409035983
0.38932540340008986 0.25292614176381356 0.12544328018686254
0.08671830786442887 0.1935255899515885 0.12544328018686254
0.3197810928159199 0.4188271359850433 0.12544328018686254
0.4174373327369299 0.2053479422569691 0.12544328018686254
0.17634256797491327 0.20782070907504108 0.12544328018686254
0.3762305689000081 0.25756483572180267 0.12724821947012677
0.22847823917199997 0.26849374308196744 0.12724821947012677
0.31155056968423517 0.40223974397184525 0.12724821947012677
0.3528836792709855 0.372828258351055 0.12724821947012677
0.3604824736535278 0.21689052897344369 0.12724821947012677
0.19002400774205588 0.2739446597174254 0.12724821947012677
0.316577325588126 0.2205094322363884 0.12905315875339096
0.3106661494354357 0.35283855578890383 0.12905315875339096
0.39772739576368477 0.31085566806017845 0.12905315875339096
0.32748818355545806 0.17795798863343462 0.12905315875339096
0.2600917507183726 0.22540984239045078 0.12905315875339096
0.3957148884628452 0.3582894724243619 0.12905315875339096
0.46425745774480365 0.2232709893397826 0.12905315875339096
0.24861233687681217 0.2574204405791415 0.13085809803665518
0.24644640973689516 0.294990251760286 0.13085809803665518
0.27257290586214455 0.3804360774300137 0.13085809803665518
0.47414852501709126 0.20402131188376985 0.13085809803665518
0.17832800118650388 0.30935756845506907 0.13085809803665518
0.30472789919349647 0.12131899392460378 0.13085809803665518
0.29736374691777845 0.24370290202633355 0.13203130857077688
0.1966752090008846 0.3129674470215975 0.13266303731991935
0.3179671288362394 0.3638938088988972 0.13266303731991935
0.2708221147573782 0.45732649089706906 0.13266303731991935
0.38921710704309403 0.2520146474257651 0.13266303731991935
0.41198641610147196 0.30236342873242034 0.13266303731991935
0.28887150759002034 0.18390526357179027 0.13266303731991935
0.3615203137414047 0.2823286026881876 0.1338362478540411
0.48737872996341797 0.24459634697154922 0.13446797660318358
0.3107293223103499 0.1419314005394811 0.13446797660318358
0.2012146312982941 0.22397491566025568 0.13446797660318358
0.225698632675773 0.25871097216667543 0.13446797660318358
0.3517194934332801 0.36125859754533146 0.13446797660318358
0.2642070122842149 0.45512446497148673 0.13446797660318358
0.38135659646447845 0.30295905869589757 0.13564118713730536
