0.22433872706282942 -0.06395376790267411 -0.21356347881359788
0.29710805561084913 -0.10843806979646117 -0.21356347881359788
0.3237306847311352 -0.013681410361495916 -0.21356347881359788
0.5751895467455778 0.04017056230752369 -0.21356347881359788
0.607612365801824 -0.013572201764375322 -0.21356347881359788
0.5582986170575931 -0.0462862437462766 -0.21356347881359788
0.452354143562052 -0.04859175857437792 -0.21356347881359788
0.5848605747350344 -0.11344953097543932 -0.21356347881359788
0.17702713593247613 -0.004968991168986767 -0.21295676438515015
0.7002940618914978 -0.05291156530492563 -0.21295676438515015
0.6573993518002439 -0.0032459221921951158 -0.211136621099807
0.4375139086422208 -0.12916343467223532 -0.211136621099807
0.6650075507329785 -0.03432183521728749 -0.211136621099807
0.5915344334479593 0.036651618622527 -0.211136621099807
0.22413244415715708 -0.061211418686090424 -0.211136621099807
0.506169713365365 -0.0030396392865229406 -0.211136621099807
0.20360122789848628 -0.036930707259612734 -0.21052990667135926
0.7843361445200763 -0.1807705639559985 -0.21052990667135926
0.6884509962481983 0.10690914943677303 -0.21052990667135926
0.6746179072795904 -0.05488945434166516 -0.20870976338601607
0.257198380507558 -0.025342461676261273 -0.20870976338601607
0.6137401815291459 0.029164762575482065 -0.20870976338601607
0.22222736085183128 0.018923423023284598 -0.20870976338601607
0.24226107127917498 -0.0359599641740964 -0.20713230587205203
0.193007993977789 -0.14879671357680352 -0.20713230587205203
0.8482717109898968 -0.0688924233502387 -0.20713230587205203
0.2844519926334296 -0.05104288486530669 -0.2062829056722252
0.6967265810522253 -0.03388500082880511 -0.2062829056722252
0.22172985502050419 0.025475938850519894 -0.2062829056722252
0.6422314910890509 -0.08750642201501468 -0.2062829056722252
0.7191143434619462 -0.05291156530492563 -0.20567619124377748
0.17702713593247613 -0.11683499748617755 -0.20470544815826114
0.8003170025653891 -0.10085413944086466 -0.20470544815826114
0.2781785654432802 -0.015343807895442678 -0.20385604795843434
0.6956708979467261 -0.03826547900219771 -0.20385604795843434
0.22399896698289865 -0.10824392117935784 -0.20385604795843434
0.62088727749626 0.02631320476177778 -0.20385604795843434
0.7097588069752822 -0.043543894529692914 -0.20324933352998661
0.25694356044760996 -0.18384053896394398 -0.20227859044447022
0.8962142851258361 -0.0688924233502387 -0.20227859044447022
0.2839423525135335 -0.05325132538485642 -0.20142919024464345
0.7039343484621842 -0.03756169026519827 -0.20142919024464345
0.5650816843676387 -0.12132468425669075 -0.20142919024464345
0.6235446866928611 0.028630853878448107 -0.20142919024464345
0.19857763243093912 -0.041456796895832614 -0.19985173273067938
0.4167642751893086 -0.1807705639559985 -0.19985173273067938
0.7204127123388243 0.1259721167786006 -0.19985173273067938
0.689640156527956 -0.05061818476539333 -0.1990023325308526
0.2752906047638691 -0.049113532982842864 -0.1990023325308526
0.21906031153533423 -0.10841380121932315 -0.1990023325308526
0.6282770592347534 0.028194019489965732 -0.1990023325308526
0.193007993977789 -0.028363899529930868 -0.19839561810240486
0.8322908529445842 -0.1328158555314906 -0.19839561810240486
0.8003170025653891 0.042985717255521104 -0.19839561810240486
0.22583124455681072 -0.019299585968921912 -0.19657547481706167
0.7082177523270252 -0.03005056564101548 -0.19657547481706167
0.64781326383077 -0.08937510245463362 -0.19657547481706167
0.16104627788716305 0.09284550898535496 -0.19596876038861397
0.23598764408902562 -0.041068499661626116 -0.19596876038861397
0.86425256903521 -0.05291156530492563 -0.19596876038861397
0.21453422189911417 -0.11605840301776456 -0.19414861710327078
0.3431576807300312 0.06369894784272641 -0.19414861710327078
0.22413244415715708 0.036154112791199906 -0.19414861710327078
0.6855509012802181 -0.051540390696633784 -0.19414861710327078
0.17702713593247613 0.0110118668763263 -0.19354190267482307
0.8322908529445842 -0.11991710678269203 -0.19354190267482307
0.27252398697014735 -0.01888702015757739 -0.1917217593894799
0.7036673941136673 -0.051540390696633784 -0.1917217593894799
0.21429153612773513 0.031203323055066484 -0.1917217593894799
0.64908736413051 -0.09597615543614496 -0.1917217593894799
0.2245328756799326 0.03751315311092274 -0.1917217593894799
0.7683552864747633 -0.05291156530492563 -0.19111504496103218
0.8003170025653891 0.09092829139146014 -0.19111504496103218
0.2125806014395125 0.05031482755116957 -0.18929490167568902
0.7040435570593047 -0.010781315393515928 -0.18929490167568902
0.6701160862205081 -0.08288325807024305 -0.18929490167568902
0.2349683638492334 -0.014955510661236179 -0.18929490167568902
0.16104627788716305 -0.14879671357680352 -0.1886881872472413
0.880233427080523 0.0110118668763263 -0.1886881872472413
0.7051356430305106 -0.04961103881417013 -0.18686804396189813
0.5224539286249018 -0.15561618375255587 -0.18686804396189813
0.21188894699108207 -0.03672442435394038 -0.18686804396189813
0.6914602998132992 -0.01824390286342284 -0.18686804396189813
0.5126494234611865 0.138870865527399 -0.18626132953345043
0.7044318542935113 -0.1807705639559985 -0.18626132953345043
0.7146974624228468 -0.0372461987624055 -0.18444118624810726
0.6515263561328698 -0.11415331971243858 -0.18444118624810726
0.2774869109948498 -0.05842053231523103 -0.18444118624810726
0.2615181872381057 -0.054088591296114305 -0.18444118624810726
0.6490145583990964 0.029710805561085032 -0.18444118624810726
0.25694356044760996 -0.19675142200131138 -0.18383447181965953
0.7523744284294501 0.09092829139146014 -0.18383447181965953
0.7225483471269601 -0.03722193018526765 -0.18201432853431634
0.5146394467864951 -0.15901378455186313 -0.18201432853431634
0.25449243415668116 -0.03246528906623739 -0.18201432853431634
0.7130471991774691 -0.035644472671303454 -0.18201432853431634
0.17702713593247613 -0.036930707259612734 -0.18140761410586864
0.8003170025653891 -0.11683499748617755 -0.18140761410586864
0.20789676605189614 -0.12321763327344754 -0.17958747082052548
0.5236430889046593 0.08652354464092968 -0.17958747082052548
0.21430367041630413 -0.11594919442064397 -0.17958747082052548
0.6996388103087742 -0.01739450266359611 -0.17958747082052548
0.17702713593247613 -0.11683499748617755 -0.17898075639207775
0.8962142851258361 -0.020949849214299664 -0.17898075639207775
0.5711973658063917 -0.14795944766554564 -0.17716061310673462
0.5435675907348824 0.0872030648007911 -0.17716061310673462
0.2133814644850635 -0.11724756329752208 -0.17716061310673462
0.6651895650615126 -0.09982272491250344 -0.17716061310673462
0.16104627788716305 -0.14879671357680352 -0.17655389867828689
0.880233427080523 -0.0018868818724722836 -0.17655389867828689
0.6304248283114582 -0.12922410611508003 -0.1747337553929437
0.1932506797491682 0.04160240835866042 -0.1747337553929437
0.20619796565224252 -0.015283136452597962 -0.1747337553929437
0.6779062994817768 0.01359647034151352 -0.1747337553929437
0.17702713593247613 -0.11683499748617755 -0.174127040964496
0.8962142851258361 -0.020949849214299664 -0.174127040964496
0.6136067043548874 -0.1390164769902263 -0.17230689767915283
0.1921100566236864 0.04222125707567712 -0.17230689767915283
0.20532429687527776 -0.06250978756296854 -0.17230689767915283
0.7202671008759969 -0.037331138782388244 -0.17230689767915283
0.16104627788716305 -0.05291156530492563 -0.1717001832507051
0.86425256903521 -0.10085413944086466 -0.1717001832507051
0.22460568141134632 -0.1316873666945778 -0.16988003996536194
0.5022139352918857 0.09159567726275254 -0.16988003996536194
0.20508161110389872 -0.060980867203280394 -0.16988003996536194
0.6295390252459246 -0.12861739168663236 -0.16988003996536194
0.16104627788716305 0.10690914943677303 -0.1692733255369142
0.880233427080523 -0.07082177523270235 -0.1692733255369142
0.8003170025653891 0.026992724921639198 -0.1692733255369142
0.19983959844211038 -0.13328909278567969 -0.16745318225157105
0.2267898533537582 -0.040449650944609415 -0.16745318225157105
0.5234004031332803 0.0808082947249521 -0.16745318225157105
0.5233518659790044 -0.15491239501555662 -0.16745318225157105
0.6564892801575725 0.12289000748208592 -0.1656573075433658
0.7683552864747633 -0.05291156530492563 -0.1656573075433658
0.2000701499249206 -0.04428408613239905 -0.16502632453778018
0.6205232488391914 0.06775180022475723 -0.16502632453778018
0.5921896850306828 -0.16181680521129171 -0.16502632453778018
0.4032588120120623 0.06736350299055055 -0.16502632453778018
0.7163234570910865 -0.00962855797946527 -0.16502632453778018
0.21134290400547925 -0.014397333387064368 -0.16502632453778018
0.23948231919688445 -0.13747542234196913 -0.1625994668239893
0.7040556913478736 -0.09336728339381972 -0.1625994668239893
0.1980558580224742 0.0671086829306025 -0.1625994668239893
0.6030862761656038 0.07077323807842682 -0.1625994668239893
0.20073753579621298 -0.05988878123207446 -0.1625994668239893
0.7843361445200763 -0.1678596809186309 -0.16204128954981736
0.18530272073650306 0.10690914943677303 -0.16204128954981736
0.6647527306730302 -0.12207701014796589 -0.16017260911019837
0.19329921690344393 0.05706149199550837 -0.16017260911019837
0.2331724891410282 -0.056151420352836406 -0.16017260911019837
0.7208495467273067 -0.06527640535669026 -0.16017260911019837
0.6564892801575725 0.138870865527399 -0.15843740584483793
0.5126494234611865 -0.19675142200131138 -0.15843740584483793
0.21260487001665052 -0.01817109713200911 -0.1577457513964075
0.6263477073522895 0.07061549232703035 -0.1577457513964075
0.6345626207134716 -0.15156333137052505 -0.1577457513964075
0.48596612289805574 -0.15362616042724733 -0.1577457513964075
0.7290401915113508 -0.015707836552511324 -0.1577457513964075
0.19903873539655936 -0.044102071803864724 -0.15531889368261662
0.19368751413765042 -0.052972236747770345 -0.15531889368261662
0.7519375940409678 -0.05015708179977293 -0.15531889368261662
0.5918620592393211 0.0742436446091478 -0.15531889368261662
0.7198666693532212 -0.006146017160175276 -0.15531889368261662
0.8163099948992711 0.026992724921639198 -0.1548213878512895
0.16104627788716305 -0.11683499748617755 -0.1548213878512895
0.2135877473907357 -0.05084873624820335 -0.15289203596882575
0.611034235178269 0.07982541735086676 -0.15289203596882575
0.5709061428807367 -0.17447286818871108 -0.15289203596882575
0.6457868376397545 0.0600465269834711 -0.15289203596882575
0.2047782538896748 -0.13501216176247136 -0.15289203596882575
0.3647324458056321 0.031749366040669455 -0.15289203596882575
0.6884509962481983 0.12289000748208592 -0.15120536985774108
0.193007993977789 -0.1617075966141711 -0.15120536985774108
0.22321023822591662 -0.023728601296590216 -0.15046517825503486
0.7482487703160056 -0.04690509246329313 -0.15046517825503486
0.18854257578441383 0.059209261072213214 -0.15046517825503486
0.2008710129704716 -0.13489081887678173 -0.15046517825503486
0.6521209362727487 0.058651083798041403 -0.15046517825503486
0.418244658394721 -0.027999870872862223 -0.15046517825503486
0.3765876457375006 -0.14101863460410366 -0.15046517825503486
0.7236768359638732 0.009834840885137619 -0.14803832054124394
0.6106823408097694 0.08869558229477255 -0.14803832054124394
0.21267767574806426 -0.15133277988771504 -0.14803832054124394
0.4175044667920149 0.014555079138461012 -0.14803832054124394
0.5671687820014989 0.09034584554015031 -0.14803832054124394
0.74204814885727 -0.054792380033113576 -0.14803832054124394
0.16104627788716305 -0.1328158555314906 -0.14758935186419264
0.8163099948992711 0.0110118668763263 -0.14758935186419264
0.2199946517551437 -0.046152766572017986 -0.14561146282745308
0.20521508827815715 -0.05993731838635034 -0.14561146282745308
0.6482015610649763 -0.1549609321698323 -0.14561146282745308
0.7237496416952865 0.005248079806072845 -0.14561146282745308
0.20082247581619572 -0.1379486595961582 -0.14561146282745308
0.309363687065493 -0.041468931184401626 -0.14561146282745308
0.6724701382028851 0.15485172357271207 -0.14398546815921318
0.5925537136877514 -0.21273228004662445 -0.14398546815921318
0.1901443018755159 -0.0439200574753304 -0.1431846051136622
0.5932089652704751 0.09187476589983862 -0.1431846051136622
0.5264946467183635 0.10528315476853313 -0.1431846051136622
0.17923557645202584 -0.06895309479308341 -0.1431846051136622
0.6583700948857604 0.061369164437487064 -0.1431846051136622
0.7476299215989891 -0.02608265327896741 -0.1431846051136622
0.3090967327169761 -0.0040589195263151506 -0.1431846051136622
0.3210368726688272 0.018644334386198523 -0.14075774739987132
0.19016857045265373 -0.02093771492573082 -0.14075774739987132
0.1831792202369359 -0.05293583388206348 -0.14075774739987132
0.6266996017207892 -0.1676412637243897 -0.14075774739987132
0.21036002663139391 -0.06426925940546706 -0.14075774739987132
0.7489525590530052 -0.04952609879418739 -0.14075774739987132
0.8322908529445842 0.04605569226346658 -0.1403694501656648
0.4167642751893086 -0.1936693127047971 -0.1403694501656648
0.16104627788716305 0.09092829139146014 -0.1403694501656648
0.1908238220353773 -0.02600984754755368 -0.13833088968608045
0.5774465244194031 -0.17208241334062702 -0.13833088968608045
0.7389296366950486 0.01123028407056749 -0.13833088968608045
0.5647297899991389 0.11047663027604576 -0.13833088968608045
0.6930013544615561 0.034515983834390994 -0.13833088968608045
0.757992604036876 -0.03905420775917972 -0.13833088968608045
0.16104627788716305 0.026992724921639198 -0.13675343217211633
0.86425256903521 -0.10085413944086466 -0.13675343217211633
0.4113402481989861 0.016460162443786813 -0.13590403197228954
0.22018880037224703 -0.03672442435394038 -0.13590403197228954
0.2141095217992008 -0.05890590385798911 -0.13590403197228954
0.1798786937461804 -0.14442836969197992 -0.13590403197228954
0.5294918159948953 0.10068425940089952 -0.13590403197228954
0.6223191235473967 -0.15798237002350207 -0.13590403197228954
0.38479042481011383 0.1259721167786006 -0.13347717425849864
0.7843361445200763 -0.14572673856885804 -0.13347717425849864
0.8962142851258361 -0.019020497331836007 -0.13347717425849864
0.18888233586434464 -0.02727181355872493 -0.13347717425849864
0.4993623774781814 0.10450656030012014 -0.13347717425849864
0.5305474991003943 0.11098627039594171 -0.13347717425849864
0.17622627288692508 -0.033836463674529235 -0.13347717425849864
0.19135773073241125 0.06584671691943125 -0.13347717425849864
0.30923020989123456 -0.08588042734677478 -0.13105031654470778
0.21856280570400713 -0.03502562395428676 -0.13105031654470778
0.19008363043267099 0.07248417276664945 -0.13105031654470778
0.5716584687720119 0.10865648699070253 -0.13105031654470778
0.1748915011443401 -0.022563709593970548 -0.13105031654470778
0.5056843418226067 0.10234665693484628 -0.13105031654470778
0.31333159942754124 0.02496629873062379 -0.13105031654470778
0.8322908529445842 0.05896657530083417 -0.12980048482210546
0.4012930572638918 0.006425105797261526 -0.12980048482210546
0.18530272073650306 0.10690914943677303 -0.12980048482210546
0.18640694099627783 -0.04501214344653634 -0.1286234588309169
0.5901511245510984 -0.1756134913141929 -0.1286234588309169
0.7729663161309659 -0.053845905524735095 -0.1286234588309169
0.5602401032286259 0.11641029738626436 -0.1286234588309169
0.3144600882644539 0.026009847547554022 -0.1286234588309169
0.41096408525334843 0.093876923513716 -0.1286234588309169
0.40899833050517775 -0.16816303813285483 -0.1286234588309169
0.7602253131335636 -0.029953491332463902 -0.1286234588309169
0.6884509962481983 0.12289000748208592 -0.12619660111712602
0.36880956676480076 -0.19982139700925686 -0.12619660111712602
0.31643797730119355 0.02252730672826403 -0.12619660111712602
0.19015643616408473 -0.03029325141239452 -0.12619660111712602
0.22686265908517195 -0.034855743914321446 -0.12619660111712602
0.17582584136414958 -0.14826280487976956 -0.12619660111712602
0.21272621290233995 -0.06172105880598653 -0.12619660111712602
0.3796940236111529 0.09246934603971729 -0.12619660111712602
0.4427680555925779 -0.0612599558403663 -0.12619660111712602
0.3055535204548414 -0.021301743582799296 -0.12619660111712602
0.5967521775326098 0.059828109789229915 -0.12619660111712602
0.5998585554062621 -0.17078404446374892 -0.12619660111712602
0.41756513823485963 0.01587771659247698 -0.1237697434033351
0.1932385454605992 -0.05293583388206348 -0.1237697434033351
0.6303034854257688 -0.16692534069882142 -0.1237697434033351
0.7778443001356857 -0.053518279733373315 -0.1237697434033351
0.5382163694759735 0.12058449265398462 -0.1237697434033351
0.36964683267605863 -0.1668525349674077 -0.1237697434033351
0.24610764075553362 0.07934004580810868 -0.1237697434033351
0.4199070559286678 -0.0905521284458223 -0.1237697434033351
0.6016180272487605 -0.15351695183012673 -0.1237697434033351
0.603838602056879 0.04115343968160903 -0.1237697434033351
0.86425256903521 0.026992724921639198 -0.12283540318352563
0.7523744284294501 -0.18384053896394398 -0.12283540318352563
0.2874370276213925 0.10690914943677303 -0.12283540318352563
0.18473240917376207 -0.027890662275741628 -0.12134288568954422
0.579654964938953 -0.18141368125015306 -0.12134288568954422
0.7880128339564695 -0.040049219421833905 -0.12134288568954422
0.44794939681152157 0.11517259995223096 -0.12134288568954422
0.21885402862966205 -0.015586493666821891 -0.12134288568954422
0.28650268740158286 -0.1591715303032596 -0.12134288568954422
0.49249437014815317 0.08088110045636583 -0.12134288568954422
0.4426345784183195 -0.07800527406552335 -0.12134288568954422
0.6029527989913455 -0.16982543566680158 -0.12134288568954422
0.38479042481011383 0.1259721167786006 -0.11936499665280464
0.25694356044760996 0.10631456929689435 -0.11936499665280464
0.8962142851258361 -0.05291156530492563 -0.11936499665280464
0.3180882405465713 0.01798908280347513 -0.11891602797575335
0.21506813059614813 -0.03606917277121699 -0.11891602797575335
0.18709859544470828 -0.055653914521509314 -0.11891602797575335
0.6354605580675744 -0.17808888618225951 -0.11891602797575335
0.5590266743717304 0.10840166693075448 -0.11891602797575335
0.605998505422153 -0.14805652197409738 -0.11891602797575335
0.3434489036556861 -0.10115749665508841 -0.11891602797575335
0.3058326090919273 -0.051212764905272 -0.11891602797575335
0.18463533486521047 -0.10252867126338026 -0.11891602797575335
0.6317353314769053 0.09066133704294307 -0.11891602797575335
0.5912310762337354 -0.1678718152071999 -0.11648917026196247
0.5872146267174115 -0.16544495749340898 -0.11648917026196247
0.6490145583990964 -0.16385536569087597 -0.11648917026196247
0.5232183888047459 0.10722464093956598 -0.11648917026196247
0.1811649283344895 -0.14279024073517102 -0.11648917026196247
0.65918309221988 -0.169716227069681 -0.11648917026196247
0.6017879072887258 0.08878052231475513 -0.11648917026196247
0.6015816243830536 -0.16424366292508247 -0.11648917026196247
0.40653506992568017 -0.08817380788630726 -0.11648917026196247
0.4495389886140546 0.030086968506722694 -0.11648917026196247
0.4388850832505126 0.004871916860435358 -0.11648917026196247
0.4012930572638918 -0.006886208762881582 -0.11588245583351474
0.48068770737056055 -0.22871313809193736 -0.11588245583351474
0.6564892801575725 0.12289000748208592 -0.11588245583351474
0.5903088703024949 -0.1736477365660222 -0.11406231254817159
0.5383255780730941 -0.1766206372654161 -0.11406231254817159
0.5504355980649106 0.11116828472447603 -0.11406231254817159
0.2334637120666831 -0.161197956494275 -0.11406231254817159
0.5922260878963898 -0.1884515686201466 -0.11406231254817159
0.5772645100908689 0.12195566726227645 -0.11406231254817159
0.6612459212766025 0.0811480548048829 -0.11406231254817159
0.41352442014139784 -0.08588042734677478 -0.11406231254817159
0.4505097316995709 -0.11041595883320071 -0.11406231254817159
0.45428349544451585 -0.10170353964069138 -0.11406231254817159
0.17171231753927405 -0.16657344633032178 -0.11345559811972386
0.6564892801575725 -0.20965017075010997 -0.11248485503420749
0.5666106047273268 0.07437712178340625 -0.11248485503420749
0.5497075407507733 -0.1512478398677323 -0.11248485503420749
0.4995079889410089 0.077386425348507 -0.11248485503420749
0.16104627788716305 0.10690914943677303 -0.11248485503420749
0.5945801398787669 -0.11426252830955917 -0.11163545483438067
0.5972496833639369 -0.10729744667097936 -0.11163545483438067
0.2091223291973605 -0.047220583966086076 -0.11163545483438067
0.17986655945761137 -0.13899220841308843 -0.11163545483438067
0.5967885803983166 -0.12272012744212045 -0.11163545483438067
0.7843118759429383 -0.02082850632861023 -0.11163545483438067
0.17470948681580578 0.0755298791974569 -0.11163545483438067
0.5580801998633519 -0.1993966969093435 -0.11163545483438067
0.6059378339793081 0.05485305147595864 -0.11163545483438067
0.61079154940689 -0.12940612044361435 -0.11163545483438067
0.4419065211041822 0.025257521656278707 -0.11163545483438067
0.4375017743536518 -0.10387557729453425 -0.11163545483438067
0.3426480406101351 -0.19675142200131138 -0.11102874040593298
0.4964258796444946 0.05896657530083417 -0.11005799732041661
0.567108110558654 -0.15159973423623194 -0.11005799732041661
0.41794130118049727 0.07494743334614706 -0.11005799732041661
0.579654964938953 -0.15869829304907035 -0.11005799732041661
0.6884509962481983 0.10690914943677303 -0.11005799732041661
0.5814023024928824 -0.1802609238361024 -0.10920859712058979
0.545327062577381 -0.17949646365625824 -0.10920859712058979
0.38784826552949025 -0.17983622373618902 -0.10920859712058979
0.6046637336795679 -0.12862952597520136 -0.10920859712058979
0.18114065975735164 -0.019869897531662736 -0.10920859712058979
0.5148699982693052 0.12205274157082821 -0.10920859712058979
0.16886075972556977 -0.16056697348868929 -0.10920859712058979
0.6132426756978188 -0.1313840094803539 -0.10920859712058979
0.6072968742990311 0.04859175857437809 -0.10920859712058979
0.4642214777824894 0.03838682188788749 -0.10920859712058979
0.47423226585187683 0.045000009157967674 -0.10920859712058979
0.4287286837182977 0.015028316392650252 -0.10920859712058979
0.5748012495113711 -0.14533844133465154 -0.10763113960662574
0.5782716560420921 0.09027303980873658 -0.10763113960662574
0.8482717109898968 0.042985717255521104 -0.10763113960662574
0.8559648499426141 -0.08487328139555159 -0.10763113960662574
0.550617612393445 0.11090133037595913 -0.10678173940679891
0.19227993666365173 0.07107659529265074 -0.10678173940679891
0.5998585554062621 0.10518608045998155 -0.10678173940679891
0.40205751744373597 -0.18236015575853154 -0.10678173940679891
0.17666310727540746 0.07903668859388475 -0.10678173940679891
0.591340284830856 0.04538830639217417 -0.10678173940679891
0.6819955547295147 0.0906249341772362 -0.10678173940679891
0.6197587886593474 0.09655860128745497 -0.10678173940679891
0.610488192192666 0.051613196428047854 -0.10678173940679891
0.4535311695532405 0.03758595884233647 -0.10678173940679891
0.43805995162782374 0.041238379701591776 -0.10678173940679891
0.4378051315678757 0.005951868543072286 -0.10678173940679891
0.5838170259181044 0.08663275323805028 -0.10520428189283486
0.4007712828554267 -0.1104038245446317 -0.10520428189283486
0.6405084221122593 0.15485172357271207 -0.10520428189283486
0.5951504514415077 -0.11449307979236938 -0.10435488169300804
0.5970555347468335 0.03500135537714925 -0.10435488169300804
0.7639748083013708 0.014009036152858043 -0.10435488169300804
0.17429692100446126 -0.04759674691172356 -0.10435488169300804
0.40617104126861153 0.10906905280204705 -0.10435488169300804
0.5383377123616631 0.11870367792579667 -0.10435488169300804
0.803496186170455 -0.036518141448268204 -0.10435488169300804
0.6110463694668381 -0.08827088219485885 -0.10435488169300804
0.6092262261814948 0.04978091885413561 -0.10435488169300804
0.4425132355326299 0.029249702595464805 -0.10435488169300804
0.3094364927969067 -0.0858925616353438 -0.10435488169300804
0.3928475924198996 -0.20216331470306503 -0.1037481672645603
0.880233427080523 0.0110118668763263 -0.10277742417904398
0.49469067637913405 0.05896657530083417 -0.10277742417904398
0.4324053731546909 -0.20519688684530366 -0.10277742417904398
0.5980262778323499 -0.11418972257814544 -0.10192802397921717
0.5807106480444519 -0.13190578388881902 -0.10192802397921717
0.5996765410777278 -0.18632806812057962 -0.10192802397921717
0.40931382200797073 -0.18243296148994526 -0.10192802397921717
0.17419984669590968 -0.05577525740719892 -0.10192802397921717
0.177864401843734 0.007966160445518683 -0.10192802397921717
0.5966308346469201 0.04616490086058717 -0.10192802397921717
0.8034719175933174 -0.020585820557231016 -0.10192802397921717
0.6813160345696531 -0.14669748165437438 -0.10192802397921717
0.6170771108856083 0.05533842301871672 -0.10192802397921717
0.40802758741966144 -0.08742148199503212 -0.10192802397921717
0.4472456080745221 0.026919919190225468 -0.10192802397921717
0.43856959174771987 0.011812729921877324 -0.10192802397921717
0.42421472837064667 0.13311921274571473 -0.10035056646525306
0.5867049865975155 -0.1647775716221166 -0.10035056646525306
0.6884509962481983 -0.22871313809193736 -0.10035056646525306
0.1948645401288391 -0.051212764905272 -0.09950116626542625
0.18194152280290268 0.06946273491297969 -0.09950116626542625
0.18664962676765687 -0.015841313726769942 -0.09950116626542625
0.5995430639034691 0.046953629617569353 -0.09950116626542625
0.4093016877194017 -0.1838041360982371 -0.09950116626542625
0.41532029484960303 0.1097000358076326 -0.09950116626542625
0.17609279571266664 -0.01983349466595587 -0.09950116626542625
0.16977083136824137 -0.04879804148005009 -0.09950116626542625
0.40069847712401296 -0.19750374789258654 -0.09950116626542625
0.617732362468332 0.05350614544480465 -0.09950116626542625
0.779361086206805 -0.006473642951537058 -0.09950116626542625
0.4533491552247062 0.03775583888230178 -0.09950116626542625
0.47437787731470427 0.045206292063639845 -0.09950116626542625
0.438508920304875 0.005248079806072845 -0.09950116626542625
0.4167642751893086 0.13694151364493534 -0.09792370875146218
0.5890833071570305 -0.1546697092441774 -0.09792370875146218
0.6405084221122593 -0.22871313809193736 -0.09792370875146218
0.19265609960928937 -0.05109142201958257 -0.09707430855163537
0.4033558863206141 0.10432454597158582 -0.09707430855163537
0.18882166442149975 0.07522652198323315 -0.09707430855163537
0.6150142818288862 0.05950048399786813 -0.09707430855163537
0.42980863540093467 0.11414118542386992 -0.09707430855163537
0.43057309558077883 -0.1881118085402158 -0.09707430855163537
0.17525552980140877 -0.12014765826550207 -0.09707430855163537
0.17132402030506755 0.08158488919336528 -0.09707430855163537
0.16666445349458905 -0.15781248998353659 -0.09707430855163537
0.6247217126840496 0.10540449765422275 -0.09707430855163537
0.6801875457327404 0.08200958929327865 -0.09707430855163537
0.47681686931706424 0.03980653365045504 -0.09707430855163537
0.4363368826510321 0.028303228087086324 -0.09707430855163537
0.42767300061279867 0.016083999498149155 -0.09707430855163537
0.46814085299026176 0.138870865527399 -0.0954968510376713
0.4007712828554267 -0.1328158555314906 -0.0954968510376713
0.6884509962481983 -0.22871313809193736 -0.0954968510376713
0.2967076240880736 0.09341582054809577 -0.0946474508378445
0.18507216925369285 -0.016363088135234887 -0.0946474508378445
0.20140492166750557 -0.025087641616313223 -0.0946474508378445
0.6137401815291459 0.051431182099513535 -0.0946474508378445
0.38805454843516246 -0.18538159361220113 -0.0946474508378445
0.34744108459487205 -0.17924164359631017 -0.0946474508378445
0.3981260079473948 -0.19207972090226405 -0.0946474508378445
0.6160578306458162 -0.19658154196134608 -0.0946474508378445
0.796082135854824 -0.03794998749940477 -0.0946474508378445
0.6210086203819496 -0.12764664860111602 -0.0946474508378445
0.44799793396579746 0.03515910112854555 -0.0946474508378445
0.3093151499112173 0.011764192767601446 -0.0946474508378445
0.48068770737056055 0.1385553740246064 -0.09404073640939677
0.8962142851258361 -0.05291156530492563 -0.09306999332388043
0.4007712828554267 0.042985717255521104 -0.09306999332388043
0.4007712828554267 -0.11683499748617755 -0.09306999332388043
0.6635393018161349 -0.17131795316078285 -0.09222059312405362
0.41442235749550044 -0.19034451763690355 -0.09222059312405362
0.1747701582586505 0.053797368370459564 -0.09222059312405362
0.5205609796081448 0.12372727339334398 -0.09222059312405362
0.5151612211949601 -0.19207972090226405 -0.09222059312405362
0.5290792501835507 -0.20400772656554614 -0.09222059312405362
0.5826764027926224 -0.10940881288197751 -0.09222059312405362
0.6674344084467692 -0.18000610377615434 -0.09222059312405362
0.630206411117217 -0.13159029238602624 -0.09222059312405362
0.6215182605018457 -0.13080156362904405 -0.09222059312405362
0.4351477223712746 -0.09562426106764516 -0.09222059312405362
0.43611846545679106 -0.10280775990046634 -0.09222059312405362
0.4869611345607101 0.15485172357271207 -0.09064313561008955
0.5910611961937701 -0.0688924233502387 -0.09064313561008955
0.8163099948992711 -0.08487328139555159 -0.09064313561008955
0.20657412859788016 -0.036518141448268204 -0.08979373541026274
0.17585010994128744 -0.003743428023522381 -0.08979373541026274
0.4471728023431084 0.03758595884233647 -0.08979373541026274
0.3086477640399247 -0.04023123375036823 -0.08979373541026274
0.6057679539393428 0.041274782567298635 -0.08979373541026274
0.6001861811976237 0.04678374957760387 -0.08979373541026274
0.5930997566733545 -0.12091211844534622 -0.08979373541026274
0.6036687220169137 0.033739389365977826 -0.08979373541026274
0.5608953548113493 0.12941825473218355 -0.08979373541026274
0.6188365827281067 -0.19814686518674127 -0.08979373541026274
0.6313713028198367 0.08494608712696566 -0.08979373541026274
0.6224404664330861 -0.17233723340057508 -0.08979373541026274
0.425974200213145 0.047718089797413335 -0.08821627789629863
0.48068770737056055 -0.21753745831993043 -0.08821627789629863
0.8003170025653891 0.09092829139146014 -0.08821627789629863
0.3188041635721396 -0.09273630038823401 -0.08736687769647182
0.4419065211041822 0.017406636952165298 -0.08736687769647182
0.47344353709489484 -0.1195652124141924 -0.08736687769647182
0.6868735387342342 -0.16204735669410172 -0.08736687769647182
0.40597689265150816 -0.18791765992311263 -0.08736687769647182
0.43719841713942803 0.1197836296084336 -0.08736687769647182
0.3712970959214364 -0.18028519241324023 -0.08736687769647182
0.6163005164171952 0.09744440435298857 -0.08736687769647182
0.48943652942877675 0.1337865986170073 -0.08736687769647182
0.6835244750892027 -0.1598995876173969 -0.08736687769647182
0.5925537136877514 0.15485172357271207 -0.08578942018250775
0.5914373591394076 -0.0688924233502387 -0.08578942018250775
0.6405084221122593 -0.22871313809193736 -0.08578942018250775
0.17676018158395904 -0.0385324333507146 -0.08494001998268094
0.40836734749959225 -0.08725160195506663 -0.08494001998268094
0.46151553143161256 -0.11279427939271575 -0.08494001998268094
0.42986930684377955 -0.10461576889724039 -0.08494001998268094
0.6127573041550605 0.1169563403718675 -0.08494001998268094
0.4578752448609263 -0.19690916775270786 -0.08494001998268094
0.48812602626332957 0.12290214177065494 -0.08494001998268094
0.5216409312907817 -0.20661659860787138 -0.08494001998268094
0.5832345800667945 -0.10963936436478754 -0.08494001998268094
0.6133397500063703 0.09785697016433309 -0.08494001998268094
0.6272213761292543 -0.13476947599109212 -0.08494001998268094
0.86425256903521 0.026992724921639198 -0.08336256246871689
0.8163099948992711 -0.13589796482800492 -0.08336256246871689
0.42582858875031754 0.04781516410596509 -0.08336256246871689
0.1797573508604908 -0.045752335049242476 -0.08251316226889006
0.40653506992568017 -0.08817380788630726 -0.08251316226889006
0.44542546478917905 -0.10955442434480497 -0.08251316226889006
0.42983290397807267 0.03060874291518764 -0.08251316226889006
0.7392087253321346 0.0555083030586822 -0.08251316226889006
0.4715505880781379 -0.19825607378386184 -0.08251316226889006
0.4665997983420046 0.12352099048767182 -0.08251316226889006
0.41868149278320343 -0.18595190517494195 -0.08251316226889006
0.5877242668373077 0.040425382367471736 -0.08251316226889006
0.39356351544546786 0.121822190088018 -0.08251316226889006
0.6295996966887694 -0.18426523906385733 -0.08251316226889006
0.534357665711046 0.14721925606283984 -0.08093570475492601
0.4311798100092265 0.053117848210598145 -0.08093570475492601
0.7204127123388243 -0.21273228004662445 -0.08093570475492601
0.17686939018107964 -0.02969867127251585 -0.08008630455509919
0.31574632285276316 -0.09026090552016738 -0.08008630455509919
0.44140901527285514 -0.10025955930098582 -0.08008630455509919
0.4512256547251392 -0.10025955930098582 -0.08008630455509919
0.6297210395744589 -0.1889733430286117 -0.08008630455509919
0.48596612289805574 -0.20058585718910102 -0.08008630455509919
0.4838911595527646 0.12409130205041263 -0.08008630455509919
0.6198801315450368 -0.1968120934441563 -0.08008630455509919
0.6151598932917136 -0.17652356295686433 -0.08008630455509919
0.5984267093551253 0.03589929273125185 -0.08008630455509919
0.669909803314836 -0.17015306145816336 -0.08008630455509919
0.5371606863704745 -0.22575237168111248 -0.07850884704113513
0.5765728556424384 -0.004968991168986767 -0.07850884704113513
0.5925537136877514 0.15485172357271207 -0.07850884704113513
0.1747701582586505 -0.0391512820677313 -0.07765944684130831
0.3210368726688272 -0.08817380788630726 -0.07765944684130831
0.4412391352328898 -0.1028926999204489 -0.07765944684130831
0.4514804747850873 0.027247544981587248 -0.07765944684130831
0.6016422958258983 -0.12127614710241487 -0.07765944684130831
0.47346780567203267 -0.19847449097810288 -0.07765944684130831
0.5307295134289287 0.1290784946522529 -0.07765944684130831
0.5508481638762551 -0.19707904779267318 -0.07765944684130831
0.6214575890590008 0.10427600881730993 -0.07765944684130831
0.6844466810204435 0.10454296316582701 -0.07765944684130831
0.625704590058135 0.11326751664690517 -0.07765944684130831
0.543434113560624 0.1487481764225278 -0.07705273241286058
0.5765728556424384 -0.07082177523270235 -0.07608198932734421
0.5286302815064996 0.15106582553919815 -0.07608198932734421
0.8482717109898968 -0.11683499748617755 -0.07608198932734421
0.19831067808242206 -0.05235338803075382 -0.07523258912751739
0.4450250332664036 0.0341276866001845 -0.07523258912751739
0.4364460912481527 0.03205272325489321 -0.07523258912751739
0.4378779372992894 -0.07974047733088385 -0.07523258912751739
0.8202293701070434 -0.040570993830299024 -0.07523258912751739
0.5060119676139685 -0.20412906945123574 -0.07523258912751739
0.5201726823739383 0.12843537735809837 -0.07523258912751739
0.7829285670460774 -0.10000473924103775 -0.07523258912751739
0.44366599294668074 -0.2038257122370118 -0.07523258912751739
0.7779171058670994 -0.08580762161536105 -0.07523258912751739
0.7813996466863891 -0.08899893950899614 -0.07523258912751739
0.86425256903521 -0.08795539069206608 -0.07365513161355333
0.5559809679409229 0.153225728904472 -0.07365513161355333
0.5923959679363551 -0.020949849214299664 -0.07365513161355333
0.5446111395518125 -0.22871313809193736 -0.07365513161355333
0.31361068806462716 0.011667118459049865 -0.07280573141372651
0.4105151165762971 -0.09569706679905889 -0.07280573141372651
0.48400036814988523 -0.12218621874508649 -0.07280573141372651
0.6097480005899599 0.03555953265132106 -0.07280573141372651
0.5060969076339512 -0.20357089217706376 -0.07280573141372651
0.47959562139935474 0.126069191087152 -0.07280573141372651
0.6279130305776847 -0.13453892450828212 -0.07280573141372651
0.6018000415772947 0.0394546392819554 -0.07280573141372651
0.5481179489482403 0.11996564393696808 -0.07280573141372651
0.6360430039188842 -0.1316752324060088 -0.07280573141372651
0.5685278223212217 -0.22871313809193736 -0.07219901698527878
0.8003170025653891 0.09092829139146014 -0.07122827389976245
0.42547669438181795 0.048057849877344135 -0.07122827389976245
0.7044318542935113 -0.1815471584244115 -0.07122827389976245
0.40653506992568017 0.01946946600888757 -0.07037887369993565
0.44017131783882174 0.027987736584293554 -0.07037887369993565
0.4176136753891355 -0.10110895950081271 -0.07037887369993565
0.6265903931236686 0.04914993584855007 -0.07037887369993565
0.4811245417590429 -0.2008042743833422 -0.07037887369993565
0.4847284254640225 0.12716127705835795 -0.07037887369993565
0.5880640269172382 -0.128435377358098 -0.07037887369993565
0.6261778273123242 0.05430700849035567 -0.07037887369993565
0.5082810795763629 0.14093369458412144 -0.07037887369993565
0.6399502448380876 -0.17990902946760276 -0.07037887369993565
0.5685278223212217 0.15485172357271207 -0.06977215927148792
0.8163099948992711 -0.08669342468089482 -0.06880141618597158
0.5765728556424384 -0.004968991168986767 -0.06880141618597158
0.5892774557741338 0.15485172357271207 -0.06880141618597158
0.3138169709702993 0.02114399783140317 -0.06795201598614477
0.4481192768514869 0.031130517323652754 -0.06795201598614477
0.4895821408916042 -0.10561078055989474 -0.06795201598614477
0.7169787086738101 -0.15436635202995364 -0.06795201598614477
0.523703760347504 -0.20543957261668286 -0.06795201598614477
0.5253054864386061 0.13068022074335497 -0.06795201598614477
0.8212122474811286 -0.01755224841499241 -0.06795201598614477
0.5811717510100722 -0.2136908888435718 -0.06795201598614477
0.640836047903621 0.055823794561474974 -0.06795201598614477
0.7902698116302951 0.010477958179292344 -0.06795201598614477
0.7523744284294501 0.07849064560828178 -0.0663745584721807
0.6121748583037508 -0.15072606545926734 -0.0663745584721807
0.4248821142419393 -0.11683499748617755 -0.0663745584721807
0.40156001161240873 -0.08817380788630726 -0.06552515827235389
0.4449522275349898 -0.11002766159899421 -0.06552515827235389
0.47434147444899744 0.05130983921382393 -0.06552515827235389
0.6022247416772082 -0.1215795043166388 -0.06552515827235389
0.5483606347196195 -0.21040249664138513 -0.06552515827235389
0.5736606263858894 0.13063168358907892 -0.06552515827235389
0.5708940085921679 -0.21361808311215805 -0.06552515827235389
0.6269665560693062 -0.17709387451960534 -0.06552515827235389
0.6276096733634607 0.05884523241514457 -0.06552515827235389
0.6413335537349484 -0.13513350464816076 -0.06552515827235389
0.8003170025653891 0.03467372958578747 -0.06394770075838978
0.8322908529445842 -0.1328158555314906 -0.06394770075838978
0.4007712828554267 0.042985717255521104 -0.06394770075838978
0.6385790702297958 -0.17660850297684708 -0.06309830055856297
0.5377916693760602 -0.20829113043038713 -0.06309830055856297
0.5564906080608188 0.13188151531168132 -0.06309830055856297
0.5219442885050056 -0.2124531914095384 -0.06309830055856297
0.6280465077519432 -0.13242755829728395 -0.06309830055856297
0.6293812794945282 0.05896657530083417 -0.06309830055856297
0.7426791318628555 -0.1339200757912654 -0.06309830055856297
0.40653506992568017 -0.08817380788630726 -0.06309830055856297
0.44146968671569986 -0.10555010911705003 -0.06309830055856297
0.45078882033665685 0.02645881622460524 -0.06309830055856297
0.5765728556424384 0.15485172357271207 -0.06152084304459891
0.5933545767333025 -0.036930707259612734 -0.06152084304459891
0.86425256903521 -0.05291156530492563 -0.06152084304459891
0.6395619476038809 0.05457396283887273 -0.06067144284477209
0.5789875790676603 -0.20761161027052555 -0.06067144284477209
0.5469287886684828 0.133835135771283 -0.06067144284477209
0.8312715727047919 -0.04663813811477624 -0.06067144284477209
0.6526912478354895 -0.19807405945532752 -0.06067144284477209
0.6528368592983169 0.06348053064848522 -0.06067144284477209
0.31339227087038596 0.011667118459049865 -0.06067144284477209
0.47312804559210203 -0.1144445426380935 -0.06067144284477209
0.43194427018907067 -0.102601476994794 -0.06067144284477209
0.5905272874967361 0.15485172357271207 -0.05909398533080803
0.7843361445200763 -0.1807705639559985 -0.05909398533080803
0.47031289064410464 0.05896657530083417 -0.05909398533080803
0.6412000765606897 0.054464754241752136 -0.058244585130981213
0.5526319042958914 -0.21132470257262576 -0.058244585130981213
0.6125267526722505 0.12586290818147983 -0.058244585130981213
0.5431550249235381 0.12886007745801173 -0.058244585130981213
0.7375584620867568 0.08214306646753708 -0.058244585130981213
0.7780384487527888 -0.10531955763423982 -0.058244585130981213
0.40653506992568017 0.013948364710013154 -0.058244585130981213
0.31780915190948544 -0.09653433271031678 -0.058244585130981213
0.47424440014044583 0.05155252498520297 -0.058244585130981213
0.7363935703841371 0.09353716343378538 -0.05666712761701715
0.5605919975971255 -0.151878822873318 -0.05666712761701715
0.4007712828554267 -0.1328158555314906 -0.05666712761701715
0.6443185887229109 -0.13078942934047522 -0.055817727417190335
0.595575151541421 -0.12181005579944883 -0.055817727417190335
0.6265175873922548 -0.19118178354816126 -0.055817727417190335
0.5994823924606244 -0.13193005246595685 -0.055817727417190335
0.6009021042231921 0.03632399283116522 -0.055817727417190335
0.6453257346741341 -0.12592357962432435 -0.055817727417190335
0.4084644218081438 0.023279632619539175 -0.055817727417190335
0.46320219754269737 0.039527445013369134 -0.055817727417190335
0.4527545750848275 0.02892207680410302 -0.055817727417190335
0.8482717109898968 -0.08179117209903711 -0.05424026990322627
0.5765728556424384 0.0110118668763263 -0.05424026990322627
0.8185548382845277 -0.0647424966596563 -0.05339086970339946
0.5836228773010009 -0.21183434269252185 -0.05339086970339946
0.6288716393746321 0.12252597882501728 -0.05339086970339946
0.658236617711502 0.1195652124141924 -0.05339086970339946
0.7606014760792013 0.06651410279072383 -0.05339086970339946
0.6502643901216988 -0.16010587052306907 -0.05339086970339946
0.6498154214446473 0.09353716343378538 -0.05339086970339946
0.4405474807844594 0.030014162775308963 -0.05339086970339946
0.441688103909941 0.03304773491754757 -0.05339086970339946
0.4505340002767088 0.02670150199598428 -0.05339086970339946
0.8962142851258361 -0.0688924233502387 -0.05181341218943535
0.5765728556424384 -0.004968991168986767 -0.05181341218943535
0.8190159412501481 -0.06598019409368952 -0.05096401198960854
0.5906607646709945 -0.20727185019059494 -0.05096401198960854
0.5923352964935104 0.1318572467345433 -0.05096401198960854
0.5818391368813648 0.14265676356091292 -0.05096401198960854
0.7344520842131044 0.08675409612373972 -0.05096401198960854
0.7547042118346895 0.055374825884423585 -0.05096401198960854
0.6587826606971048 -0.1777976632566046 -0.05096401198960854
0.3210368726688272 -0.08817380788630726 -0.05096401198960854
0.3637859712972536 -0.09743227006441937 -0.05096401198960854
0.4446610046093349 0.04769382122027548 -0.05096401198960854
0.7523744284294501 0.09092829139146014 -0.049386554475644474
0.586013332149085 -0.1647775716221166 -0.049386554475644474
0.492045401471102 -0.13598290484798767 -0.049386554475644474
0.6463571492024954 -0.18612178521490744 -0.048537154275817666
0.6069085770648245 0.03500135537714925 -0.048537154275817666
0.6410908679635692 0.0546589028588553 -0.048537154275817666
0.6197345200822093 0.11641029738626436 -0.048537154275817666
0.6662816510327185 -0.16698601214166614 -0.048537154275817666
0.6764137819877956 -0.14180736336108585 -0.048537154275817666
0.44450325885793845 -0.11050089885318327 -0.048537154275817666
0.4289713694896768 0.02842457097277593 -0.048537154275817666
0.4238992368678539 0.01985776324309407 -0.048537154275817666
0.880233427080523 -0.08487328139555159 -0.0469596967618536
0.5446111395518125 0.07801740835409254 -0.0469596967618536
0.8280923890997259 -0.056466911855629354 -0.04611029656202679
0.5915465677365283 0.13567954763376391 -0.04611029656202679
0.8232629422492821 -0.0720837412438736 -0.04611029656202679
0.7954996900035142 -0.11263653364131927 -0.04611029656202679
0.6516598333071286 -0.18641300814056216 -0.04611029656202679
0.6429959512688952 0.04428408613239922 -0.04611029656202679
0.7726022874738973 -0.11721116043181522 -0.04611029656202679
0.41774715256339395 0.023510184102349375 -0.04611029656202679
0.3168141402468311 0.022357426688298716 -0.04611029656202679
0.3012701165900005 -0.09962857629540027 -0.04611029656202679
0.4007712828554267 0.05896657530083417 -0.044532839048062725
0.5989120808978836 -0.1647775716221166 -0.044532839048062725
0.6564892801575725 0.13694151364493534 -0.044532839048062725
0.6526063078155068 -0.18629166525487273 -0.04368343884823591
0.606253325482101 0.1308379664947511 -0.04368343884823591
0.5993125124206591 0.13792439101902051 -0.04368343884823591
0.8270973774370717 0.0021659705095585335 -0.04368343884823591
0.6436269342744807 0.0455703207207085 -0.04368343884823591
0.6879777589940091 -0.061126478666107854 -0.04368343884823591
0.7954632871378076 0.02065862628864509 -0.04368343884823591
0.4416152981785273 -0.10797696683084078 -0.04368343884823591
0.4733828656520501 0.04618916943772519 -0.04368343884823591
0.4878226690491058 -0.12827763160670155 -0.04368343884823591
0.4007712828554267 -0.11683499748617755 -0.04210598133427185
0.5863166893633089 -0.04906499582856716 -0.04210598133427185
0.8199745500470952 -0.10085413944086466 -0.04210598133427185
0.6562951315404689 0.11278214510414708 -0.04125658113444503
0.6121748583037508 -0.20398345798840828 -0.04125658113444503
0.6479831438707351 -0.18799046565452637 -0.04125658113444503
0.5985237836636771 -0.03644533571685448 -0.04125658113444503
0.6506284187787674 0.10511327472856782 -0.04125658113444503
0.6818135404009802 -0.16701028071880417 -0.04125658113444503
0.6815587203410323 -0.04172375124434968 -0.04125658113444503
0.7008279705885319 -0.08935083387749577 -0.04125658113444503
0.41454370038119004 0.01980922608881819 -0.04125658113444503
0.4287893551611424 0.02842457097277593 -0.04125658113444503
0.45236627785062106 -0.1035115486374656 -0.04125658113444503
0.42381429684787114 -0.11479643700659331 -0.03967912362048093
0.5810746767015207 -0.05291156530492563 -0.03967912362048093
0.8482717109898968 -0.10393624873737897 -0.03967912362048093
0.41352442014139784 -0.08588042734677478 -0.03882972342065411
0.40653506992568017 0.02348591552521135 -0.03882972342065411
0.47624655775432323 -0.1221983530336555 -0.03882972342065411
0.6427653997860849 -0.12370300481620579 -0.03882972342065411
0.5938520825646296 -0.039236222087714046 -0.03882972342065411
0.6813403031467912 -0.1836706589239785 -0.03882972342065411
0.5989484837635904 0.14039978588708732 -0.03882972342065411
0.6580788719601055 0.10309898282612143 -0.03882972342065411
0.7316005263994003 -0.14943983087095808 -0.03882972342065411
0.8036417976332826 0.013462993167255072 -0.03882972342065411
0.5925537136877514 0.029540925521119723 -0.03725226590669005
0.6375476557014345 -0.1647775716221166 -0.03725226590669005
0.7204127123388243 0.138870865527399 -0.03725226590669005
0.428668012275453 0.023607258410900955 -0.036402865706863234
0.47566411190301355 0.04111703681590217 -0.036402865706863234
0.4506310745852605 -0.10281989418903517 -0.036402865706863234
0.6072968742990311 -0.01330524741585843 -0.036402865706863234
0.616397590725747 0.007929757579811817 -0.036402865706863234
0.6767778106448642 -0.1768511887482261 -0.036402865706863234
0.6452407946541514 -0.20185995748884128 -0.036402865706863234
0.8095147933006566 -0.10292910278615577 -0.036402865706863234
0.7070528606244055 0.058675352375179256 -0.036402865706863234
0.6964474924151391 0.12289000748208592 -0.03482540819289917
0.6973211611921039 -0.19675142200131138 -0.03482540819289917
0.4966685654158736 0.05703722341837034 -0.03482540819289917
0.35248894863955704 -0.08817380788630726 -0.03397600799307236
0.30950929852832043 0.013645007495789396 -0.03397600799307236
0.4739531772147909 0.052365522319323 -0.03397600799307236
0.42303770237945815 0.020124717591610962 -0.03397600799307236
0.6014238786316571 0.05350614544480465 -0.03397600799307236
0.6123326040551471 -0.20535463259670012 -0.03397600799307236
0.6022004731000703 0.1341020901197999 -0.03397600799307236
0.6067508313134282 0.14266889784948195 -0.03397600799307236
0.7183377489935329 -0.1388101940845541 -0.03397600799307236
0.7807322608150968 0.04065593385028194 -0.03397600799307236
0.8482717109898968 -0.11683499748617755 -0.0323985504791083
0.5823366427126919 -0.0688924233502387 -0.0323985504791083
