0.31534559661944506 -0.2587187317624021 -0.251493773481827
0.6953207028580977 0.28645203516231865 -0.251493773481827
0.4309825590996926 0.30297160123092515 -0.251493773481827
0.7016174546929045 0.043801309575987095 -0.24961227392959393
0.5660867702803788 -0.27320627831459715 -0.24961227392959393
0.4690766533672392 0.08256020035198941 -0.24961227392959393
0.843996797475559 -0.09352307107633415 -0.24898510741218285
0.31534559661944506 0.1377759405448574 -0.24898510741218285
0.3814238608938721 -0.04395182954016557 -0.24898510741218285
0.7779185332011318 0.10472426507729551 -0.24898510741218285
0.4879292788806151 -0.3180988576308793 -0.24710360785994973
0.4703435297324095 0.13224433186129197 -0.24710360785994973
0.6680389593507174 -0.30958193632443737 -0.24710360785994973
0.490199621673643 -0.31439857517815417 -0.24710360785994973
0.5961907631161086 0.36906240883570063 -0.2464764413425387
0.4144629930310857 -0.3248095393671776 -0.2464764413425387
0.6457494613219291 0.37223587141380066 -0.2464764413425387
0.5961907631161086 0.2534129030251049 -0.2464764413425387
0.6785126401914818 -0.3118146491264208 -0.24459494179030558
0.6716138084999603 0.11406904618672006 -0.24459494179030558
0.5597649317848755 0.21959608440630163 -0.24459494179030558
0.843996797475559 0.08820469900868881 -0.2439677752728945
0.31534559661944506 -0.04395182954016557 -0.2439677752728945
0.3649042948252654 0.1523011170880971 -0.2439677752728945
0.7613989671325249 -0.06047139560877227 -0.2439677752728945
0.5866703753818092 0.2318132881654689 -0.2420862757206614
0.7113761657038203 0.0472381820913996 -0.2420862757206614
0.6309357881806804 0.18949209157057162 -0.2420862757206614
0.5660365969589859 -0.3082021699861331 -0.2420862757206614
0.6127103291847155 0.4052750035510141 -0.2402047761684283
0.7283598349953113 -0.3578486715043912 -0.2402047761684283
0.6292298952533222 0.33602327669848725 -0.2402047761684283
0.5631516309788952 0.26335976399124406 -0.2402047761684283
0.44459207252751204 0.02393267430440548 -0.23957760965101726
0.7027839844152891 0.09884144314398004 -0.23957760965101726
0.49184279794925995 0.1526147003468027 -0.23957760965101726
0.6613659076054641 -0.31878874080003156 -0.23957760965101726
0.453736160351365 0.07633870849927195 -0.23706894358137312
0.7137593984699823 0.05654533320977949 -0.23706894358137312
0.5348413343829608 0.2092478368690196 -0.23706894358137312
0.5523267368883805 -0.31719573784580757 -0.23706894358137312
0.5631516309788952 0.26795062289869304 -0.23644177706396208
0.6457494613219291 0.37223587141380066 -0.23644177706396208
0.4144629930310857 -0.3248095393671776 -0.23644177706396208
0.5961907631161086 0.36906240883570063 -0.23644177706396208
0.7015421947108151 0.07878465791717493 -0.23456027751172892
0.4724382659005622 -0.3217615100925598 -0.23456027751172892
0.5617467779798944 -0.2973145592438775 -0.23456027751172892
0.5285947558695467 0.20543466444316044 -0.23456027751172892
0.45726083617921515 0.30297160123092515 -0.23270386462019224
0.5135929327730747 0.33602327669848725 -0.23270386462019224
0.4475021251682993 -0.2917578638996157 -0.23270386462019224
0.843996797475559 0.3194911672995321 -0.23270386462019224
0.5750928814704014 -0.3301404547651714 -0.23205161144208478
0.7137092251485895 0.04242154323768281 -0.23205161144208478
0.7138095717913752 0.07655194511519166 -0.23205161144208478
0.5519880669689787 -0.309895519583143 -0.23205161144208478
0.5323326683133166 0.20818165378942075 -0.23205161144208478
0.6855243618561372 0.10410964189023279 -0.23205161144208478
0.560191405016715 -0.2990957121533248 -0.2295429453724406
0.5821798631171461 -0.330742534621886 -0.2295429453724406
0.4778946146020383 -0.3187260241482905 -0.2295429453724406
0.6900148741208003 0.11354222631209478 -0.2295429453724406
0.744879401063918 -0.10685663123649289 -0.22896595217642246
0.397943426962479 0.17081507268207097 -0.22896595217642246
0.34838472875665866 -0.09352307107633415 -0.22896595217642246
0.8109576653383452 0.1377759405448574 -0.22896595217642246
0.7048787205834419 0.0868374760007328 -0.22703427930279646
0.547572814686405 0.24192321242613465 -0.22703427930279646
0.4972489733293431 0.20175946865113167 -0.22703427930279646
0.5324204716257542 0.21425262567795972 -0.22703427930279646
0.44733906187377254 -0.2732564516359901 -0.22524058306300088
0.7283598349953113 0.30297160123092515 -0.22524058306300088
0.843996797475559 -0.20916003355658164 -0.22524058306300088
0.31534559661944506 0.2534129030251049 -0.22524058306300088
0.5824683597151552 -0.29590970624487684 -0.22452561323315232
0.719077770537628 0.034945718350143345 -0.22452561323315232
0.7209592700898609 0.06506225451622144 -0.22452561323315232
0.578191084066412 0.24784366435049499 -0.22452561323315232
0.5773883109241257 0.24326534877339429 -0.22452561323315232
0.7019686679426548 0.10907680070812824 -0.22201694716350812
0.6327796577418687 0.2259806395535462 -0.22201694716350812
0.4304682825554155 0.057962729539128434 -0.22201694716350812
0.5785799273072066 0.2505404803753625 -0.22201694716350812
0.31534559661944506 -0.24219916569379524 -0.2215026706192311
0.6953207028580977 0.26993246909371177 -0.2215026706192311
0.843996797475559 -0.19264046748797492 -0.2215026706192311
0.31534559661944506 0.23689333695649833 -0.2215026706192311
0.5856543656236033 -0.29360173346080426 -0.21950828109386397
0.6168747148603247 0.23617836712664955 -0.21950828109386397
0.43223689213451455 0.04239645657698643 -0.21950828109386397
0.47272676249857143 -0.32189948672639035 -0.21950828109386397
0.7054933437705049 0.0868625626614292 -0.21950828109386397
0.6336827775269407 -0.20863321368195653 -0.21950828109386397
0.3649042948252654 0.03864600080286833 -0.2177647581754613
0.7779185332011318 0.022126434734261617 -0.2177647581754613
0.8109576653383452 0.08820469900868881 -0.2177647581754613
0.34838472875665866 -0.04395182954016557 -0.2177647581754613
0.5725716720704089 -0.3285725384716438 -0.21699961502421983
0.6443571516532766 -0.3383061628218631 -0.21699961502421983
0.662670413961679 0.2072409040133043 -0.21699961502421983
0.5632896076127256 0.25383937625694464 -0.21699961502421983
0.5166535053780406 -0.2054346644431601 -0.21699961502421983
0.5950869500454653 -0.08721377591117908 -0.21699961502421983
0.5702511559559881 -0.28904850454440006 -0.21449094895457566
0.48993621173633034 -0.33331391734327126 -0.21449094895457566
0.44293635292154704 0.11316592640164813 -0.21449094895457566
0.6007941653539057 0.26584334340019183 -0.21449094895457566
0.469528213259775 -0.32054480704878247 -0.21449094895457566
0.7002627750152968 -0.15750659918260845 -0.21449094895457566
0.640970452459257 -0.13692299408117822 -0.21449094895457566
0.3649042948252654 0.10472426507729551 -0.21402684573169145
0.7779185332011318 -0.04395182954016557 -0.21402684573169145
0.8109576653383452 0.15429550661346428 -0.21402684573169145
0.34838472875665866 -0.11004263714494103 -0.21402684573169145
0.5770245543440273 -0.2887349212856945 -0.2119822828849315
0.4871515923990252 -0.3339159971999859 -0.2119822828849315
0.5149601557810307 0.23151224823711158 -0.2119822828849315
0.695734632759589 -0.3344302737442629 -0.2119822828849315
0.5598903650883578 -0.3438252281750802 -0.2119822828849315
0.5777144375131794 -0.09219347805942281 -0.2119822828849315
0.6310737648145107 0.2253660163664833 -0.2119822828849315
0.4500609645593364 -0.34132910543578426 -0.21030147661826992
0.5466320649102884 0.4052750035510141 -0.21030147661826992
0.4144629930310857 -0.20916003355658164 -0.21030147661826992
0.7118402689267046 0.23689333695649833 -0.21030147661826992
0.5918758574763208 -0.32961363489054607 -0.2094736168152873
0.43216163215242526 0.055027590237644836 -0.2094736168152873
0.6716765251517014 0.1971309797526382 -0.2094736168152873
0.6374206899707104 -0.3461206576288047 -0.2094736168152873
0.5338002379640585 -0.34481615127258974 -0.2094736168152873
0.5473470347401369 0.25071608700023734 -0.2094736168152873
0.7076758832510952 0.08195812049527479 -0.2094736168152873
0.5965545196962072 -0.09194261145245827 -0.2094736168152873
0.5228122805790171 -0.10429779184545575 -0.20696495074564317
0.5604924449450723 0.2669722431315318 -0.20696495074564317
0.6969513358033663 0.1598145719666814 -0.20696495074564317
0.6670731229139045 -0.34568164106661686 -0.20696495074564317
0.5963412830802873 -0.34579453103975083 -0.20696495074564317
0.4331400119195865 0.02970260626458697 -0.20696495074564317
0.31534559661944506 -0.24219916569379524 -0.2065635641745001
0.6953207028580977 0.26993246909371177 -0.2065635641745001
0.8109576653383452 -0.20916003355658164 -0.2065635641745001
0.34838472875665866 0.2534129030251049 -0.2065635641745001
0.640067332674185 -0.0994435230006943 -0.20445628467599902
0.5925782839758211 -0.3170828478726736 -0.20445628467599902
0.49452707064377915 0.21069031985906475 -0.20445628467599902
0.7208714667774235 0.10299328548924115 -0.20445628467599902
0.6106657663379556 -0.3466349341730817 -0.20445628467599902
0.4873899156756415 -0.3466600208337781 -0.20445628467599902
0.5937573570285539 0.26085109792160005 -0.20445628467599902
0.4609360319712439 -0.2348111441186932 -0.20445628467599902
0.6234474199627924 -0.10971651055588716 -0.20282565173073033
0.843996797475559 0.33602327669848725 -0.20282565173073033
0.31534559661944506 -0.20916003355658164 -0.20282565173073033
0.843996797475559 0.2534129030251049 -0.20282565173073033
0.512978309586012 -0.1951867635486638 -0.20194761860635485
0.561834581292332 -0.3203064837721662 -0.20194761860635485
0.5350545709988805 -0.33854448609847937 -0.20194761860635485
0.506330344501455 0.23415889094058598 -0.20194761860635485
0.7374035761763783 0.008328771351218808 -0.20194761860635485
0.5840613626693791 -0.34766348726163576 -0.20194761860635485
0.6288410520125275 -0.3338783672089412 -0.20194761860635485
0.7207585768042896 -0.2587187317624021 -0.19943895253671068
0.4475021251682993 0.3194911672995321 -0.19943895253671068
0.34838472875665866 -0.11004263714494103 -0.19943895253671068
0.8109576653383452 0.15429550661346428 -0.19943895253671068
0.6324284444921187 -0.20148351538347056 -0.19943895253671068
0.5549357496008106 -0.3057813072289265 -0.19943895253671068
0.555023552913248 -0.3386322894109168 -0.19943895253671068
0.4701679231075343 -0.3435743615681158 -0.19943895253671068
0.5712797090445423 0.29264844035433973 -0.19943895253671068
0.6611903009805888 0.1975574529844776 -0.19943895253671068
0.4372918542648476 0.09446382085245092 -0.19943895253671068
0.5737758317838382 -0.33961066917807803 -0.19693028646706653
0.6709866419825493 0.2048827579078386 -0.19693028646706653
0.7018056046481278 0.16484444743631788 -0.19693028646706653
0.7342552002589751 0.08722631924152754 -0.19693028646706653
0.604444274485238 -0.32877323175721523 -0.19693028646706653
0.5919511174584101 0.272328245190222 -0.19693028646706653
0.744879401063918 -0.20916003355658164 -0.19593936336955708
0.4475021251682993 0.26993246909371177 -0.19593936336955708
0.31534559661944506 -0.06047139560877227 -0.19593936336955708
0.843996797475559 0.10472426507729551 -0.19593936336955708
0.5215955775352397 -0.09802612667134535 -0.19442162039742236
0.5702386126256399 -0.2949187831473673 -0.19442162039742236
0.501112319076595 -0.34178066532832024 -0.19442162039742236
0.4169967457614264 0.018488868933277506 -0.19442162039742236
0.4797510274935751 0.21959608440630163 -0.19442162039742236
0.4348082748558998 -0.02881202980986314 -0.19442162039742236
0.5906089811111505 -0.29411601000508125 -0.19442162039742236
0.45527898998419625 -0.2291415588012974 -0.19442162039742236
0.7613989671325249 0.08820469900868881 -0.1925024908541446
0.397943426962479 -0.010912697402951975 -0.1925024908541446
0.34838472875665866 0.23689333695649833 -0.1925024908541446
0.8109576653383452 -0.19264046748797492 -0.1925024908541446
0.5586862053749285 -0.32945057159601915 -0.19191295432777822
0.6825892225546536 0.19432127375463687 -0.19191295432777822
0.640518892566721 0.2520080500261042 -0.19191295432777822
0.6374457766314069 0.26139046112657327 -0.19191295432777822
0.45889146912448375 0.16445560419552296 -0.19191295432777822
0.7154276614062955 -0.12332602398370683 -0.19191295432777822
0.42566418703204684 0.04874338173318615 -0.19191295432777822
0.5370615038545958 -0.33729015306365717 -0.19191295432777822
0.5572562657152312 -0.3161170114358604 -0.18940428825813407
0.7305925477972945 0.07600003857986998 -0.18940428825813407
0.6052721342882206 0.28311550928969165 -0.18940428825813407
0.4254258637554308 0.12501937358071688 -0.18940428825813407
0.4261032035942347 -0.017686095790991285 -0.18940428825813407
0.44888189150660357 -0.2343846708868538 -0.18940428825813407
0.5117992365332792 0.23936437303509753 -0.18940428825813407
0.7159168512898761 -0.13919333687420615 -0.18940428825813407
0.7283598349953113 -0.3578486715043912 -0.1890656183387321
0.7118402689267046 0.23689333695649833 -0.1890656183387321
0.397943426962479 -0.19264046748797492 -0.1890656183387321
0.6127103291847155 0.4186211070415213 -0.1890656183387321
0.6399168127100064 -0.20036715898247895 -0.1868956221884899
0.561671517997805 -0.3241949161801147 -0.1868956221884899
0.5792321804853142 -0.2962609194946269 -0.1868956221884899
0.7369143862927979 0.10106161261561519 -0.1868956221884899
0.45293338720907894 -0.283817935789192 -0.1868956221884899
0.7029721343705124 -0.26619455664994174 -0.1868956221884899
0.5171050652705765 -0.0738174990992793 -0.1868956221884899
0.7171335543336537 -0.13243248181651512 -0.1868956221884899
0.582744312982816 0.11296523311607672 -0.1868956221884899
0.7779185332011318 0.03864600080286833 -0.1856287458233196
0.3649042948252654 0.03864600080286833 -0.1856287458233196
0.31534559661944506 0.20385420481928457 -0.1856287458233196
0.843996797475559 -0.15960133535076135 -0.1856287458233196
0.5841491659818168 -0.3032475544985859 -0.18438695611884573
0.46882578676027464 0.19920062926009455 -0.18438695611884573
0.42773383653950336 0.12563399676777962 -0.18438695611884573
0.7089051296252208 -0.3407144822487216 -0.18438695611884573
0.4320612855096395 -0.09826444994796162 -0.18438695611884573
0.4446297025185567 0.14480020553986106 -0.18438695611884573
0.584500379231567 -0.06556398773015 -0.18438695611884573
0.5395827132545883 -0.3372023497512197 -0.18438695611884573
0.43697827100614206 -0.3497958534208333 -0.18217932997755887
0.843996797475559 0.35254284276709413 -0.18217932997755887
0.3714769999277331 -0.27523829783100884 -0.18217932997755887
0.8109576653383452 0.28645203516231865 -0.18217932997755887
0.7138848317734645 -0.3578486715043912 -0.18217932997755887
0.5848515924813171 -0.30426356425679185 -0.18187829004920156
0.45596887315334844 -0.341316562105436 -0.18187829004920156
0.4512149509513727 -0.3437750548536874 -0.18187829004920156
0.563201804300288 -0.08826741566042967 -0.18187829004920156
0.5321696050187896 0.10861269748524399 -0.18187829004920156
0.5094160037671173 -0.11650245227427476 -0.18187829004920156
0.6974028956959023 -0.33627414330545125 -0.18187829004920156
0.49874162964078134 -0.340977892186034 -0.18187829004920156
0.6863522216591198 -0.3341166904855573 -0.1793696239795574
0.5001841126308266 0.0955425472623979 -0.1793696239795574
0.6636738803895367 0.0950031840574245 -0.1793696239795574
0.42190118792758063 0.09531676731612991 -0.1793696239795574
0.7484542502131609 -6.6479650845549E-4 -0.1793696239795574
0.4792242076189498 0.2121077161884137 -0.1793696239795574
0.4809802738677007 0.20518379783619592 -0.1793696239795574
0.5209056943660875 -0.06552635773910533 -0.1793696239795574
0.5080613240895093 -0.07860905129229971 -0.1793696239795574
0.5277794393969125 -0.37436823757299786 -0.17874245746214637
0.8109576653383452 -0.12656220321354775 -0.17874245746214637
0.34838472875665866 0.17081507268207097 -0.17874245746214637
0.39556019419631705 0.022126434734261617 -0.17874245746214637
0.7613989671325249 0.03864600080286833 -0.17874245746214637
0.5526152334863897 -0.3378922329203718 -0.17686095790991327
0.5619976445868587 -0.3214604701642025 -0.17686095790991327
0.4712842795085259 -0.3465095008695994 -0.17686095790991327
0.7442898645375516 -0.00536854538903829 -0.17686095790991327
0.6263700159339279 0.2854611120648091 -0.17686095790991327
0.48150709374232603 0.10575281816584972 -0.17686095790991327
0.5513985304426122 0.2756020544111075 -0.17686095790991327
0.6377844465508088 -0.07300218262664497 -0.17686095790991327
0.6476435042045104 -0.07650177179379854 -0.17686095790991327
0.5667013934674415 -0.3647600465262607 -0.17623379139250223
0.6855494485168337 -0.27777205056134957 -0.17523032496464455
0.34838472875665866 -0.15960133535076135 -0.17523032496464455
0.8109576653383452 0.20385420481928457 -0.17523032496464455
0.7613989671325249 -0.07699096167737916 -0.17523032496464455
0.3649042948252654 0.15429550661346428 -0.17523032496464455
0.45974441558816276 -0.09604428047632663 -0.17523032496464455
0.657502561858212 -0.11256384654493333 -0.17523032496464455
0.6527737263169328 0.10320652210516086 -0.1743522918402691
0.5623990311580019 -0.3115010658677152 -0.1743522918402691
0.49166719132438474 0.10187692908824952 -0.1743522918402691
0.6111173262304915 0.2870917450100777 -0.1743522918402691
0.6042435811996665 0.29806715906477094 -0.1743522918402691
0.5325459049292364 0.2915697139443926 -0.1743522918402691
0.43756780753250857 0.11306557975886242 -0.1743522918402691
0.4874150023363379 0.10278004887332146 -0.1743522918402691
0.6379851398363804 -0.07311507259977897 -0.1743522918402691
0.646715297758742 -0.07764321485548654 -0.1743522918402691
0.657502561858212 -0.11004263714494103 -0.1727216588950004
0.4640216912369062 -0.11004263714494103 -0.1727216588950004
0.397943426962479 0.17081507268207097 -0.1727216588950004
0.7613989671325249 -0.11004263714494103 -0.1727216588950004
0.843996797475559 0.23689333695649833 -0.1727216588950004
0.31534559661944506 -0.19264046748797492 -0.1727216588950004
0.6854365585436998 -0.24219916569379524 -0.1727216588950004
0.6531751128880758 0.0981390166444797 -0.17184362577062492
0.7155405513794295 -0.27630448091060766 -0.17184362577062492
0.5522263902455948 -0.3460203109860188 -0.17184362577062492
0.5856919956146479 -0.35171498296411113 -0.17184362577062492
0.7146625182550542 -0.3518780462586379 -0.17184362577062492
0.7062334002610499 -0.3380929262059434 -0.17184362577062492
0.5528535567630057 0.29064150749862444 -0.17184362577062492
0.6809836762700813 0.1155115291767654 -0.17184362577062492
0.6364423102035492 -0.09492792407533482 -0.17184362577062492
0.6469285343746618 -0.07771847483757588 -0.17184362577062492
0.4475021251682993 0.05516556687147521 -0.17021299282535624
0.7628289067922222 0.022126434734261617 -0.17021299282535624
0.3921860383326456 0.05516556687147521 -0.17021299282535624
0.31534559661944506 0.10472426507729551 -0.17021299282535624
0.843996797475559 -0.06047139560877227 -0.17021299282535624
0.4367148610688294 0.10385877528326842 -0.16933495970098075
0.5911107143250793 -0.33381565055719997 -0.16933495970098075
0.4124686035057187 0.07228721279679653 -0.16933495970098075
0.7225522730440851 0.10699460787032362 -0.16933495970098075
0.5625370077918324 0.31081118269856317 -0.16933495970098075
0.490425401619911 0.2579285019504645 -0.16933495970098075
0.5405485496914012 0.2840311724051119 -0.16933495970098075
0.6288661386732238 -0.09707283356488065 -0.16933495970098075
0.6410457124413463 -0.07038062658386679 -0.16933495970098075
0.6482204974005287 -0.0767400950704148 -0.16933495970098075
0.5135929327730747 0.07168513294008191 -0.16770432675571206
0.7779185332011318 0.08820469900868881 -0.16770432675571206
0.39244944826995826 -0.010912697402951975 -0.16770432675571206
0.34838472875665866 0.20385420481928457 -0.16770432675571206
0.8109576653383452 -0.15960133535076135 -0.16770432675571206
0.47670299821895734 0.10664339462057337 -0.1668262936313366
0.49282117771642103 -0.3372274364119161 -0.1668262936313366
0.4653011109324247 -0.34701123408352835 -0.1668262936313366
0.6013084418981828 -0.3523045194904775 -0.1668262936313366
0.6389509762731934 0.27759644393647454 -0.1668262936313366
0.6790645467268036 0.24257546560424204 -0.1668262936313366
0.5550360962435963 0.2966372194050737 -0.1668262936313366
0.4792367509492979 0.21648533847994297 -0.1668262936313366
0.6578537751079623 -0.029489369648666913 -0.1668262936313366
0.6669853196014669 -0.026767466963103014 -0.1668262936313366
0.530601688725262 -0.10971651055588716 -0.1651956606860679
0.7566450449305493 -0.09749930679672024 -0.1651956606860679
0.3814238608938721 0.17081507268207097 -0.1651956606860679
0.31534559661944506 0.05516556687147521 -0.1651956606860679
0.843996797475559 -0.010912697402951975 -0.1651956606860679
0.6586440049199002 0.08676221601864348 -0.16431762756169246
0.44074127011060843 0.10355773535491111 -0.16431762756169246
0.42424679070269794 -0.11789476194292714 -0.16431762756169246
0.7154778347276886 -0.283880652440933 -0.16431762756169246
0.7442647778768554 0.09744913347532747 -0.16431762756169246
0.749018700078831 0.09845259990318511 -0.16431762756169246
0.5798844336634216 0.30408795763191715 -0.16431762756169246
0.6757656508452214 0.1168536655240252 -0.16431762756169246
0.6371321933727014 -0.096069367137023 -0.16431762756169246
0.667048036253208 -0.02683018361484424 -0.16431762756169246
0.34838472875665866 -0.17612090141936823 -0.16268699461642375
0.8109576653383452 0.22037377088789145 -0.16268699461642375
0.7118402689267046 0.03864600080286833 -0.16268699461642375
0.6953207028580977 0.28645203516231865 -0.16268699461642375
0.39137072186001126 -0.06047139560877227 -0.16268699461642375
0.7354342733117079 0.07761812819479053 -0.1618089614920483
0.678750963468098 0.09519133401264782 -0.1618089614920483
0.4212740214101697 -0.09866583651910464 -0.1618089614920483
0.7287863082271508 -0.1744777251437513 -0.1618089614920483
0.7452180709833202 0.09823936328726542 -0.1618089614920483
0.7499719931852957 0.09923028638477495 -0.1618089614920483
0.57672351441567 0.11309066641955881 -0.1618089614920483
0.7140353517376432 0.16550924394477357 -0.1618089614920483
0.656260772153738 -0.05953064583265586 -0.1618089614920483
0.6370820200513085 -0.20726599067400034 -0.1618089614920483
0.3968521572221837 -0.06861201700476759 -0.16118179497463725
0.3318651626880518 0.3557163053451938 -0.1601783285467796
0.4592803123652787 -0.24219916569379524 -0.1601783285467796
0.7779185332011318 0.10472426507729551 -0.1601783285467796
0.3928884648321459 -0.039975593819779484 -0.1601783285467796
0.5595893251600005 -0.3407897422308109 -0.15930029542240415
0.6013460718892274 -0.33930962924972075 -0.15930029542240415
0.7392349024072188 -0.0762132751957895 -0.15930029542240415
0.6321775778851543 0.2833789192270045 -0.15930029542240415
0.4994816861313263 0.10921477734195861 -0.15930029542240415
0.6279755622185003 0.293401040175233 -0.15930029542240415
0.5835470861251021 0.32935022495323363 -0.15930029542240415
0.47536086187169774 0.12439220706330588 -0.15930029542240415
0.6715009185268264 0.12006475809316972 -0.15930029542240415
0.6343224873747 -0.06605317761373063 -0.15930029542240415
0.48657459920300716 -0.021386378243716267 -0.15930029542240415
0.4748214986667243 -0.010912697402951975 -0.15766966247713543
0.7651745095673392 -0.010912697402951975 -0.15766966247713543
0.3649042948252654 0.08820469900868881 -0.15766966247713543
0.31534559661944506 0.15429550661346428 -0.15766966247713543
0.843996797475559 -0.11004263714494103 -0.15766966247713543
0.4776437479950739 0.11355476964244306 -0.15679162935275998
0.5617969513012874 -0.33111883453233265 -0.15679162935275998
0.7442522345465071 0.08868134556192116 -0.15679162935275998
0.4127069267823348 -0.05891602264559296 -0.15679162935275998
0.7087922396520868 -0.3385695727591757 -0.15679162935275998
0.7439261079574533 0.0798633843271219 -0.15679162935275998
0.7472124605086872 -0.058426832762012326 -0.15679162935275998
0.7298148613157049 0.11878533839765115 -0.15679162935275998
0.47957542086869986 0.12406608047425201 -0.15679162935275998
0.6576405384920423 -0.03251231226258812 -0.15679162935275998
0.663874573675108 -0.029828039568068888 -0.15679162935275998
0.7779185332011318 -0.027432263471558683 -0.15616446283534893
0.7613989671325249 0.1523011170880971 -0.15516099640749126
0.38509905668590083 -0.04395182954016557 -0.15516099640749126
0.34838472875665866 0.18733463875067768 -0.15516099640749126
0.8109576653383452 -0.07699096167737916 -0.15516099640749126
0.41211739025596844 0.01031061754623771 -0.1542829632831158
0.5855163889897728 -0.31265505225975154 -0.1542829632831158
0.41866500869773976 -0.12474342031305578 -0.1542829632831158
0.4474644951772546 -0.3442517014069198 -0.1542829632831158
0.7402885421564693 0.11194922335787079 -0.1542829632831158
0.7221007131515491 0.177688817712896 -0.1542829632831158
0.7224770130619959 0.18794926193774059 -0.1542829632831158
0.6783872068879997 0.1279043395608077 -0.1542829632831158
0.6845710687496724 0.22424965996549165 -0.1542829632831158
0.6451850114562592 -0.06758346391621356 -0.1542829632831158
0.64750552757068 -0.06020798567145963 -0.1542829632831158
0.5301124988416817 0.4021015409729144 -0.1526523303378471
0.7376920727743878 -0.24219916569379524 -0.1526523303378471
0.5078104574825449 0.08820469900868881 -0.1526523303378471
0.7613989671325249 0.23689333695649833 -0.1526523303378471
0.4475021251682993 0.09619480044050546 -0.1526523303378471
0.5696992494206664 -0.3546752089262913 -0.15177429721347166
0.40619693833160825 -0.03691502121481361 -0.15177429721347166
0.5386795934695163 0.3029841445612734 -0.15177429721347166
0.7424836249674078 -0.08240968038781057 -0.15177429721347166
0.4023335925843562 -0.029025266425782844 -0.15177429721347166
0.7199808903226999 0.19540000016458367 -0.15177429721347166
0.7147001482460988 0.12563399676777962 -0.15177429721347166
0.42805996312855704 0.12856913606926337 -0.15177429721347166
0.5919009441370171 -0.1019271024096421 -0.15177429721347166
0.4975123832666557 -0.05475163696998373 -0.15177429721347166
0.5056530046626511 -0.015641532944231158 -0.15177429721347166
0.31534559661944506 -0.010912697402951975 -0.15014366426820294
0.8109576653383452 0.10472426507729551 -0.15014366426820294
0.4475021251682993 -0.09352307107633415 -0.15014366426820294
0.5135929327730747 0.37223587141380066 -0.15014366426820294
0.48859407538907074 0.09366104771016488 -0.1492656311438275
0.5796837403778502 0.32794537195423296 -0.1492656311438275
0.6673114461905206 0.11667805889914998 -0.1492656311438275
0.42424679070269794 0.16589808718556848 -0.1492656311438275
0.7356976832490204 0.1644054308741302 -0.1492656311438275
0.6767064006213381 0.12752803965036108 -0.1492656311438275
0.62614423598766 0.29101780740907107 -0.1492656311438275
0.5240917002745356 -0.10229085898974047 -0.1492656311438275
0.5047247982168828 -0.06652982416696297 -0.1492656311438275
0.6653295999955017 -0.07533524207141395 -0.1492656311438275
0.7722614912140843 0.005606868665654911 -0.14863846462641647
0.31534559661944506 -0.17612090141936823 -0.1476349981985588
0.843996797475559 -0.027432263471558683 -0.1476349981985588
0.6568628520104527 -0.09352307107633415 -0.1476349981985588
0.3814238608938721 0.22037377088789145 -0.1476349981985588
0.5640171207729223 -0.3250854926348383 -0.14675696507418334
0.6312368281090377 -0.1951867635486638 -0.14675696507418334
0.4975374699273521 -0.06657999748835591 -0.14675696507418334
0.6660320264950021 -0.07335339587639506 -0.14675696507418334
0.4038638788868391 0.0026842726945194126 -0.14675696507418334
0.4119543269614417 0.11365511628522876 -0.14675696507418334
0.7375917261316018 -0.14155148297967168 -0.14675696507418334
0.4983904163910311 0.1047368084076438 -0.14675696507418334
0.39076864200329664 -0.013070150222845916 -0.14675696507418334
0.48407847646371127 0.24963736059029057 -0.14675696507418334
0.7779185332011318 -0.010912697402951975 -0.1461297985567723
0.7779185332011318 0.17081507268207097 -0.14512633212891463
0.3814238608938721 0.023242791135253252 -0.14512633212891463
0.31534559661944506 0.05516556687147521 -0.14512633212891463
0.8109576653383452 -0.17612090141936823 -0.14512633212891463
0.40661086823309955 -0.05139002443666055 -0.14424829900453917
0.5723960654455339 0.330893054586065 -0.14424829900453917
0.7497838432300725 0.07253807940376109 -0.14424829900453917
0.41113901048880713 -0.1101806137787714 -0.14424829900453917
0.5682316797699245 0.3398615357850426 -0.14424829900453917
0.6744736878193548 0.13267080509313156 -0.14424829900453917
0.49033759830747337 0.1206292079588395 -0.14424829900453917
0.6579415784203997 -0.0328509821819901 -0.14424829900453917
0.6375962965955855 -0.20998789335956425 -0.14424829900453917
0.5640171207729223 -0.3258255491253833 -0.14424829900453917
0.6457494613219291 0.022126434734261617 -0.14261766605927048
0.5135929327730747 0.37223587141380066 -0.14261766605927048
0.4640216912369062 -0.11004263714494103 -0.14261766605927048
0.843996797475559 -0.24219916569379524 -0.14261766605927048
0.4092700542669224 -0.061048388804790514 -0.141739632934895
0.743110791484819 0.11966337152202652 -0.141739632934895
0.7485295101952502 -0.040314263739181455 -0.141739632934895
0.7239320393823894 0.18663221225117754 -0.141739632934895
0.7373157728639411 0.08843047895495679 -0.141739632934895
0.4776688346557703 0.09747422013602403 -0.141739632934895
0.4787977343871102 0.14072362317668927 -0.141739632934895
0.6288661386732238 -0.19755745298447744 -0.141739632934895
0.5050509248059364 -0.06661762747940059 -0.141739632934895
0.647329920945805 -0.20879627697648329 -0.141739632934895
0.7779185332011318 0.03864600080286833 -0.14111246641748396
0.7613989671325249 0.1523011170880971 -0.1401089999896263
0.37861415489587075 0.03919790733819018 -0.1401089999896263
0.31534559661944506 0.08820469900868881 -0.1401089999896263
0.843996797475559 0.15429550661346428 -0.1401089999896263
0.40181931604007914 0.06570196436398072 -0.13923096686525085
0.48859407538907074 0.10108669927631157 -0.13923096686525085
0.7316461875465451 0.12203406095784033 -0.13923096686525085
0.48095518720700414 0.12284937743047467 -0.13923096686525085
0.3927003148769226 0.08232187707537332 -0.13923096686525085
0.4259150536390114 0.13753761726824112 -0.13923096686525085
0.6591959114552218 0.26777501627381783 -0.13923096686525085
0.6396784894333903 -0.08128078065647067 -0.13923096686525085
0.6437676151269102 -0.1951867635486638 -0.13923096686525085
0.570012832679372 -0.35023486998302117 -0.13923096686525085
0.7118402689267046 0.005606868665654911 -0.13760033391998214
0.4475021251682993 0.3194911672995321 -0.13760033391998214
0.47931201093138726 -0.06047139560877227 -0.13760033391998214
0.34838472875665866 -0.17612090141936823 -0.13760033391998214
0.4080784378838413 -0.05758642962868162 -0.13672230079560668
0.7437630446629263 0.12431694708121654 -0.13672230079560668
0.7591537110001934 0.028071973319318325 -0.13672230079560668
0.6521340164691735 0.28936208780310585 -0.13672230079560668
0.7530451091206098 -0.07063149319083116 -0.13672230079560668
0.5012377523800773 0.101400282535017 -0.13672230079560668
0.6409453657985607 0.28769382486679235 -0.13672230079560668
0.5251829700148308 -0.1019271024096421 -0.13672230079560668
0.515875818896451 -0.2042681347207757 -0.13672230079560668
0.48756552230051653 -0.02790891002479121 -0.13672230079560668
0.5970311662494395 -0.3364121199392818 -0.13672230079560668
0.7760997503006396 0.05991948907345095 -0.135091667850338
0.389990955521707 0.1377759405448574 -0.135091667850338
0.31534559661944506 0.33602327669848725 -0.135091667850338
0.843996797475559 -0.09352307107633415 -0.135091667850338
0.4018318593704274 -0.006961548343262452 -0.13421363472596254
0.4098470474629405 0.12466816033096663 -0.13421363472596254
0.7530576524509581 0.07295200930525239 -0.13421363472596254
0.4008283929425698 -0.04598384905657742 -0.13421363472596254
0.5450014319650197 0.3322853642547174 -0.13421363472596254
0.4829997500537643 0.14400997572792312 -0.13421363472596254
0.680343966422322 0.14210338951499354 -0.13421363472596254
0.640117505995578 -0.066931210738106 -0.13421363472596254
0.6417857689318913 -0.20924783686901924 -0.13421363472596254
0.5884264416305599 -0.3203190271025145 -0.13421363472596254
0.6457494613219291 0.07168513294008191 -0.13258300178069382
0.397943426962479 0.2534129030251049 -0.13258300178069382
0.47917403429755684 -0.06047139560877227 -0.13258300178069382
0.34838472875665866 -0.17612090141936823 -0.13258300178069382
0.40278515247689217 -0.024221170902414154 -0.13170496865631837
0.742533798288801 0.12406608047425201 -0.13170496865631837
0.7568959115375135 0.053045744042625936 -0.13170496865631837
0.5847136158474867 0.343461471594982 -0.13170496865631837
0.7688246186986718 0.01598020286363349 -0.13170496865631837
0.4997325527382907 0.1013751958743206 -0.13170496865631837
0.5763597578355717 0.33612362334127277 -0.13170496865631837
0.6512183533537533 -0.06512497116796231 -0.13170496865631837
0.6407070425219443 -0.10429779184545575 -0.13170496865631837
0.6684905192432534 -0.03382936194915136 -0.13170496865631837
0.6659818531736093 -0.08521938638581208 -0.13007433571104968
0.7283598349953113 0.28645203516231865 -0.13007433571104968
0.4674961937433633 0.07865922461369283 -0.13007433571104968
0.31534559661944506 0.022126434734261617 -0.13007433571104968
0.843996797475559 0.22037377088789145 -0.13007433571104968
0.6675748561278333 0.12559636677673494 -0.12919630258667422
0.7548764353514499 0.009821427662657081 -0.12919630258667422
0.7608345172668551 0.0695903967719292 -0.12919630258667422
0.725725735622185 0.1278290795787184 -0.12919630258667422
0.41072508058731605 0.07621327519578969 -0.12919630258667422
0.49191805793134924 0.11294014645538016 -0.12919630258667422
0.6302960783329211 -0.10240374896287446 -0.12919630258667422
0.635514103757781 -0.20619980759440165 -0.12919630258667422
0.6503904935507708 -0.2026876750968998 -0.12919630258667422
0.6586189182592036 -0.11004263714494103 -0.1275656696414055
0.7118402689267046 0.2534129030251049 -0.1275656696414055
0.4668941138866487 0.08820469900868881 -0.1275656696414055
0.31534559661944506 0.022126434734261617 -0.1275656696414055
0.843996797475559 0.22037377088789145 -0.1275656696414055
0.6669727762711186 0.11342933633896078 -0.12668763651703005
0.671601265169612 0.13664704081351747 -0.12668763651703005
0.7432111381276049 0.1544711132383393 -0.12668763651703005
0.7403136288171656 0.10025883947332898 -0.12668763651703005
0.4236321675156352 0.12741514967722709 -0.12668763651703005
0.7152771414421171 0.19735675969890618 -0.12668763651703005
0.5251829700148308 -0.1019271024096421 -0.12668763651703005
0.6288661386732238 -0.2072283606829557 -0.12668763651703005
0.6456491146791434 -0.21363800249089662 -0.12668763651703005
0.6787885934591427 -0.06047139560877227 -0.12505700357176133
0.6292298952533222 0.33602327669848725 -0.12505700357176133
0.4475021251682993 -0.010912697402951975 -0.12505700357176133
0.31534559661944506 -0.11004263714494103 -0.12505700357176133
0.8274772314069521 0.36906240883570063 -0.12505700357176133
0.7384446725952807 0.15543694967515229 -0.12417897044738589
0.7574729047335319 0.07539795872315536 -0.12417897044738589
0.5753813780684104 0.35029758663476257 -0.12417897044738589
0.7736788875434332 0.07677772506145963 -0.12417897044738589
0.6545172492353354 0.1019898190613835 -0.12417897044738589
0.4313588590101392 0.14910256784930084 -0.12417897044738589
0.5206799144198194 -0.20597402764813366 -0.12417897044738589
0.6404561759149799 -0.19893721932278172 -0.12417897044738589
0.6532629162005135 -0.07768084484653122 -0.12417897044738589
0.6833794523665915 0.07581188862464666 -0.12254833750211719
0.3814238608938721 0.17081507268207097 -0.12254833750211719
0.5237028570337406 0.33602327669848725 -0.12254833750211719
0.8109576653383452 -0.09352307107633415 -0.12254833750211719
0.39587377745502245 0.02714376687355001 -0.12167030437774173
0.40854254110672555 0.1306387855767197 -0.12167030437774173
0.7443525811892927 0.1120495700006565 -0.12167030437774173
0.49412568407263613 0.09012382855196666 -0.12167030437774173
0.3855631599087851 0.014462459891498657 -0.12167030437774173
0.4265798501474671 0.17521778163429647 -0.12167030437774173
0.5129030496039226 -0.1951867635486638 -0.12167030437774173
0.5061296512158834 -0.06785941718387449 -0.12167030437774173
0.48594743268559615 -0.027946540015835873 -0.12167030437774173
0.6472295743030191 0.09019908853405599 -0.12003967143247302
0.397943426962479 0.18534024922531067 -0.12003967143247302
0.34838472875665866 0.23689333695649833 -0.12003967143247302
0.8109576653383452 0.005606868665654911 -0.12003967143247302
0.4034499489853478 0.11429482613298805 -0.11916163830809756
0.7568206515554242 0.07509691879479805 -0.11916163830809756
0.5554625694754357 0.3428593917382674 -0.11916163830809756
0.7507622229972335 0.15440839658659827 -0.11916163830809756
0.5011875790586843 0.2877063681971406 -0.11916163830809756
0.7388209725057273 0.14841268468014862 -0.11916163830809756
0.63989172604931 -0.19864872272477269 -0.11916163830809756
0.641258949057266 -0.10429779184545575 -0.11916163830809756
0.6512685266751462 -0.0801769675858273 -0.11916163830809756
0.7779185332011318 0.1377759405448574 -0.11753100536282887
0.4475021251682993 0.05516556687147521 -0.11753100536282887
0.34838472875665866 -0.010912697402951975 -0.11753100536282887
0.8109576653383452 0.2534129030251049 -0.11753100536282887
0.616887258190673 0.32549942253633 -0.11665297223845342
0.7466229239823208 0.10819876758375269 -0.11665297223845342
0.6600990312402938 0.09052521512310968 -0.11665297223845342
0.4190663952688828 0.1309774554961217 -0.11665297223845342
0.43488353483798914 0.1590870588064845 -0.11665297223845342
0.5179078384128626 -0.20468206462226682 -0.11665297223845342
0.6369942167388709 -0.06716953401472225 -0.11665297223845342
0.6498009570244043 -0.06017035568041514 -0.11665297223845342
0.7118402689267046 0.022126434734261617 -0.1150223392931847
0.3814238608938721 0.17081507268207097 -0.1150223392931847
0.34838472875665866 0.20385420481928457 -0.1150223392931847
0.8109576653383452 0.03864600080286833 -0.1150223392931847
0.7451177243405342 0.13687282075978546 -0.11414430616880926
0.7551273019584145 0.09701011691313978 -0.11414430616880926
0.4302926759305403 0.14387199909409273 -0.11414430616880926
0.38459732347197195 0.09130290160469934 -0.11414430616880926
0.719541873760512 0.16199711144727172 -0.11414430616880926
0.5195133846974349 -0.20567298771977635 -0.11414430616880926
0.6474804409099837 -0.06794722049631192 -0.11414430616880926
0.6639122036661528 -0.041894723363057336 -0.11414430616880926
0.681874252724805 -0.01379766338304281 -0.11251367322354054
0.397943426962479 0.23689333695649833 -0.11251367322354054
0.31534559661944506 0.33602327669848725 -0.11251367322354054
0.843996797475559 -0.09352307107633415 -0.11251367322354054
0.6633101238094383 0.10681900124544841 -0.11163564009916509
0.7638700032111244 0.07800697143558526 -0.11163564009916509
0.39961168989879225 0.053108460694366984 -0.11163564009916509
0.3988340034172026 0.14703291834184434 -0.11163564009916509
0.48861916204976713 0.14209084618464526 -0.11163564009916509
0.6359782069806652 -0.10304345881063375 -0.11163564009916509
0.6534008928343438 -0.0638831814634884 -0.11163564009916509
0.49664689347262847 -0.0675458339251689 -0.11163564009916509
0.48505685623087236 -0.03426837851133904 -0.11163564009916509
0.6953207028580977 -0.06047139560877227 -0.1100050071538964
0.5466320649102884 0.36906240883570063 -0.1100050071538964
0.31534559661944506 -0.20916003355658164 -0.1100050071538964
0.3976800170251663 0.09677179363652352 -0.10912697402952093
0.4078401146072252 0.14375910912095877 -0.10912697402952093
0.618367371171763 0.3349069202974956 -0.10912697402952093
0.7208087501256824 0.22803774573065425 -0.10912697402952093
0.7041386640928969 0.1721321223686342 -0.10912697402952093
0.4237576008191173 0.17804003096264626 -0.10912697402952093
0.5191747147780331 -0.19920062926009435 -0.10912697402952093
0.6524601430582272 -0.06787196051422259 -0.10912697402952093
0.5042105216726055 -0.06769635388934755 -0.10912697402952093
0.6466149511159563 -0.056871459798833006 -0.10912697402952093
0.34838472875665866 0.05516556687147521 -0.10749634108425223
0.8109576653383452 0.18733463875067768 -0.10749634108425223
0.6872427981138435 0.08044037752314014 -0.10749634108425223
0.4640216912369062 0.12810503284637914 -0.10749634108425223
0.7451302676708825 0.14342043920155678 -0.10661830795987676
0.6737838046502026 0.09724844018975605 -0.10661830795987676
0.49628313689253006 0.10739599444146665 -0.10661830795987676
0.4287498462977093 0.1443611889776734 -0.10661830795987676
0.7319597708052508 0.16175878817065564 -0.10661830795987676
0.6303838816453587 -0.10246646561461568 -0.10661830795987676
0.6507918801219139 -0.066818320764972 -0.10661830795987676
0.4873146556935522 -0.02926358970239893 -0.10661830795987676
0.563201804300288 -0.08826741566042967 -0.10661830795987676
0.31534559661944506 -0.010912697402951975 -0.10498767501460807
0.843996797475559 0.2534129030251049 -0.10498767501460807
0.647618417543814 0.09019908853405599 -0.10498767501460807
0.5731862952574718 0.08820469900868881 -0.10498767501460807
0.6693309223765842 0.1456155220124954 -0.10410964189023261
0.7520667293534486 0.12435457707226122 -0.10410964189023261
0.4785970411015386 0.0963578637350324 -0.10410964189023261
0.47395600887269707 0.14683222505627272 -0.10410964189023261
0.49841550305172766 0.14772280151099657 -0.10410964189023261
0.6594216914014899 0.2897133010528559 -0.10410964189023261
0.6330430676791814 -0.20612454761231233 -0.10410964189023261
0.5126396396666101 -0.10209016570416904 -0.10410964189023261
0.6666215630213685 -0.07667737841867357 -0.10410964189023261
0.7118402689267046 0.10472426507729551 -0.1024790089449639
0.45975695891851104 0.1212438311459024 -0.1024790089449639
0.34838472875665866 -0.11004263714494103 -0.1024790089449639
0.5978088527310291 0.36906240883570063 -0.1024790089449639
0.4873271990239005 0.10035918611611469 -0.10160097582058845
0.48752789230947186 0.10330686874794656 -0.10160097582058845
0.40614676501021535 0.16187167814378964 -0.10160097582058845
0.5525525168346485 0.35634347186260495 -0.10160097582058845
0.44529449902701257 0.19718115307403097 -0.10160097582058845
0.7297396013336156 0.1710910259497319 -0.10160097582058845
0.5119748431581542 -0.20331484161431082 -0.10160097582058845
0.6445578449388482 -0.07337848253709162 -0.10160097582058845
0.651143093371664 -0.07405582237589556 -0.10160097582058845
0.5797715436902876 -0.07169767627043003 -0.10160097582058845
0.4783210878338779 -0.06047139560877227 -0.09997034287531975
0.6953207028580977 0.28539839541306805 -0.09997034287531975
0.843996797475559 -0.11004263714494103 -0.09997034287531975
0.4475021251682993 0.3194911672995321 -0.09997034287531975
0.6697950255994684 0.15110950070501614 -0.09909230975094428
0.7641208698180889 0.09004856856987734 -0.09909230975094428
0.3932898514032891 0.11576239578372993 -0.09909230975094428
0.5685703496893264 0.36714327929242296 -0.09909230975094428
0.49017453501294644 0.11438262944542565 -0.09909230975094428
0.6922601302531318 0.18788654528599955 -0.09909230975094428
0.5238282903372229 0.1904202980163401 -0.09909230975094428
0.6415098156642306 -0.1951867635486638 -0.09909230975094428
0.6414094690214447 -0.10209016570416904 -0.09909230975094428
0.5029938186288282 -0.20840743373568854 -0.09909230975094428
0.6115563427926792 0.08978515863256468 -0.09746167680567559
0.6751510276581586 -0.07699096167737916 -0.09746167680567559
0.7118402689267046 0.3061576071393735 -0.09746167680567559
0.8109576653383452 -0.15960133535076135 -0.09746167680567559
0.4144629930310857 0.26993246909371177 -0.09746167680567559
0.5152361090486917 -0.20199779192774758 -0.09658364368130014
0.5173308452168446 -0.09495301073603138 -0.09658364368130014
0.48657459920300716 -0.07425651566146699 -0.09658364368130014
0.49027488165573235 0.10801061762852937 -0.09658364368130014
0.49090204817314337 0.1155115291767654 -0.09658364368130014
0.4534727504140524 0.24882204411765624 -0.09658364368130014
0.3899282388699659 0.10374588531013443 -0.09658364368130014
0.45747407279513486 0.17082761601241925 -0.09658364368130014
0.4575117027861795 0.1992382592511394 -0.09658364368130014
0.6457494613219291 -0.009006111190022401 -0.09495301073603142
0.7118402689267046 0.3194911672995321 -0.09495301073603142
0.8109576653383452 -0.17612090141936823 -0.09495301073603142
0.44499345909865523 0.26993246909371177 -0.09495301073603142
0.4640216912369062 -0.11004263714494103 -0.09495301073603142
0.6330556110095297 -0.2061747209337051 -0.09407497761165597
0.5126396396666101 -0.10209016570416904 -0.09407497761165597
0.66943126901937 -0.03480774171631262 -0.09407497761165597
0.6007816220235577 0.10343230205142884 -0.09407497761165597
0.40615930834056363 0.14814927474283596 -0.09407497761165597
0.7498089298907687 0.1415389396493236 -0.09407497761165597
0.76679259918226 0.10254172559670519 -0.09407497761165597
0.5623237711759126 0.22731023257045752 -0.09407497761165597
0.6270598991030801 0.09677179363652352 -0.09244434466638726
0.4944768973223862 -0.11004263714494103 -0.09244434466638726
0.6840317055446989 0.16297549121443297 -0.09244434466638726
0.843996797475559 0.1377759405448574 -0.09244434466638726
0.31534559661944506 0.10472426507729551 -0.09244434466638726
0.6288661386732238 -0.19755745298447744 -0.09156631154201181
0.6596976446691506 -0.031671909129257415 -0.09156631154201181
0.5071205743133927 -0.08087939408532764 -0.09156631154201181
0.6180036145916646 -0.07140917967242082 -0.09156631154201181
0.49985798604177295 0.10981685719867323 -0.09156631154201181
0.567290929993808 0.10851235084245828 -0.09156631154201181
0.47753085802193995 0.2828395560220309 -0.09156631154201181
0.4024088525664455 0.15713029927216215 -0.09156631154201181
0.42094789482111594 0.16099364501941407 -0.09156631154201181
0.5444495254296978 0.3391089359641493 -0.09156631154201181
0.6862142450252894 0.12323822067126958 -0.08993567859674312
0.49535493044676177 0.16601097715870247 -0.08993567859674312
0.3649042948252654 0.1523011170880971 -0.08993567859674312
0.34838472875665866 -0.11004263714494103 -0.08993567859674312
0.6070909171887127 0.36906240883570063 -0.08993567859674312
0.41875281201017733 0.18401065620839935 -0.08905764547236766
0.7592916876340237 0.09726098352010415 -0.08905764547236766
0.7523050526300649 0.17205686238654488 -0.08905764547236766
0.6133374957021265 0.33755356300097 -0.08905764547236766
0.6724165816422466 0.10375842864048253 -0.08905764547236766
0.6019481517459421 0.10901408405638718 -0.08905764547236766
0.48514465954330993 -0.02879948647951486 -0.08905764547236766
0.4499480745862024 0.17972083722930768 -0.08742701252709896
0.7118402689267046 0.07168513294008191 -0.08742701252709896
0.5537315898873814 0.1662116704442739 -0.08742701252709896
0.7714085447504051 0.1377759405448574 -0.08742701252709896
0.31534559661944506 0.005606868665654911 -0.08742701252709896
0.843996797475559 0.23689333695649833 -0.08742701252709896
0.47449537207767045 0.14367130580852114 -0.0865489794027235
0.6581799016970159 -0.06897577358486612 -0.0865489794027235
0.39578597414258504 0.10986703052006618 -0.0865489794027235
0.4241589873902605 0.1989246759924338 -0.0865489794027235
0.412430973514674 0.15453382989008035 -0.0865489794027235
0.4419579731543858 0.20108212881232773 -0.0865489794027235
0.5250449933810003 0.09736133016289004 -0.08491834645745477
0.5796711970475019 -0.10708241118276088 -0.08491834645745477
0.6877445313277724 0.15237637707018642 -0.08491834645745477
0.4823851268667014 0.18235493660243413 -0.08491834645745477
0.6510176600681818 0.17400107859051914 -0.08491834645745477
0.843996797475559 0.23689333695649833 -0.08491834645745477
0.31534559661944506 0.005606868665654911 -0.08491834645745477
0.6641630702731173 0.10898899739569062 -0.0840403133330793
0.5778775008077064 0.11783204529118627 -0.0840403133330793
0.662958910559688 -0.07429414565251165 -0.0840403133330793
0.4528079539055967 0.22239324707395502 -0.0840403133330793
0.7632679233544097 0.11534846588223864 -0.0840403133330793
0.7094570361605425 0.25928318162807246 -0.0840403133330793
0.44628542212452194 0.22517786641125978 -0.0840403133330793
