0.5293928252788567 0.4962439001278912 -0.07552402897695318
0.2020880132125203 0.38140655228347525 -0.07552402897695318
0.40475776556716037 0.38627479036753026 -0.07552402897695318
0.5734519108320332 0.41287149570725185 -0.07552402897695318
0.5787079750108348 0.47551561595867603 -0.07552402897695318
0.5717475172051208 0.47564829330687886 -0.07552402897695318
0.5241877908493638 0.39772586611241423 -0.07552402897695318
0.3918676508917695 0.40539053445858886 -0.07552402897695318
0.4593800092272487 0.4014714497116767 -0.07552402897695318
0.3325812881448613 0.40123671286485635 -0.07552402897695318
0.5270148389610687 0.40123671286485635 -0.07552402897695318
0.5846274259306499 0.38026348589895925 -0.07419725549492562
0.47421946032623374 0.42516966529066125 -0.07419725549492562
0.5256982714289029 0.48163918587572624 -0.07419725549492562
0.530974747507428 0.4536646773046683 -0.07419725549492562
0.4801593231457726 0.4170967589500165 -0.07348283900460309
0.49754005576033344 0.45597122197342405 -0.07348283900460309
0.5406091641769204 0.49071227530282246 -0.07348283900460309
0.39231671268568663 0.42082193064955553 -0.07348283900460309
0.3854889322281755 0.41219790301637643 -0.07348283900460309
0.4058293903026442 0.39460284545471863 -0.07348283900460309
0.6482206995192168 0.36660792498393724 -0.07348283900460309
0.4337630750742551 0.33568389690283346 -0.07348283900460309
0.3030044454455086 0.3304788624733407 -0.07348283900460309
0.6322687998853009 0.33318343918670457 -0.07348283900460309
0.6027225750355334 0.4672692084703817 -0.07348283900460309
0.467381473918861 0.38956110622301393 -0.07348283900460309
0.6271250011549788 0.3410624324799759 -0.07348283900460309
0.3678122270676238 0.3443895721349065 -0.07348283900460309
0.6562731939601381 0.35553446938393796 -0.07348283900460309
0.5662260983299139 0.48144527282835303 -0.07348283900460309
0.47862843066650995 0.4123918160637496 -0.07348283900460309
0.2729479231026535 0.38956110622301393 -0.07348283900460309
0.4715250895627317 0.4883138770853111 -0.07348283900460309
0.2020880132125203 0.3848459573868852 -0.07348283900460309
0.4039004657787733 0.38467245623923546 -0.07348283900460309
0.6187050925190346 0.3865809688633828 -0.07348283900460309
0.4937434424117623 0.34533872547204936 -0.07348283900460309
0.2973911730215459 0.3434098009481784 -0.07348283900460309
0.6364124155291717 0.40664586629158406 -0.07348283900460309
0.47289268684420627 0.49186554763720025 -0.07348283900460309
0.38686673545951183 0.3975217471151793 -0.07348283900460309
0.479689849452132 0.39772586611241423 -0.07348283900460309
0.4886404674808871 0.40987094644789723 -0.07348283900460309
0.4593800092272487 0.4014714497116767 -0.07348283900460309
0.6051209732530448 0.44547950551554455 -0.07348283900460309
0.6353816145931349 0.42789465390374853 -0.07348283900460309
0.26494645841104125 0.39772586611241423 -0.07348283900460309
0.3297542400331564 0.4014714497116767 -0.07348283900460309
0.473923487780243 0.4434791393426415 -0.07215606552257553
0.5187786374226362 0.4681673320582157 -0.07215606552257553
0.5680121395557204 0.5074398271262314 -0.07215606552257553
0.5686449084471487 0.37301726149711656 -0.07215606552257553
0.3882241267911246 0.43409987141969286 -0.071441649032253
0.4902734194587673 0.4547056841905669 -0.071441649032253
0.5595718190200527 0.45931877352807804 -0.071441649032253
0.4359879721441167 0.4824454559148046 -0.071441649032253
0.4405092079328721 0.4493883843125949 -0.071441649032253
0.4650341054506585 0.39953231923794413 -0.071441649032253
0.2677939184224696 0.3996854084858704 -0.071441649032253
0.3354083362565662 0.3935720445186819 -0.071441649032253
0.49860147454595566 0.39500087749932694 -0.071441649032253
0.6482206995192168 0.36660792498393724 -0.071441649032253
0.4337630750742551 0.33568389690283346 -0.071441649032253
0.3030044454455086 0.3304788624733407 -0.071441649032253
0.6322687998853009 0.33318343918670457 -0.071441649032253
0.622369028519403 0.4529094370148988 -0.071441649032253
0.4943353875037439 0.4014102140125062 -0.071441649032253
0.5971705383107413 0.38967337167149313 -0.071441649032253
0.5020306736995038 0.33955195190043674 -0.071441649032253
0.2973911730215459 0.339460098351681 -0.071441649032253
0.6339527816124897 0.4079828457234734 -0.071441649032253
0.5627560753769187 0.405461976107621 -0.071441649032253
0.37843662087370605 0.40580897840292063 -0.071441649032253
0.40191030555573204 0.3890610146797881 -0.071441649032253
0.20016929463851119 0.38660138076310624 -0.071441649032253
0.39652156402872774 0.3848459573868852 -0.071441649032253
0.5983340165949809 0.38467245623923546 -0.071441649032253
0.5011325501116697 0.34518563622412307 -0.071441649032253
0.299309891595555 0.3486046294278094 -0.071441649032253
0.6446282051678809 0.39921593479222983 -0.071441649032253
0.5216465093337881 0.49684605116973446 -0.071441649032253
0.6002017054196812 0.39772586611241423 -0.071441649032253
0.6074581357713855 0.4612681099516724 -0.071441649032253
0.5760033982974708 0.4642788651608888 -0.071441649032253
0.5008059597160937 0.38026348589895925 -0.07011487555022544
0.5186765779240188 0.4682693915568333 -0.07011487555022544
0.6628152078215199 0.3864584974650418 -0.07011487555022544
0.38393762784918944 0.43379369292384035 -0.06940045905990291
0.49097762999922806 0.4550833043354517 -0.06940045905990291
0.5597657320674257 0.4593493913776633 -0.06940045905990291
0.47448481502263923 0.4874769891966475 -0.06940045905990291
0.3823046758713094 0.41657625550706723 -0.06940045905990291
0.48858943773157837 0.41410641564052375 -0.06940045905990291
0.37448691827720865 0.39983849773379665 -0.06940045905990291
0.2672223852302116 0.3946640811538891 -0.06940045905990291
0.461655936046419 0.3946640811538891 -0.06940045905990291
0.61996042435203 0.39448037405637765 -0.06940045905990291
0.5030512686856787 0.3350103042119579 -0.06940045905990291
0.2996262760412692 0.3353471005573957 -0.06940045905990291
0.5030512686856787 0.33017268397748817 -0.06940045905990291
0.6301459623140568 0.40372696463112356 -0.06940045905990291
0.5298418870727737 0.39953231923794413 -0.06940045905990291
0.5329853196301928 0.3900101680169309 -0.06940045905990291
0.5622457778838313 0.3443895721349065 -0.06940045905990291
0.3075971228832963 0.33955195190043674 -0.06940045905990291
0.6475471068283413 0.39126549984992626 -0.06940045905990291
0.5652667390429095 0.41016691899388796 -0.06940045905990291
0.37972257055628655 0.408738086013243 -0.06940045905990291
0.4002161178786815 0.3851725477824612 -0.06940045905990291
0.6187050925190346 0.3865809688633828 -0.06940045905990291
0.4937434424117623 0.34533872547204936 -0.06940045905990291
0.2973911730215459 0.3434098009481784 -0.06940045905990291
0.6382596924541484 0.40503332621342764 -0.06940045905990291
0.4538790022517652 0.49026321350890545 -0.06940045905990291
0.15852901920256945 0.38660138076310624 -0.06940045905990291
0.395409115493797 0.38642787961545655 -0.06940045905990291
0.5781364418185767 0.4656260505426399 -0.06940045905990291
0.6387801958970978 0.42788444795388675 -0.06940045905990291
0.5946496686948888 0.39635826883093966 -0.06940045905990291
0.6621109972810593 0.42678220536881767 -0.06807368557787535
0.5008059597160937 0.37301726149711656 -0.06807368557787535
0.5256982714289029 0.41457588933416417 -0.06807368557787535
0.5468041757430029 0.41457588933416417 -0.06807368557787535
0.5680121395557204 0.502347058145218 -0.06807368557787535
0.48977332791554146 0.4054211523081741 -0.06735926908755284
0.2762138270584137 0.39983849773379665 -0.06735926908755284
0.3297950638326035 0.39500087749932694 -0.06735926908755284
0.5264637176685342 0.3946640811538891 -0.06735926908755284
0.6464856880427193 0.3547384052947214 -0.06735926908755284
0.4314667363553613 0.33568389690283346 -0.06735926908755284
0.3086177178694713 0.33017268397748817 -0.06735926908755284
0.6405152073735952 0.3383578557666121 -0.06735926908755284
0.6056210647962706 0.46923895679369954 -0.06735926908755284
0.49424353395498816 0.4014000080626444 -0.06735926908755284
0.2089362055697549 0.3900101680169309 -0.06735926908755284
0.5252390036851242 0.3904592298108479 -0.06735926908755284
0.618398914023182 0.339460098351681 -0.06735926908755284
0.36466879451020473 0.34000101369435376 -0.06735926908755284
0.6574060543947922 0.369108382700066 -0.06735926908755284
0.5705738329710197 0.4670650894731466 -0.06735926908755284
0.4356001460493702 0.41016691899388796 -0.06735926908755284
0.3390926841566581 0.38467245623923546 -0.06735926908755284
0.5354551594967364 0.38660138076310624 -0.06735926908755284
0.5585512240338775 0.34533872547204936 -0.06735926908755284
0.36219895464366103 0.3434098009481784 -0.06735926908755284
0.6613557569912897 0.36162742145140303 -0.06735926908755284
0.5564896221618039 0.4967541976209787 -0.06735926908755284
0.5584389585853983 0.49087557050061037 -0.06735926908755284
0.4965704905234672 0.41016691899388796 -0.06735926908755284
0.5843008355350741 0.4665139681806121 -0.06735926908755284
0.6408417977691714 0.4270781779148085 -0.06735926908755284
0.5804429864873323 0.46725900252051994 -0.06735926908755284
0.38348856605527243 0.4330894823833795 -0.06735926908755284
0.5008059597160937 0.37301726149711656 -0.06603249560552527
0.5680121395557204 0.5030614746355404 -0.06603249560552527
0.5545709035877949 0.42678220536881767 -0.06603249560552527
0.6632948874650222 0.42678220536881767 -0.06603249560552527
0.44868417377213426 0.4500823889031939 -0.06531807911520275
0.4030227540906628 0.3996854084858704 -0.06531807911520275
0.2091709424165751 0.3946640811538891 -0.06531807911520275
0.4650341054506585 0.3935720445186819 -0.06531807911520275
0.6304929646093563 0.39192888659094005 -0.06531807911520275
0.49858106264623203 0.33568389690283346 -0.06531807911520275
0.2438099362473561 0.3350103042119579 -0.06531807911520275
0.5594391416718499 0.3303257732254144 -0.06531807911520275
0.6345243148047478 0.40918714780716003 -0.06531807911520275
0.5298418870727737 0.39953231923794413 -0.06531807911520275
0.6326055962307386 0.34384865679223375 -0.06531807911520275
0.36950641474467444 0.34095016703149655 -0.06531807911520275
0.6548749788290782 0.35100302764532076 -0.06531807911520275
0.5678080205584852 0.49176348813858267 -0.06531807911520275
0.47862843066650995 0.4042882918735198 -0.06531807911520275
0.33855176881398535 0.3900101680169309 -0.06531807911520275
0.5983340165949809 0.38140655228347525 -0.06531807911520275
0.5022449986466005 0.34358330209582827 -0.06531807911520275
0.30668879334560056 0.3486046294278094 -0.06531807911520275
0.6504966263383872 0.3939292527638431 -0.06531807911520275
0.5504476998436478 0.49839735554872056 -0.06531807911520275
0.5637460525135086 0.4905898039044814 -0.06531807911520275
0.4964684310248498 0.4548179496390461 -0.06531807911520275
0.4370085671302917 0.4528379953658666 -0.06531807911520275
0.33060133387168167 0.38642787961545655 -0.06531807911520275
0.5254227107826358 0.38586655237306033 -0.06531807911520275
0.588597540426871 0.39772586611241423 -0.06531807911520275
0.5845049545323089 0.4784753414185837 -0.06531807911520275
0.6293396922749785 0.40356366943333555 -0.06531807911520275
0.3936843099671612 0.42778238845526934 -0.06531807911520275
0.6504864203885254 0.4024614268482664 -0.06399130563317519
0.555142436780053 0.4526440823184933 -0.06399130563317519
0.5578061896939699 0.5074398271262314 -0.06399130563317519
0.5008059597160937 0.3783651792246736 -0.06399130563317519
0.4885077901326844 0.41016691899388796 -0.06327688914285266
0.2734071908464323 0.3996854084858704 -0.06327688914285266
0.3320301668523268 0.3946640811538891 -0.06327688914285266
0.5286886147383958 0.39432728480845136 -0.06327688914285266
0.6464856880427193 0.3547384052947214 -0.06327688914285266
0.4314667363553613 0.33568389690283346 -0.06327688914285266
0.3086177178694713 0.33017268397748817 -0.06327688914285266
0.6405152073735952 0.3383578557666121 -0.06327688914285266
0.6002731470687135 0.47494408276641803 -0.06327688914285266
0.5899855496080689 0.3904796417105715 -0.06327688914285266
0.5566325054598685 0.339460098351681 -0.06327688914285266
0.30130005181859626 0.34095016703149655 -0.06327688914285266
0.6377902187605079 0.4007366213216306 -0.06327688914285266
0.5657464186864116 0.4101567130440263 -0.06327688914285266
0.2011796836748245 0.3904592298108479 -0.06327688914285266
0.4650341054506585 0.3851725477824612 -0.06327688914285266
0.503857538724757 0.49265140577655503 -0.06327688914285266
0.5606128259059511 0.45908403668125786 -0.06327688914285266
0.49112051329729256 0.4567366682130552 -0.06327688914285266
0.21012009575371793 0.3861114951697422 -0.06327688914285266
0.4594208330266956 0.38660138076310624 -0.06327688914285266
0.6356469692895402 0.37792632338061843 -0.06327688914285266
0.4382332811137018 0.3434098009481784 -0.06327688914285266
0.241891217673347 0.34518563622412307 -0.06327688914285266
0.6561303106620734 0.4237000085105691 -0.06327688914285266
0.5239224361529584 0.502173556997568 -0.06327688914285266
0.6434443149839176 0.4254452259369285 -0.06327688914285266
0.38663199861269165 0.4201687498584034 -0.06327688914285266
0.5545709035877949 0.5062559369422683 -0.06276659164976514
0.5680121395557204 0.38026348589895925 -0.0619501156608251
0.5185439005758159 0.4671059132725937 -0.0619501156608251
0.47421946032623374 0.4362125030410751 -0.0619501156608251
0.48847717228309917 0.44715328129287163 -0.06123569917050257
0.3974094816667001 0.3996854084858704 -0.06123569917050257
0.2649872822104883 0.39500087749932694 -0.06123569917050257
0.4684122748548977 0.3946640811538891 -0.06123569917050257
0.6345753445540565 0.39003057991665435 -0.06123569917050257
0.49743799626171603 0.33643913719260293 -0.06123569917050257
0.24201368907168802 0.33512256966043713 -0.06123569917050257
0.5622457778838313 0.3304788624733407 -0.06123569917050257
0.6498638574469586 0.42699653031591445 -0.06123569917050257
0.5270352508607922 0.3996854084858704 -0.06123569917050257
0.6271250011549788 0.3410624324799759 -0.06123569917050257
0.3678122270676238 0.3443895721349065 -0.06123569917050257
0.6562731939601381 0.35553446938393796 -0.06123569917050257
0.57489094976254 0.4845376756364634 -0.06123569917050257
0.4385496655594161 0.40544156420789756 -0.06123569917050257
0.3985117242517692 0.3890610146797881 -0.06123569917050257
0.6002629411188517 0.38660138076310624 -0.06123569917050257
0.4937434424117623 0.3486046294278094 -0.06123569917050257
0.2986669167542647 0.34389968654154246 -0.06123569917050257
0.6425768092456688 0.40242060304881955 -0.06123569917050257
0.5254431226823593 0.5013979048080751 -0.06123569917050257
0.5578776313430022 0.466238407534345 -0.06123569917050257
0.49461094815001116 0.46107419690429924 -0.06123569917050257
0.20947712091242762 0.38140655228347525 -0.06123569917050257
0.4045434406200636 0.3861114951697422 -0.06123569917050257
0.5730844966370101 0.41344302889950996 -0.06123569917050257
0.6415766261592174 0.42013813200881817 -0.06123569917050257
0.39256165548236865 0.4280681550513983 -0.06123569917050257
0.6520071069179263 0.40109382956679185 -0.059908925688475015
0.555469027175629 0.4527767596666961 -0.059908925688475015
0.5626336039785778 0.5060518179450334 -0.059908925688475015
0.48054714924051906 0.4478881096829177 -0.05919450919815248
0.4706473778746212 0.39983849773379665 -0.05919450919815248
0.2085994092243171 0.3996854084858704 -0.05919450919815248
0.3410216086805289 0.39500087749932694 -0.05919450919815248
0.5601943819616193 0.39500087749932694 -0.05919450919815248
0.6247061910377437 0.33585739805048315 -0.05919450919815248
0.3678122270676238 0.33643913719260293 -0.05919450919815248
0.4270067362657764 0.33017268397748817 -0.05919450919815248
0.6529256424054839 0.3683837602598818 -0.05919450919815248
0.5696552974834622 0.45804302979535927 -0.05919450919815248
0.6341058708604161 0.38507048828384377 -0.05919450919815248
0.4382332811137018 0.339460098351681 -0.05919450919815248
0.23582888345546732 0.3404398695384091 -0.05919450919815248
0.6328913628268679 0.45754293825213355 -0.05919450919815248
0.492406462979873 0.45341973450798645 -0.05919450919815248
0.2722947423115015 0.3890610146797881 -0.05919450919815248
0.5335262349728656 0.38140655228347525 -0.05919450919815248
0.565940331733785 0.34518563622412307 -0.05919450919815248
0.36411767321767013 0.3486046294278094 -0.05919450919815248
0.6558037202664976 0.3433995949983168 -0.05919450919815248
0.5722782265979318 0.49644801912512615 -0.05919450919815248
0.5620518648364581 0.49326376276826006 -0.05919450919815248
0.4963561655763704 0.4550628924357281 -0.05919450919815248
0.4354674687011674 0.4511131898392307 -0.05919450919815248
0.3317137824066126 0.3848459573868852 -0.05919450919815248
0.52614733322282 0.3848459573868852 -0.05919450919815248
0.605110767303183 0.46656499792992095 -0.05919450919815248
0.38896916113103247 0.42124037459388725 -0.05919450919815248
0.6755522332489844 0.44022344133674307 -0.05786773571612493
0.5545709035877949 0.42516966529066125 -0.05786773571612493
0.473923487780243 0.4671059132725937 -0.05786773571612493
0.4798225268003348 0.408942205010478 -0.057153319225802406
0.48528270997637124 0.4027880172438424 -0.057153319225802406
0.2677939184224696 0.3996854084858704 -0.057153319225802406
0.3354083362565662 0.3935720445186819 -0.057153319225802406
0.5309849534572897 0.39432728480845136 -0.057153319225802406
0.6346059624036416 0.3399193660954598 -0.057153319225802406
0.3711903964718632 0.3353471005573957 -0.057153319225802406
0.3706188632796052 0.3303257732254144 -0.057153319225802406
0.6519458712187558 0.35645300487149556 -0.057153319225802406
0.5797898056961803 0.4620743799907508 -0.057153319225802406
0.6002629411188517 0.39055108335960365 -0.057153319225802406
0.4957336026348037 0.34095016703149655 -0.057153319225802406
0.23920705285970661 0.3416849954215426 -0.057153319225802406
0.6566814319546079 0.42782321225471626 -0.057153319225802406
0.49309026162061037 0.40731945898245964 -0.057153319225802406
0.26889616100753866 0.3890610146797881 -0.057153319225802406
0.5298418870727737 0.3851725477824612 -0.057153319225802406
0.571247425661895 0.49000806476236164 -0.057153319225802406
0.49590710378245345 0.4558385446252212 -0.057153319225802406
0.4343346082665131 0.4094014727542568 -0.057153319225802406
0.3390926841566581 0.38467245623923546 -0.057153319225802406
0.5354551594967364 0.38660138076310624 -0.057153319225802406
0.5585512240338775 0.34533872547204936 -0.057153319225802406
0.36219895464366103 0.3434098009481784 -0.057153319225802406
0.6613557569912897 0.36162742145140303 -0.057153319225802406
0.5512641758325877 0.501040696562914 -0.057153319225802406
0.5890057784213408 0.47372957473286975 -0.057153319225802406
0.6183478842738733 0.46214582163978296 -0.057153319225802406
0.5891078379199582 0.47998582199812273 -0.057153319225802406
0.6755522332489844 0.42678220536881767 -0.05582654574377484
0.5557854116213432 0.42678220536881767 -0.05582654574377484
0.5298418870727737 0.48054714924051894 -0.05582654574377484
0.43991726284089067 0.44886788086964563 -0.05511212925345232
0.4594208330266956 0.39983849773379665 -0.05511212925345232
0.16692851593879013 0.39983849773379665 -0.05511212925345232
0.4002161178786815 0.3935720445186819 -0.05511212925345232
0.594394519948345 0.39303112917600913 -0.05511212925345232
0.5610925055494536 0.33568389690283346 -0.05511212925345232
0.3041475118300246 0.33568389690283346 -0.05511212925345232
0.4946313600497346 0.3303257732254144 -0.05511212925345232
0.638361751952766 0.3942558431594191 -0.05511212925345232
0.5634909037669648 0.40103259386762136 -0.05511212925345232
0.6436280220814292 0.36270925213674854 -0.05511212925345232
0.4294765761323199 0.34000101369435376 -0.05511212925345232
0.6343406077072363 0.32914188304145137 -0.05511212925345232
0.6012223004058561 0.4827414284607953 -0.05511212925345232
0.48376202344697045 0.40730925303259796 -0.05511212925345232
0.3371025239336167 0.3890610146797881 -0.05511212925345232
0.5400376309846623 0.5002344265238355 -0.05511212925345232
0.5583573109865044 0.46642211463185634 -0.05511212925345232
0.4977441747575686 0.4616049062971102 -0.05511212925345232
0.20947712091242762 0.38467245623923546 -0.05511212925345232
0.4058293903026442 0.38660138076310624 -0.05511212925345232
0.6313094405982965 0.38228426397158577 -0.05511212925345232
0.49182472383775333 0.3434098009481784 -0.05511212925345232
0.2427485174617341 0.34372618539389277 -0.05511212925345232
0.6619579080331329 0.427915065803472 -0.05511212925345232
0.5345468299590406 0.503041062735817 -0.05511212925345232
0.5737785012276093 0.4320178576478957 -0.05511212925345232
0.6338711340135958 0.3978075137113082 -0.05511212925345232
0.6755522332489844 0.3998997334329672 -0.053785355771424764
0.5559487068191311 0.45296046676420765 -0.053785355771424764
0.473923487780243 0.42516966529066125 -0.053785355771424764
0.4401622056375725 0.4095647679520447 -0.05307093928110223
0.44024385323646664 0.3999507631822759 -0.05307093928110223
0.20016929463851119 0.39500087749932694 -0.05307093928110223
0.4035942872829208 0.3946640811538891 -0.05307093928110223
0.6002629411188517 0.39460284545471863 -0.05307093928110223
0.5566325054598685 0.3350103042119579 -0.05307093928110223
0.3018511731111308 0.33568389690283346 -0.05307093928110223
0.5002446324736973 0.3303257732254144 -0.05307093928110223
0.637412598615623 0.40010385243020213 -0.05307093928110223
0.5354551594967364 0.39983849773379665 -0.05307093928110223
0.6395252302370057 0.3507784967483623 -0.05307093928110223
0.3734254994915866 0.339460098351681 -0.05307093928110223
0.6475471068283413 0.33874568186135856 -0.05307093928110223
0.5797795997463185 0.48962023866761517 -0.05307093928110223
0.44101950542595963 0.4043801454222755 -0.05307093928110223
0.395613234491032 0.3904592298108479 -0.05307093928110223
0.5395987751406071 0.5041228934211625 -0.05307093928110223
0.5619191874882552 0.45856353323830856 -0.05307093928110223
0.48962023866761517 0.4564100778174792 -0.05307093928110223
0.2649872822104883 0.38660138076310624 -0.05307093928110223
0.4613395516007047 0.3848459573868852 -0.05307093928110223
0.6389843148943326 0.37138430951923634 -0.05307093928110223
0.4363145625396927 0.34518563622412307 -0.05307093928110223
0.23450210997343968 0.3486046294278094 -0.05307093928110223
0.6490779993076038 0.4498578580062355 -0.05307093928110223
0.5554588212257672 0.49602957518079444 -0.05307093928110223
0.5865971742539678 0.4016959806086351 -0.05307093928110223
0.5869747943988527 0.41267758265987864 -0.05307093928110223
0.6755522332489844 0.42678220536881767 -0.051744165799074676
0.5545709035877949 0.44022344133674307 -0.051744165799074676
0.5508967616375646 0.4538075606027329 -0.051744165799074676
0.4401622056375725 0.4499292996552676 -0.05102974930875214
0.4650341054506585 0.39953231923794413 -0.05102974930875214
0.2029759308504926 0.3996854084858704 -0.05102974930875214
0.3968379484744421 0.3946640811538891 -0.05102974930875214
0.5693287070878861 0.39460284545471863 -0.05102974930875214
0.5633888442683473 0.3357145147524187 -0.05102974930875214
0.3086177178694713 0.33502051016181955 -0.05102974930875214
0.4382332811137018 0.3302135077769352 -0.05102974930875214
0.6440056422263141 0.3884282457883596 -0.05102974930875214
0.570757540068531 0.4101567130440263 -0.05102974930875214
0.640157999128434 0.3779977650296507 -0.05102974930875214
0.43431419636678964 0.3409603729813584 -0.05102974930875214
0.23392037083131986 0.32572288983776504 -0.05102974930875214
0.6264207906145179 0.4679836249607042 -0.05102974930875214
0.48818119973710844 0.4519092539284473 -0.05102974930875214
0.2762138270584137 0.39055108335960365 -0.05102974930875214
0.5548566701839239 0.3905204655100184 -0.05102974930875214
0.5565100340615275 0.4601658673666033 -0.05102974930875214
0.49103886569839844 0.4609415195560964 -0.05102974930875214
0.20947712091242762 0.38467245623923546 -0.05102974930875214
0.4058293903026442 0.38660138076310624 -0.05102974930875214
0.6313094405982965 0.38228426397158577 -0.05102974930875214
0.4382332811137018 0.3434098009481784 -0.05102974930875214
0.241891217673347 0.34518563622412307 -0.05102974930875214
0.6644787776489853 0.42725167906245826 -0.05102974930875214
0.5532747479553526 0.49619287037858234 -0.05102974930875214
0.6027531928851187 0.39772586611241423 -0.05102974930875214
0.6029879297319389 0.47033099342890683 -0.05102974930875214
0.5980992797481604 0.46678952882687935 -0.05102974930875214
0.6349019349496327 0.39884852059720677 -0.05102974930875214
0.6486697613131339 0.4671059132725937 -0.04970297582672459
0.5846274259306499 0.38026348589895925 -0.04970297582672459
0.4867523667564634 0.4671059132725937 -0.04970297582672459
0.5008059597160937 0.3783651792246736 -0.04970297582672459
0.48192495247185546 0.40128774261416517 -0.04898855933640205
0.2649872822104883 0.39983849773379665 -0.04898855933640205
0.3365514026410823 0.39432728480845136 -0.04898855933640205
0.5332200564770131 0.3946640811538891 -0.04898855933640205
0.6247061910377437 0.33585739805048315 -0.04898855933640205
0.3678122270676238 0.3364493431424646 -0.04898855933640205
0.4270067362657764 0.3302033018270734 -0.04898855933640205
0.6529256424054839 0.3683837602598818 -0.04898855933640205
0.5873115907442903 0.46460545555646476 -0.04898855933640205
0.4844968518370165 0.4478881096829177 -0.04898855933640205
0.33370394262965386 0.3890610146797881 -0.04898855933640205
0.5970582728622621 0.38960193002246096 -0.04898855933640205
0.49913218393876657 0.3409603729813584 -0.04898855933640205
0.2438099362473561 0.339460098351681 -0.04898855933640205
0.6614476105400455 0.4271496195638407 -0.04898855933640205
0.5645217047030016 0.405461976107621 -0.04898855933640205
0.5783201489160882 0.49030403730835237 -0.04898855933640205
0.496009163281071 0.45563442562798623 -0.04898855933640205
0.4349673771579416 0.45140916238522155 -0.04898855933640205
0.33060133387168167 0.38642787961545655 -0.04898855933640205
0.52614733322282 0.38140655228347525 -0.04898855933640205
0.565940331733785 0.34518563622412307 -0.04898855933640205
0.36411767321767013 0.3486046294278094 -0.04898855933640205
0.6558037202664976 0.3433995949983168 -0.04898855933640205
0.5831679751004196 0.4961112227796884 -0.04898855933640205
0.5792693022532308 0.4562263707199677 -0.04898855933640205
0.5881995083822625 0.46041081016328533 -0.04898855933640205
0.5681856407033701 0.3980524565079902 -0.04898855933640205
0.6003139708681604 0.39772586611241423 -0.04898855933640205
0.6526602877090782 0.4253227545385875 -0.04898855933640205
0.4873647237481683 0.40085909271997167 -0.04898855933640205
0.4750563482148974 0.3775282913360102 -0.0476617858543745
0.473923487780243 0.4671059132725937 -0.0476617858543745
0.5948946114915709 0.37301726149711656 -0.0476617858543745
0.44017241158743436 0.44993950560512946 -0.04694736936405197
0.49377406026134757 0.4013387723634739 -0.04694736936405197
0.3382149724685476 0.3996854084858704 -0.04694736936405197
0.270600554634451 0.3935720445186819 -0.04694736936405197
0.48829346518558764 0.39460284545471863 -0.04694736936405197
0.6480574043214289 0.36200504159628777 -0.04694736936405197
0.4326200086897391 0.3364493431424646 -0.04694736936405197
0.30581108165749 0.33033597917527624 -0.04694736936405197
0.6368818892228122 0.3357145147524187 -0.04694736936405197
0.6149799208194958 0.47254568454890666 -0.04694736936405197
0.5222486603756313 0.39983849773379665 -0.04694736936405197
0.618398914023182 0.339460098351681 -0.04694736936405197
0.36466879451020473 0.34000101369435376 -0.04694736936405197
0.6557016607678798 0.37714046524126366 -0.04694736936405197
0.5894446342653962 0.46827959750669496 -0.04694736936405197
0.4844968518370165 0.4478881096829177 -0.04694736936405197
0.33370394262965386 0.3890610146797881 -0.04694736936405197
0.5896487532626313 0.3864993212644888 -0.04694736936405197
0.5566325054598685 0.3434098009481784 -0.04694736936405197
0.3078114478303931 0.34358330209582827 -0.04694736936405197
0.6558037202664976 0.386611586712968 -0.04694736936405197
0.5665220708759047 0.5006018407188586 -0.04694736936405197
0.5617150684910202 0.4595841282244837 -0.04694736936405197
0.5087563946583972 0.46388083311628053 -0.04694736936405197
0.15852901920256945 0.4082379944700172 -0.04694736936405197
0.39460284545471863 0.38660138076310624 -0.04694736936405197
0.5487841300161824 0.3865809688633828 -0.04694736936405197
0.5665424827756282 0.39807286840771383 -0.04694736936405197
0.6286354817345179 0.40020591192881955 -0.04694736936405197
0.5987320486395891 0.4736683390336992 -0.04694736936405197
0.5739928261747059 0.4423973086572958 -0.04694736936405197
0.5678794622075175 0.40124691881471813 -0.04694736936405197
0.5545709035877949 0.4531033500622721 -0.04562059588202441
0.4750563482148974 0.3775282913360102 -0.04562059588202441
0.5890261903210644 0.37301726149711656 -0.04562059588202441
0.6486697613131339 0.4671059132725937 -0.04562059588202441
0.44892911656881623 0.45036815549932296 -0.044906179391701884
0.4002161178786815 0.39953231923794413 -0.044906179391701884
0.21140604543629854 0.39500087749932694 -0.044906179391701884
0.4661771718351745 0.39432728480845136 -0.044906179391701884
0.599507700829082 0.39471511090319783 -0.044906179391701884
0.5588676084795918 0.3353573065072573 -0.044906179391701884
0.3030044454455086 0.33643913719260293 -0.044906179391701884
0.49743799626171603 0.33049927437306414 -0.044906179391701884
0.6392394636408765 0.3956540582904789 -0.044906179391701884
0.5890363962709263 0.39983849773379665 -0.044906179391701884
0.568838821494522 0.43146673635536115 -0.044906179391701884
0.4882628473360024 0.41016691899388796 -0.044906179391701884
0.26889616100753866 0.3890610146797881 -0.044906179391701884
0.5315360747498242 0.3890610146797881 -0.044906179391701884
0.5639399655608819 0.3409603729813584 -0.044906179391701884
0.3086177178694713 0.339460098351681 -0.044906179391701884
0.6479757567225347 0.3906735547579447 -0.044906179391701884
0.5943434901990363 0.4058191843527824 -0.044906179391701884
0.4918451357374768 0.4538075606027329 -0.044906179391701884
0.5618783636888084 0.4596453639236542 -0.044906179391701884
0.5076133282738813 0.462554059634253 -0.044906179391701884
0.15852901920256945 0.38660138076310624 -0.044906179391701884
0.395409115493797 0.38642787961545655 -0.044906179391701884
0.5909551148449352 0.38140655228347525 -0.044906179391701884
0.5030512686856787 0.3434098009481784 -0.044906179391701884
0.3066989992954622 0.34518563622412307 -0.044906179391701884
0.6511702190292628 0.3930005113264239 -0.044906179391701884
0.5646952058506512 0.5015714059557248 -0.044906179391701884
0.6274822094001401 0.45768582155019805 -0.044906179391701884
0.6234202413551635 0.41115689613047784 -0.044906179391701884
0.5727068764921254 0.40379840628015573 -0.044906179391701884
0.5545709035877949 0.4531543798115808 -0.04439588189861437
0.4834762568508414 0.38026348589895925 -0.04439588189861437
0.5784732381640143 0.4733723664877085 -0.04357940590967433
0.473923487780243 0.42516966529066125 -0.04357940590967433
0.6755522332489844 0.3998997334329672 -0.04357940590967433
0.6435361685326733 0.4501028008029175 -0.042864989419351796
0.5736254119796829 0.4320586814473427 -0.042864989419351796
0.5614803316441999 0.39983849773379665 -0.042864989419351796
0.2762138270584137 0.39983849773379665 -0.042864989419351796
0.3297950638326035 0.39500087749932694 -0.042864989419351796
0.5332200564770131 0.3946640811538891 -0.042864989419351796
0.6480574043214289 0.36200504159628777 -0.042864989419351796
0.4326200086897391 0.33643913719260293 -0.042864989419351796
0.30581108165749 0.3303257732254144 -0.042864989419351796
0.6368818892228122 0.3357145147524187 -0.042864989419351796
0.6640705396545151 0.4287009239428268 -0.042864989419351796
0.5634704918672412 0.43644723988789536 -0.042864989419351796
0.2722947423115015 0.3890610146797881 -0.042864989419351796
0.5354551594967364 0.39055108335960365 -0.042864989419351796
0.560541384256919 0.34095016703149655 -0.042864989419351796
0.3046986331225591 0.34095016703149655 -0.042864989419351796
0.6426482508947011 0.3983586350038428 -0.042864989419351796
0.5696450915336003 0.5006732823678909 -0.042864989419351796
0.5678386384080706 0.4662486134842066 -0.042864989419351796
0.49557030743701563 0.45550174827978346 -0.042864989419351796
0.20947712091242762 0.38467245623923546 -0.042864989419351796
0.4058293903026442 0.38660138076310624 -0.042864989419351796
0.6253389599291724 0.385427696529005 -0.042864989419351796
0.49182472383775333 0.3434098009481784 -0.042864989419351796
0.2427485174617341 0.34372618539389277 -0.042864989419351796
0.6643358943509208 0.4196482464154541 -0.042864989419351796
0.6033349320272384 0.39910366934375063 -0.042864989419351796
0.6241448637953477 0.42813959670043056 -0.042864989419351796
0.6755522332489844 0.41334096940089243 -0.041538215937324235
0.5725129634447523 0.48054714924051894 -0.041538215937324235
0.4858848610182145 0.3920819758388663 -0.04082379944700172
0.4903754789573847 0.3995017013883589 -0.04082379944700172
0.5859644053625392 0.3837539207516779 -0.04082379944700172
0.5683591418510198 0.4359675602443931 -0.04082379944700172
0.574850125963093 0.40213483645269044 -0.04082379944700172
0.563562345415997 0.44375469998890876 -0.04082379944700172
0.6139185020338737 0.47536252671074974 -0.04082379944700172
0.6628866494705522 0.41541277722282777 -0.04082379944700172
0.5650524140958125 0.4967746095207021 -0.04082379944700172
0.6370349784707385 0.4153923653231042 -0.04082379944700172
0.670541111866865 0.41334096940089243 -0.039497025964974154
0.4888752043277075 0.46846330460420643 -0.039497025964974154
0.47819978077231645 0.45863497488734084 -0.039497025964974154
0.5063988202403329 0.46253364773452943 -0.038782609474651626
0.4953253646403336 0.3987056372991423 -0.038782609474651626
0.5705738329710197 0.44212174801102855 -0.038782609474651626
0.5637868763129555 0.43848842986024544 -0.038782609474651626
0.5818309956685302 0.4672692084703817 -0.038782609474651626
0.563725640613785 0.40021611787868133 -0.038782609474651626
0.6658157570808747 0.42848659899573 -0.038782609474651626
0.6699083429754364 0.42576161038264265 -0.038782609474651626
0.5636541989647527 0.49752984981047166 -0.038782609474651626
0.6438525529783876 0.4153923653231042 -0.038782609474651626
0.6623457341278796 0.4536646773046683 -0.03745583599262408
0.6365246809776509 0.3938782230145344 -0.03745583599262408
0.5893119569171934 0.4124326398631966 -0.03745583599262408
0.5415276996644779 0.3843968955929682 -0.03745583599262408
0.5022041748471535 0.4124326398631966 -0.03745583599262408
0.47819978077231645 0.4600536019181241 -0.03745583599262408
0.5653892104412505 0.47281103924531215 -0.03745583599262408
0.4858848610182145 0.3837539207516779 -0.036741419502301545
0.5111854107254938 0.46060472321065865 -0.036741419502301545
0.5859644053625392 0.3920819758388663 -0.036741419502301545
0.5753604234561807 0.4017878341573909 -0.036741419502301545
0.5728803776397753 0.39930778834098557 -0.036741419502301545
0.5617558922904673 0.4391722285009828 -0.036741419502301545
0.6457712715523969 0.450286507900429 -0.036741419502301545
0.6709289379616117 0.4261290245776657 -0.036741419502301545
0.5676447253606973 0.496825639270011 -0.036741419502301545
0.6322381820357156 0.4591758902300136 -0.036741419502301545
0.5907203779981149 0.48054714924051894 -0.03541464602027398
0.4832823438034682 0.42678220536881767 -0.03541464602027398
0.5022041748471535 0.4124326398631966 -0.03541464602027398
0.5642563500065962 0.3938782230145344 -0.03541464602027398
0.5184826648766454 0.4536646773046683 -0.03541464602027398
0.6015897146008792 0.3927759804294653 -0.03541464602027398
0.6576305852917507 0.3864584974650418 -0.03541464602027398
0.49411085660678533 0.3837539207516779 -0.03470022952995145
0.4899774469127764 0.39759318876421146 -0.03470022952995145
0.5787896226097287 0.3974809233157322 -0.03470022952995145
0.5789733297072401 0.4632582701747138 -0.03470022952995145
0.5843314533846592 0.3961235319841195 -0.03470022952995145
0.5601637641120342 0.40694183883757495 -0.03470022952995145
0.6675507685573722 0.4276497111070665 -0.03470022952995145
0.6249103100349789 0.47894481511222414 -0.03470022952995145
0.6263595549153473 0.4008284748703864 -0.03470022952995145
0.6468939260371893 0.42201602678338024 -0.03470022952995145
0.6576305852917507 0.3879689780445808 -0.034189932036863935
0.6352285253452085 0.3864584974650418 -0.033373456047923904
0.5984973117927688 0.44022344133674307 -0.033373456047923904
0.555795617571205 0.42111790319554626 -0.033373456047923904
0.4832313140541595 0.44022344133674307 -0.033373456047923904
0.5950987304888059 0.48054714924051894 -0.033373456047923904
0.5062355250425449 0.46268673698245566 -0.03265903955760137
0.5779833525706506 0.3884894814875301 -0.03265903955760137
0.5727272883918489 0.4082890242193259 -0.03265903955760137
0.5738805607262267 0.4029717243413539 -0.03265903955760137
0.5625621623295454 0.44834737742669645 -0.03265903955760137
0.6503945668397698 0.44668380759923104 -0.03265903955760137
0.6722046816943306 0.4275986813577578 -0.03265903955760137
0.5917307670344282 0.4906000098543431 -0.03265903955760137
0.6489555279092628 0.4181990015350856 -0.03265903955760137
0.6621109972810593 0.3864584974650418 -0.0313322660755738
0.5505293474425417 0.4654933731944371 -0.0313322660755738
0.47805689747425195 0.4023695732995107 -0.0313322660755738
0.5832394167494519 0.47395410562982815 -0.0313322660755738
0.49544783603867465 0.45677749201250223 -0.03061784958525129
0.4967644035708405 0.3976748363631055 -0.03061784958525129
0.571369897060236 0.4591860961798754 -0.03061784958525129
0.5665220708759047 0.44543868171609746 -0.03061784958525129
0.5615109494937853 0.4659220230886306 -0.03061784958525129
0.5737887071774711 0.39829739930467223 -0.03061784958525129
0.6524969925112903 0.451796988479968 -0.03061784958525129
0.6399742920309225 0.40021611787868133 -0.03061784958525129
0.6205829872935966 0.48236380831591064 -0.03061784958525129
0.6365144750277891 0.4622376751885387 -0.03061784958525129
0.6552117751745158 0.42684344106798816 -0.03061784958525129
0.5962520028231837 0.3998997334329672 -0.029291076103223727
0.5899039020091749 0.4671059132725937 -0.029291076103223727
0.473923487780243 0.41334096940089243 -0.029291076103223727
0.5019898499000567 0.41334096940089243 -0.029291076103223727
0.49705017016696956 0.46226829303812395 -0.028576659612901192
0.5777384097739685 0.3886221588357329 -0.028576659612901192
0.5749623914115722 0.4063805115951786 -0.028576659612901192
0.5786365333618025 0.3979503970093728 -0.028576659612901192
0.5620110410370108 0.44569383046264127 -0.028576659612901192
0.6547729193304608 0.42685364701784995 -0.028576659612901192
0.6591920956205987 0.39977726203462616 -0.028576659612901192
0.581351316025028 0.49960165763240705 -0.028576659612901192
0.6582429422834557 0.4001650881293726 -0.028576659612901192
0.5545504916880714 0.3998997334329672 -0.027249886130873646
0.48427232094005795 0.4658709933393219 -0.027249886130873646
0.5513662353312054 0.45586916247480647 -0.027249886130873646
0.6610087546959902 0.3926433030812625 -0.027249886130873646
0.675450173750367 0.44022344133674307 -0.027249886130873646
0.5110629393271529 0.4582777666421796 -0.026535469640551115
0.4949477444954489 0.3991444931431975 -0.026535469640551115
0.5724006979962728 0.4522154324242998 -0.026535469640551115
0.5659709495833701 0.4477554323347149 -0.026535469640551115
0.5828107668552583 0.4676468286152664 -0.026535469640551115
0.5633990502182091 0.4235877430620899 -0.026535469640551115
0.5918430324829074 0.4966215202727759 -0.026535469640551115
0.6436280220814292 0.4662894372836537 -0.026535469640551115
0.6677855054041923 0.43249753729139795 -0.026535469640551115
0.6514763975251153 0.45121524933784823 -0.026535469640551115
0.6365246809776509 0.4552670114329632 -0.02520869615852355
0.6563038118097231 0.3938782230145344 -0.02520869615852355
0.5568978601562742 0.43939675939794126 -0.02520869615852355
0.473923487780243 0.3998997334329672 -0.02520869615852355
0.5507130545400531 0.47125973486632605 -0.02520869615852355
0.49528454084088674 0.4569305812604285 -0.024494279668201016
0.4960806049301033 0.3976748363631055 -0.024494279668201016
0.5760340161470562 0.452368521672226 -0.024494279668201016
0.5797898056961803 0.463574654620428 -0.024494279668201016
0.5899141079590366 0.3798042181551805 -0.024494279668201016
0.5634194621179325 0.43062984846669766 -0.024494279668201016
0.6674997388080635 0.42699653031591445 -0.024494279668201016
0.6632030339162666 0.423046827719417 -0.024494279668201016
0.6579673816371886 0.4411113589747154 -0.024494279668201016
0.5909347029452117 0.4917839000383063 -0.024494279668201016
0.5717985469544296 0.496580696473329 -0.024494279668201016
0.646455070193134 0.40934023705508626 -0.023167506186173473
0.6083358474594962 0.42678220536881767 -0.023167506186173473
0.5545709035877949 0.42081172469969375 -0.023167506186173473
0.4829557534078922 0.41334096940089243 -0.023167506186173473
0.5891792795689905 0.4714230300641141 -0.023167506186173473
0.510603671583374 0.4646258674561884 -0.02245308969585094
0.5788814761584845 0.3979503970093728 -0.02245308969585094
0.5720128719015265 0.4594310389765574 -0.02245308969585094
0.5800041306432769 0.41017712494374975 -0.02245308969585094
0.5737887071774711 0.3798042181551805 -0.02245308969585094
0.5637154346639232 0.43306907048365606 -0.02245308969585094
0.6698675191759895 0.4303032580711217 -0.02245308969585094
0.6723679768921185 0.4341304892692781 -0.02245308969585094
0.6592737432194925 0.40060394397342786 -0.02245308969585094
0.6399947039306461 0.4700860506322248 -0.02245308969585094
0.6399947039306461 0.4700860506322248 -0.02245308969585094
0.6520887545168204 0.4381720454145313 -0.021126316213823375
0.6016305384003261 0.3998997334329672 -0.021126316213823375
0.6478736972239173 0.4046965298679899 -0.021126316213823375
0.5545709035877949 0.44022344133674307 -0.021126316213823375
0.473923487780243 0.42678220536881767 -0.021126316213823375
0.590557082800327 0.4671059132725937 -0.021126316213823375
0.5080521841179364 0.46454421985729427 -0.02041189972350086
0.5782282953673326 0.39252083168292146 -0.02041189972350086
0.5724823455951669 0.4502048603015349 -0.02041189972350086
0.5691245880906509 0.45255222876973755 -0.02041189972350086
0.5852499888722168 0.39620517958301343 -0.02041189972350086
0.5632255490705591 0.4228120908725968 -0.02041189972350086
0.6731844528810583 0.43229341829416296 -0.02041189972350086
0.6690510431870493 0.4137492073953625 -0.02041189972350086
0.6461590976471432 0.4638400093168335 -0.02041189972350086
0.6755522332489844 0.4671059132725937 -0.019085126241473297
0.6388516375461301 0.4536646773046683 -0.019085126241473297
0.6352285253452085 0.3864584974650418 -0.019085126241473297
0.5175641293890878 0.4654933731944371 -0.019085126241473297
0.47560746950743193 0.39827698740494877 -0.019085126241473297
0.5173395984921294 0.46953492933969027 -0.019085126241473297
0.4950906277935134 0.39830760525453407 -0.018370709751150762
0.49806055920328274 0.39697062582264475 -0.018370709751150762
0.5715638101076094 0.42626170192586854 -0.018370709751150762
0.5675426658620796 0.44701039799480713 -0.018370709751150762
0.5624805147306516 0.4662996432335153 -0.018370709751150762
0.5614497137946148 0.4075439898794182 -0.018370709751150762
0.6755114094495375 0.4278436241544398 -0.018370709751150762
0.6592737432194925 0.40060394397342786 -0.018370709751150762
0.6051822089522154 0.48655845370909007 -0.018370709751150762
0.5736050000799596 0.5041228934211625 -0.018370709751150762
0.482802664159966 0.4628602381301055 -0.017043936269123216
0.5612966245466884 0.3938782230145344 -0.017043936269123216
0.5181458685312076 0.45427703429637334 -0.017043936269123216
0.6451180907612446 0.4021450424025523 -0.017043936269123216
0.6352285253452085 0.4536646773046683 -0.017043936269123216
0.5897304008615251 0.4918961654867855 -0.016329519778800684
0.5955375863328612 0.498091177052868 -0.016329519778800684
0.6602433084563587 0.41069762838669904 -0.016329519778800684
0.6647237204456674 0.4484188190757286 -0.016329519778800684
0.5777894395232772 0.39666444732679224 -0.016329519778800684
0.578697769060973 0.46064554701010574 -0.016329519778800684
0.564184908357564 0.4267005577699237 -0.016329519778800684
0.4858848610182145 0.3837539207516779 -0.016329519778800684
0.4894875613194125 0.39750133521545566 -0.016329519778800684
0.5173702163417147 0.4671059132725937 -0.01500274629677312
0.47560746950743193 0.3864584974650418 -0.01500274629677312
0.5551220248803295 0.42840495139683604 -0.01500274629677312
0.6083358474594962 0.41334096940089243 -0.01500274629677312
0.6512620725780184 0.44022344133674307 -0.01500274629677312
0.6380249556073282 0.45677749201250223 -0.01500274629677312
0.6399028503818902 0.4712189110668792 -0.014288329806450588
0.6710309974602291 0.427016942215638 -0.014288329806450588
0.6606413405009671 0.4434893452925031 -0.014288329806450588
0.5899141079590366 0.3878669185459634 -0.014288329806450588
0.5635113156666883 0.4066152484419988 -0.014288329806450588
0.49411085660678533 0.3837539207516779 -0.014288329806450588
0.48915076497397475 0.39703186152181524 -0.014288329806450588
0.5171763032943414 0.46968801858761655 -0.012961556324423041
0.47560746950743193 0.3864584974650418 -0.012961556324423041
0.5545709035877949 0.42678220536881767 -0.012961556324423041
0.5720639016508352 0.4153923653231042 -0.012961556324423041
0.6486697613131339 0.44022344133674307 -0.012961556324423041
0.672337359042533 0.44859232022337836 -0.012961556324423041
0.6072846346237358 0.4855684765725002 -0.012247139834100508
0.5859439934628159 0.4931617032696425 -0.012247139834100508
0.6691020729363584 0.4124734636626437 -0.012247139834100508
0.5859644053625392 0.3837539207516779 -0.012247139834100508
0.5640420250594993 0.46643232058171813 -0.012247139834100508
0.5631336955218036 0.44403026063517603 -0.012247139834100508
0.495315158690472 0.39754215901490275 -0.012247139834100508
0.48943653157010364 0.4355491163000614 -0.012247139834100508
0.6507313631852075 0.4536646773046683 -0.01173684234101298
0.5899549317584836 0.47223950605305415 -0.010920366352072945
0.4810982705330536 0.41334096940089243 -0.010920366352072945
0.5015101702565545 0.40301254814080095 -0.010920366352072945
0.5172987746926824 0.4536646773046683 -0.010920366352072945
0.5914347944884375 0.44022344133674307 -0.010920366352072945
0.6597125990635478 0.46064554701010574 -0.010920366352072945
0.6470776331347008 0.3864584974650418 -0.010920366352072945
0.6186336508700022 0.4800674695970167 -0.01020594986175043
0.6599269240106447 0.44519373891941544 -0.01020594986175043
0.6638460087575567 0.45040897929877005 -0.01020594986175043
0.5899141079590366 0.3798042181551805 -0.01020594986175043
0.5786773571612495 0.3971135091207092 -0.01020594986175043
0.5658893019844763 0.4099832118963766 -0.01020594986175043
0.49686646306945803 0.45778788104881557 -0.01020594986175043
0.4819351584217171 0.3798042181551805 -0.01020594986175043
0.5170640378458622 0.46979007808623413 -0.009695652368662901
0.47560746950743193 0.3864584974650418 -0.009695652368662901
0.5545709035877949 0.4386109012585865 -0.009695652368662901
0.5723904920464113 0.4023695732995107 -0.009695652368662901
0.6539666492913825 0.44022344133674307 -0.009695652368662901
0.665346283387234 0.4671059132725937 -0.009695652368662901
0.6002527351689899 0.49232481538097905 -0.008164759889400333
0.6024266024895426 0.48763007844457373 -0.008164759889400333
0.67377639797304 0.41888280017582297 -0.008164759889400333
0.5820759384652123 0.3954499392932439 -0.008164759889400333
0.5646339701514808 0.461615112246972 -0.008164759889400333
0.5641032607586698 0.4158414271170213 -0.008164759889400333
0.4944680648519467 0.39868522539941875 -0.008164759889400333
0.48836490683461997 0.4422952491586784 -0.008164759889400333
0.6083358474594962 0.4671059132725937 -0.006837986407372787
0.4809860050845743 0.41334096940089243 -0.006837986407372787
0.5545709035877949 0.42678220536881767 -0.006837986407372787
0.5933228952128613 0.41334096940089243 -0.006837986407372787
