0.13524121305013218 0.49027809667919325 -0.05568899507933926
0.46876944357969064 0.32913173091803166 -0.05568899507933926
0.13104988342047663 0.30136539337145585 -0.05568899507933926
0.12304825412749787 0.40460497424924136 -0.05568899507933926
0.5617114453673668 0.3205048216803025 -0.05568899507933926
0.49653578112626645 0.5188358041558437 -0.05568899507933926
0.49330191141201 0.5086847750527854 -0.05568899507933926
0.23626300412388093 0.3607865281210244 -0.05568899507933926
0.3356922853383432 0.46313703907736786 -0.05568899507933926
0.3232746164355642 0.3857195659179497 -0.05568899507933926
0.3835066611134812 0.3314081407168889 -0.054418895191564835
0.7024189729344972 0.4214777627583675 -0.054418895191564835
0.44466685570938713 0.4729558882097778 -0.054418895191564835
0.4548471948098557 0.47275071822790654 -0.053734995251994
0.4665516537756538 0.5021486456303156 -0.053734995251994
0.4615591842167867 0.5205944040004545 -0.053734995251994
0.46088505427635257 0.279558755298283 -0.053734995251994
0.46183274419261494 0.3336552405183358 -0.053734995251994
0.6241808198475939 0.4209697228032577 -0.053734995251994
0.5504368663635849 0.3249110912909659 -0.053734995251994
0.47384007313165144 0.5139312645892072 -0.053734995251994
0.3299963758416319 0.44536541064766294 -0.053734995251994
0.2300004346772394 0.35189582890660365 -0.053734995251994
0.3624523129738363 0.4775868678005859 -0.0524648953642196
0.7024189729344972 0.4214777627583675 -0.0524648953642196
0.3035099081819672 0.3314081407168889 -0.0524648953642196
0.1326814732763099 0.3869115058126303 -0.05178099542464877
0.41065748871444324 0.28189378509196045 -0.05178099542464877
0.5600993955098068 0.3213352716069241 -0.05178099542464877
0.13073724344810142 0.30611361295190465 -0.05178099542464877
0.2758021906302118 0.5170576643129597 -0.05178099542464877
0.21850114569331275 0.5134232246340976 -0.05178099542464877
0.12634074383657462 0.506095725281553 -0.05178099542464877
0.5664205849512689 0.33029436081530206 -0.05178099542464877
0.31507758715985096 0.4428447508703876 -0.05178099542464877
0.2419491436214555 0.44927341030235346 -0.05178099542464877
0.3256194162283786 0.5348195227435281 -0.051292495467812456
0.4579247445379246 0.40861067389529904 -0.05051089553687438
0.34520826449751457 0.2557492674020813 -0.05051089553687438
0.6380737586200187 0.447221710483641 -0.05051089553687438
0.46262411412268983 0.5172432942965575 -0.04982699559730354
0.14364341230771668 0.3853287659524806 -0.04982699559730354
0.47274583322833813 0.3904970954958087 -0.04982699559730354
0.4518966550705645 0.2759145456202841 -0.04982699559730354
0.3197671867454796 0.5194220041040474 -0.04982699559730354
0.30437943810513585 0.27490823570920137 -0.04982699559730354
0.48237905237715023 0.3261030311856465 -0.04982699559730354
0.48287732233312314 0.47702020785065585 -0.04982699559730354
0.36733731254219937 0.3387747200659803 -0.04982699559730354
0.34340081465722017 0.4433039408298137 -0.04982699559730354
0.3454232044785226 0.5386689024033979 -0.048556895709529146
0.35329782378272384 0.38133283630555964 -0.048556895709529146
0.6252066697569503 0.3314081407168889 -0.048556895709529146
0.1315383833773129 0.3869603558083139 -0.047872995769958314
0.4378376263128154 0.2817081551083628 -0.047872995769958314
0.4878697918919903 0.28293917499959015 -0.047872995769958314
0.2460818532562907 0.2879902645532777 -0.047872995769958314
0.3259125162024804 0.5198128040695166 -0.047872995769958314
0.12513903394275724 0.4124502835560324 -0.047872995769958314
0.44576109561270044 0.5309017530897008 -0.047872995769958314
0.2283297648248593 0.5184547741895116 -0.047872995769958314
0.4802101125687969 0.4702593684480413 -0.047872995769958314
0.2402296237733917 0.4447889806985961 -0.047872995769958314
0.339199715028428 0.4521360200494143 -0.047872995769958314
0.3664482426207573 0.47178348831337064 -0.047872995769958314
0.360107513181022 0.4746656380587049 -0.04660289588218392
0.4594684044015273 0.3056739629907521 -0.04660289588218392
0.7024189729344972 0.4343448516214358 -0.04660289588218392
0.4743578830858979 0.28930921443673563 -0.04591899594261308
0.4647637439336328 0.4583595094995089 -0.04591899594261308
0.6100240910984778 0.4361913814582771 -0.04591899594261308
0.287887679562342 0.5165593943569867 -0.04591899594261308
0.46648326378169663 0.5230173637863625 -0.04591899594261308
0.5176585192598684 0.28858623450061793 -0.04591899594261308
0.6001857019677944 0.3415982498164942 -0.04591899594261308
0.5493621664585449 0.3136658222845941 -0.04591899594261308
0.6238974898726288 0.39775620485439633 -0.04591899594261308
0.33831064510698583 0.34928723913709775 -0.04591899594261308
0.3314032557173205 0.345457399475501 -0.04591899594261308
0.3609868131033273 0.550158421388188 -0.044648896054838655
0.35320012379135657 0.38133283630555964 -0.044648896054838655
0.5608712254416083 0.2645911166208184 -0.044648896054838655
0.198687587444032 0.5048647053903255 -0.043964996115267815
0.46099252426685655 0.5164323843682092 -0.043964996115267815
0.1420118224518834 0.3891195256175304 -0.043964996115267815
0.4752567230064768 0.4678266386629965 -0.043964996115267815
0.13075678344637484 0.49892454591519586 -0.043964996115267815
0.40941669882407905 0.2703847261088971 -0.043964996115267815
0.16453167046203732 0.5061445752772366 -0.043964996115267815
0.49701451108396594 0.524326543670684 -0.043964996115267815
0.4838543222467958 0.4765219378946828 -0.043964996115267815
0.48693187197486454 0.3005837934405178 -0.043964996115267815
0.3297912058597606 0.4462251705716949 -0.043964996115267815
0.22929699473939508 0.4493808802928574 -0.043964996115267815
0.39668638994892486 0.550158421388188 -0.04269489622749342
0.3035099081819672 0.4214777627583675 -0.04269489622749342
0.5222601888532664 0.24132874867627335 -0.04269489622749342
0.14968127177421342 0.4028561444037673 -0.04201099628792259
0.11720579464373562 0.3614508880623218 -0.04201099628792259
0.3466346843714766 0.34002527995548126 -0.04201099628792259
0.3485105242057279 0.4563175796799331 -0.04201099628792259
0.636207688784904 0.40074582459023456 -0.04201099628792259
0.36104543309814763 0.525899513531697 -0.04201099628792259
0.43895140621440226 0.27108816604674135 -0.04201099628792259
0.5763469040741825 0.4779972077643284 -0.04201099628792259
0.2540346325535859 0.2782886554105085 -0.04201099628792259
0.46534017388269977 0.45819341951418446 -0.04201099628792259
0.4851537321319804 0.29397927402409085 -0.04201099628792259
0.3761400817643896 0.2560130573787728 -0.041522496331086275
0.4193234779487194 0.447221710483641 -0.0407408964001482
0.4707918334009929 0.24132874867627335 -0.0407408964001482
0.1490657618285998 0.40342280435369754 -0.04005699646057736
0.24010261378461434 0.43932755118116623 -0.04005699646057736
0.23224753447868646 0.3525797288461744 -0.04005699646057736
0.5523517861943832 0.3083900227507619 -0.04005699646057736
0.36901775239371626 0.5274334033961631 -0.04005699646057736
0.3341193154773303 0.2748203057169708 -0.04005699646057736
0.5313853680469687 0.292044814195019 -0.04005699646057736
0.4202907078632553 0.27717487550892184 -0.04005699646057736
0.4519455050662481 0.47673687787569086 -0.04005699646057736
0.5470662166614141 0.49145049657560047 -0.04005699646057736
0.38119117131807717 0.5467486916894705 -0.039568496503741044
0.3065679179117625 0.36500716774809017 -0.038786896572802966
0.5608712254416083 0.28241159504620705 -0.038786896572802966
0.14797152192528637 0.3952843950728046 -0.038102996633232133
0.3465272143809726 0.3399275799641141 -0.038102996633232133
0.36894936239975923 0.3326098506107061 -0.038102996633232133
0.6391289185267849 0.40158604451599295 -0.038102996633232133
0.3456088344621203 0.5275017933901199 -0.038102996633232133
0.38842097067925446 0.2693295662021306 -0.038102996633232133
0.5131545496578376 0.5171651343034637 -0.038102996633232133
0.44087609604433736 0.2616210368832538 -0.038102996633232133
0.490986421616606 0.3235335214126875 -0.038102996633232133
0.5765520740560537 0.3334403005373279 -0.038102996633232133
0.3065679179117625 0.3684657474424912 -0.036832896745457734
0.4579247445379246 0.4214777627583675 -0.036832896745457734
0.6123395808938819 0.29032529434695514 -0.036832896745457734
0.12084023432259776 0.4018107544961376 -0.0361489968058869
0.33831064510698583 0.34812460923982735 -0.0361489968058869
0.34304909468829803 0.3492676991388242 -0.0361489968058869
0.48059114253512925 0.5247564236327 -0.0361489968058869
0.36687812258277325 0.528215003327101 -0.0361489968058869
0.45015759522422727 0.2700818561356586 -0.0361489968058869
0.42482398746269623 0.5369786925527443 -0.0361489968058869
0.5643004951385991 0.3048825930606773 -0.0361489968058869
0.49188526153718476 0.3243346613418991 -0.0361489968058869
0.47668314288043884 0.4591020294339 -0.0361489968058869
0.3035099081819672 0.37000940730609394 -0.034878896918112474
0.45994713435922685 0.37000940730609394 -0.034878896918112474
0.6766750252092238 0.38287649616916225 -0.034878896918112474
0.1502479317241436 0.4060216241240667 -0.034194996978541635
0.31838961686720113 0.44503323067701434 -0.034194996978541635
0.36556894269845197 0.4697220184955214 -0.034194996978541635
0.486560612007669 0.5143611445512234 -0.034194996978541635
0.4735762831549598 0.5262610034997559 -0.034194996978541635
0.4394301361721019 0.27252435591984014 -0.034194996978541635
0.4650275339103244 0.4629318690954966 -0.034194996978541635
0.3751533118515803 0.522216223857151 -0.034194996978541635
0.4973466910546147 0.5091830450087584 -0.034194996978541635
0.43528765653812995 0.5486147615245852 -0.03292489709076724
0.4579247445379246 0.37000940730609394 -0.03292489709076724
0.6380737586200187 0.35714231844302563 -0.03292489709076724
0.13530960304408932 0.38495750598528505 -0.03224099715119641
0.3387893750646855 0.348134379238964 -0.03224099715119641
0.3736194219871143 0.34214536976815085 -0.03224099715119641
0.55185351623841 0.49628664614827983 -0.03224099715119641
0.3761205417661162 0.530501183125095 -0.03224099715119641
0.4422145859260688 0.2677663663402544 -0.03224099715119641
0.4154936382871227 0.5294948732140121 -0.03224099715119641
0.4623114741503146 0.5376919024897254 -0.03224099715119641
0.5978213621767068 0.3435033996481559 -0.03224099715119641
0.49210997151732944 0.4721352082822928 -0.03224099715119641
0.3528386338232978 0.3957435850322307 -0.030970897263422014
0.42005622788397384 0.24132874867627335 -0.030970897263422014
0.5737383143046767 0.5372913325251196 -0.030970897263422014
0.24086467371727902 0.3546118886666136 -0.030286997323851178
0.23491474424301267 0.4459516105958665 -0.030286997323851178
0.22619990501305295 0.3558233685595676 -0.030286997323851178
0.4738693831290616 0.46760192868285183 -0.030286997323851178
0.4593511644118866 0.5305304931225051 -0.030286997323851178
0.48513419213370695 0.32674785112867044 -0.030286997323851178
0.4610706842599503 0.4728288782210003 -0.030286997323851178
0.3590328132759822 0.5217472638985882 -0.030286997323851178
0.5870157431314877 0.46291232909722324 -0.030286997323851178
0.4216096577467134 0.24132874867627335 -0.029798497367014863
0.32507229627672196 0.4614859092232612 -0.029016897436076782
0.49652601112712963 0.25419583753934183 -0.029016897436076782
0.6895421140722923 0.447221710483641 -0.029016897436076782
0.24010261378461434 0.43932755118116623 -0.02833299749650595
0.31374886727725626 0.45103201014696426 -0.02833299749650595
0.3232746164355642 0.42904951208933034 -0.02833299749650595
0.37679467170655034 0.5325040329481238 -0.02833299749650595
0.3916548403935109 0.2649526065888773 -0.02833299749650595
0.4957248711979182 0.27286630588962557 -0.02833299749650595
0.4409151760408843 0.2746053657359628 -0.02833299749650595
0.45287365498423704 0.47709836784374965 -0.02833299749650595
0.4774158928156932 0.4415844209817499 -0.02833299749650595
0.3065679179117625 0.40861067389529904 -0.027062897608731554
0.35959947322591224 0.3249697112857863 -0.027062897608731554
0.7024189729344972 0.3957435850322307 -0.027062897608731554
0.23641932411006847 0.35944803823929294 -0.026378997669160718
0.34232611475218033 0.34081664988555616 -0.026378997669160718
0.36588158267082715 0.4723208382658905 -0.026378997669160718
0.488700241818612 0.5215518639158538 -0.026378997669160718
0.42901531709235174 0.5354350326891417 -0.026378997669160718
0.4617545841995212 0.33266847060552646 -0.026378997669160718
0.4856617720870902 0.5191484441282191 -0.026378997669160718
0.4802394225662071 0.5360798526321656 -0.026378997669160718
0.6017489018296706 0.34333730966283144 -0.026378997669160718
0.4519161950688379 0.24132874867627335 -0.025890497712324403
0.4746509830599997 0.4986900659359146 -0.02510889778138629
0.4610218342642667 0.2528671176567471 -0.02510889778138629
0.6766750252092238 0.44969352026523274 -0.02510889778138629
0.32028499669972604 0.3607865281210244 -0.024424997841815455
0.3348716054108583 0.463918639008306 -0.024424997841815455
0.37740041165302735 0.34551601947032134 -0.024424997841815455
0.48766462191011906 0.27513294568934604 -0.024424997841815455
0.40224551945772197 0.26361411670714585 -0.024424997841815455
0.498978280910448 0.2724657359250198 -0.024424997841815455
0.4498058752553051 0.27436111575754457 -0.024424997841815455
0.45416329487028495 0.45886754945461855 -0.024424997841815455
0.5665573649391829 0.3126888223709214 -0.024424997841815455
0.3035099081819672 0.38287649616916225 -0.023154897954041062
0.31637699704503564 0.3056739629907521 -0.023154897954041062
0.5737383143046767 0.5269058234427798 -0.023154897954041062
0.32028499669972604 0.43932755118116623 -0.022470998014470226
0.3346468954307135 0.4562882696825229 -0.022470998014470226
0.5408329572121829 0.2933637640784771 -0.022470998014470226
0.4170470681498621 0.5358746826502943 -0.022470998014470226
0.4286929071208398 0.25979404704468584 -0.022470998014470226
0.4196849679167783 0.5435929819683081 -0.022470998014470226
0.6347324189152582 0.4384873312554078 -0.022470998014470226
0.4977668010174938 0.32876047095083605 -0.022470998014470226
0.4978547310097244 0.47146107834185863 -0.022470998014470226
0.3256878062223356 0.3314081407168889 -0.02120089812669583
0.4610218342642667 0.24288217853901287 -0.02120089812669583
0.6123395808938819 0.47481218804575576 -0.02120089812669583
0.6417765882928378 0.4171691931390712 -0.020516998187124994
0.4124551685556008 0.26276412678225064 -0.020516998187124994
0.5223481188454969 0.5205064740082241 -0.020516998187124994
0.6198820202274343 0.3426924897198075 -0.020516998187124994
0.597635732193109 0.33531614037157925 -0.020516998187124994
0.3107885575388283 0.44495507068392054 -0.020516998187124994
0.23460210427063746 0.446401030556156 -0.020516998187124994
0.23306821440617148 0.45546758975503787 -0.020516998187124994
0.3525259938509224 0.37000940730609394 -0.0192468982993506
0.46235055414686144 0.251548167773289 -0.0192468982993506
0.6252066697569503 0.501171645716643 -0.0192468982993506
0.6275612395489011 0.36190030802261125 -0.018562998359779766
0.4390588762049062 0.26376066669419673 -0.018562998359779766
0.6345467889316604 0.4356735715040307 -0.018562998359779766
0.5486782665189741 0.2871695846257927 -0.018562998359779766
0.501156990717938 0.5143611445512234 -0.018562998359779766
0.6484885776997685 0.39805907482763475 -0.018562998359779766
0.34504217451219027 0.33974194998051627 -0.018562998359779766
0.34384046461837287 0.45479345981460373 -0.018562998359779766
0.35497826363424073 0.4986900659359146 -0.017292898472005373
0.49652601112712963 0.25419583753934183 -0.017292898472005373
0.5914024727438776 0.4760334379378465 -0.016608998532434537
0.44609327558334916 0.5410723221910326 -0.016608998532434537
0.4850462621414764 0.2707364460778192 -0.016608998532434537
0.4849583321492459 0.5251276835998955 -0.016608998532434537
0.48194917241513413 0.53842465242498 -0.016608998532434537
0.5036971904934866 0.27855244538720014 -0.016608998532434537
0.31199026743264546 0.44058788106980395 -0.016608998532434537
0.2403077837664856 0.3514659489445877 -0.016608998532434537
0.3765113417315853 0.3331472005632261 -0.016608998532434537
0.4614810242236928 0.40861067389529904 -0.015338898644660108
0.7024189729344972 0.4214777627583675 -0.015338898644660108
0.5019483606480127 0.321520901590522 -0.014654998705089272
0.42877106711393353 0.25926646709130274 -0.014654998705089272
0.6584735168175029 0.40028663463080844 -0.014654998705089272
0.5323232879640944 0.27778061545539884 -0.014654998705089272
0.5023977806083021 0.4702105184523577 -0.014654998705089272
0.3107885575388283 0.44495507068392054 -0.014654998705089272
0.33831064510698583 0.3472550793166587 -0.014654998705089272
0.3685976424308371 0.33112481074192374 -0.014654998705089272
0.6252066697569503 0.466703088762273 -0.013384898817314878
0.4140672184131607 0.3442752295799572 -0.013384898817314878
0.5026029505901733 0.47458747806561097 -0.012700998877744044
0.4458294856066576 0.5371447825380689 -0.012700998877744044
0.6013483318650649 0.3253312012538452 -0.012700998877744044
0.5248296986262254 0.27392146579639204 -0.012700998877744044
0.648586277691136 0.40796585395227525 -0.012700998877744044
0.5097838999556671 0.5150938944864777 -0.012700998877744044
0.3381836351182085 0.454109559875033 -0.012700998877744044
0.3343537954566117 0.45698193962123046 -0.012700998877744044
0.6053931115076696 0.4858229770728461 -0.01143089898996965
0.4503725352052351 0.31656751202820177 -0.01143089898996965
0.3065679179117625 0.40861067389529904 -0.01143089898996965
0.4614321742280092 0.5356792826675599 -0.010746999050398814
0.4607580442875751 0.2592469270930292 -0.010746999050398814
0.4930674314327286 0.28078000519037377 -0.010746999050398814
0.4648419039267267 0.32189216155771755 -0.010746999050398814
0.5465581767063044 0.5048158553946418 -0.010746999050398814
0.5064132502534966 0.3272461210846435 -0.010746999050398814
0.32028499669972604 0.43932755118116623 -0.010746999050398814
0.22994181468241903 0.35018607905767657 -0.010746999050398814
0.6509408474830869 0.4858229770728461 -0.009476899162624385
0.3831158611480121 0.3442752295799572 -0.009476899162624385
0.46760681368242024 0.332433990626245 -0.00879299922305355
0.4622821641529044 0.535991922639935 -0.00879299922305355
0.6074936613220655 0.4711386683703467 -0.00879299922305355
0.6643550562978121 0.39422923516603814 -0.00879299922305355
0.6458213679354423 0.4156646132720154 -0.00879299922305355
0.5090218400230024 0.33887242005734763 -0.00879299922305355
0.3362784852865468 0.45224349003991826 -0.00879299922305355
0.36395689284089205 0.46594102882960836 -0.00879299922305355
0.3065679179117625 0.37000940730609394 -0.00752289933527919
0.33234117563444626 0.3260053311942792 -0.00752289933527919
0.49652601112712963 0.5440130919311872 -0.00752289933527919
0.5076051901481772 0.5129347246772613 -0.006838999395708355
0.6323583091250338 0.35341994877193295 -0.006838999395708355
0.5499483664067485 0.2836914649331182 -0.006838999395708355
0.532909487912298 0.5104336048982594 -0.006838999395708355
0.5012644607084419 0.3789489565161985 -0.006838999395708355
0.2419491436214555 0.44117408101800754 -0.006838999395708355
0.3662137626414759 0.33770979016007724 -0.006838999395708355
0.3759056017851082 0.47338576817179373 -0.006838999395708355
0.35497826363424073 0.4986900659359146 -0.005568899507933926
0.49652601112712963 0.2556320274124406 -0.005568899507933926
0.5607637554511044 0.5025394455957846 -0.004884999568363091
0.46344479405017486 0.4681099686379615 -0.004884999568363091
0.4654964938688873 0.5320448429886976 -0.004884999568363091
0.4678706036591118 0.544061941926871 -0.004884999568363091
0.5368858775609456 0.4505532801892646 -0.004884999568363091
0.5281514983327122 0.502988865556074 -0.004884999568363091
0.3380663951285678 0.347206229320975 -0.004884999568363091
0.3439870146054238 0.4554285097584909 -0.004884999568363091
0.32700675610579366 0.4456487406226281 -0.004884999568363091
0.6123395808938819 0.29032529434695514 -0.0036148996805887316
0.3827250611825431 0.4600887993467093 -0.0036148996805887316
0.506608650236231 0.2735111258326495 -0.002930999741017896
0.4568988946285683 0.2585434871551849 -0.002930999741017896
0.48411811222348744 0.5286448832891171 -0.002930999741017896
0.5652774950522718 0.5094566049845867 -0.002930999741017896
0.531522148034883 0.4472021704853675 -0.002930999741017896
0.5352054377094285 0.46211118916801175 -0.002930999741017896
0.5472518466450119 0.32809611100953856 -0.002930999741017896
0.32866765595903713 0.3511728489704859 -0.002930999741017896
0.3680309824809069 0.4683835286137899 -0.002930999741017896
0.3336796655161777 0.3529412188142333 -0.002930999741017896
0.4914163015786219 0.4986900659359146 -0.0016608998532434676
0.5222601888532664 0.2517240277577501 -0.0016608998532434676
0.2348365842499189 0.44910732031702916 -9.76999913672632E-4
0.34458298455276415 0.33930230001936357 -9.76999913672632E-4
0.364924122755428 0.4706697084117838 -9.76999913672632E-4
0.47658544288907156 0.4583595094995089 -9.76999913672632E-4
0.48263307235470504 0.4658726388356512 -9.76999913672632E-4
0.5568264457990038 0.5060371052867326 -9.76999913672632E-4
0.48075723252045355 0.5382097124439719 -9.76999913672632E-4
0.5143464895525182 0.5112249748283342 -9.76999913672632E-4
0.4579247445379246 0.42273809264700524 -4.884999568363507E-4
0.4193234779487194 0.447221710483641 2.930999741017966E-4
0.667921105982717 0.4214777627583675 2.930999741017966E-4
0.23670265408503363 0.44690907051126566 9.76999913672632E-4
0.36391781284434527 0.3378661101462648 9.76999913672632E-4
0.33041648580451116 0.45844743949173944 9.76999913672632E-4
0.46353272404240536 0.4737765681372627 9.76999913672632E-4
0.4655551138637076 0.53734995251994 9.76999913672632E-4
0.472999853205893 0.26405376666829855 9.76999913672632E-4
0.4525023950170415 0.2685088862746457 9.76999913672632E-4
0.537364607518645 0.49650158612928785 9.76999913672632E-4
0.3035099081819672 0.38287649616916225 0.0022470998014469915
0.6509408474830869 0.4858229770728461 0.0022470998014469915
0.4501380552259537 0.3442752295799572 0.0022470998014469915
0.23257971444933506 0.3602394081693678 0.0029309997410178266
0.3460387144241362 0.46109510925779207 0.0029309997410178266
0.3458042344448549 0.3483004692242884 0.0029309997410178266
0.45931208441533966 0.47448977807424375 0.0029309997410178266
0.4616373442098805 0.5416682921383731 0.0029309997410178266
0.46496891391550405 0.25855325715432165 0.0029309997410178266
0.5193389591113854 0.2819524050867808 0.0029309997410178266
0.5609200754372918 0.4979280060032499 0.0029309997410178266
0.5608712254416083 0.25419583753934183 0.004201099628792255
0.5155872794428825 0.5059980252901857 0.004201099628792255
0.5025931805910365 0.3162157920592796 0.004201099628792255
0.36454309278909564 0.4706892484100573 0.004884999568363091
0.5093149399971042 0.3255168312374429 0.004884999568363091
0.5424547770688795 0.2963143038177683 0.004884999568363091
0.45914599443001536 0.26533363655520964 0.004884999568363091
0.5248590086236357 0.269886456152924 0.004884999568363091
0.5498018164196974 0.5035848355034143 0.004884999568363091
0.45022598521818424 0.4600887993467093 0.0061550994561374505
0.6407311983852082 0.4600887993467093 0.0061550994561374505
0.3379784651363372 0.34820276923292115 0.006838999395708286
0.4636206540346359 0.4748317280440292 0.006838999395708286
0.4718958433034429 0.5382683324387922 0.006838999395708286
0.5398266473011001 0.5155335444476304 0.006838999395708286
0.47099700338286415 0.5436418319639917 0.006838999395708286
0.5422984570826918 0.4977228360213786 0.006838999395708286
0.3104661475673163 0.46062614929922935 0.008109099283482715
0.3054150580136289 0.36160720804850943 0.008109099283482715
0.6199308702231182 0.3185410518538204 0.008109099283482715
0.34695709434298855 0.46151521922067135 0.00879299922305355
0.4603477043238326 0.4638697890126224 0.00879299922305355
0.4711044733733681 0.5396752123144808 0.00879299922305355
0.5466265667002616 0.511019804846463 0.00879299922305355
0.5481799965630009 0.504024485464567 0.00879299922305355
0.5792779038152005 0.3085463427369496 0.00879299922305355
0.7024189729344972 0.37000940730609394 0.010063099110827978
0.3035099081819672 0.3629652379285144 0.010063099110827978
0.3517639339182579 0.38133283630555964 0.010063099110827978
0.33030901581400707 0.3338701804993438 0.010746999050398814
0.467079233729037 0.4766489478834603 0.010746999050398814
0.5585459656470675 0.5023733556104603 0.010746999050398814
0.5133792596379823 0.26877267625133733 0.010746999050398814
0.6589033967795187 0.3710352572154502 0.010746999050398814
0.5774997639723162 0.32397317137384013 0.010746999050398814
0.5994724920308133 0.5244242436620512 0.012017098938173173
0.5161441693936758 0.4600887993467093 0.012017098938173173
0.3468593943516213 0.33851093008928873 0.01270099887774401
0.4760383229374149 0.46409449899276706 0.01270099887774401
0.4784905927207331 0.3341437404751721 0.01270099887774401
0.6422162382539904 0.43965973115181495 0.01270099887774401
0.5308968680901325 0.525899513531697 0.01270099887774401
0.5617016753682301 0.3108325225349435 0.01270099887774401
0.5378042574797979 0.30148263336109654 0.013971098765518438
0.535195667710292 0.3314081407168889 0.013971098765518438
0.6354651688505126 0.3314081407168889 0.013971098765518438
0.3472404243179536 0.3461706094124821 0.014654998705089272
0.4642361639802497 0.32504787127888 0.014654998705089272
0.4872738219446499 0.5352982527012274 0.014654998705089272
0.5657073750142878 0.2962947638194949 0.014654998705089272
0.48139228246434085 0.25549524742452634 0.014654998705089272
0.5988960620817465 0.47909144766764183 0.014654998705089272
0.3035099081819672 0.35714231844302563 0.015925098592863632
0.5417122571344883 0.35714231844302563 0.015925098592863632
0.6638079363461553 0.3314081407168889 0.015925098592863632
0.37632571174798746 0.34449993956010183 0.016608998532434468
0.46439248396643723 0.3249892512840597 0.016608998532434468
0.49208066151991925 0.5343603327841017 0.016608998532434468
0.5428651170326221 0.2874333746024843 0.016608998532434468
0.5118649097717898 0.26288136677189133 0.016608998532434468
0.5894582429156693 0.48173911743369463 0.016608998532434468
0.3035099081819672 0.35714231844302563 0.017879098420208895
0.6027552117407535 0.4986900659359146 0.017879098420208895
0.4515840150981893 0.3442752295799572 0.017879098420208895
0.3644160828003182 0.32896564093270736 0.01856299835977973
0.4742406430962573 0.3411683698544783 0.01856299835977973
0.5692441147017826 0.503379665521543 0.01856299835977973
0.5409111172052766 0.2820403350790114 0.01856299835977973
0.48071815252390676 0.27097092605710066 0.01856299835977973
0.592027752688628 0.3221657215335458 0.01856299835977973
0.4193234779487194 0.45853536948396995 0.01983309824755416
0.7024189729344972 0.4214777627583675 0.01983309824755416
0.37993084142943945 0.32101286163541215 0.01983309824755416
0.3716263421632222 0.47007373846444356 0.020516998187124994
0.4719544632982633 0.37639898674151284 0.020516998187124994
0.4739670831204289 0.5382097124439719 0.020516998187124994
0.5210389389611757 0.2736088258240167 0.020516998187124994
0.5235205187419042 0.2827144650194455 0.020516998187124994
0.6177033104199445 0.3463757793943534 0.020516998187124994
0.5480041365785399 0.4214777627583675 0.021787098074899355
0.5066868102293249 0.25419583753934183 0.021787098074899355
0.33764628516568845 0.45396300988798205 0.02247099801447019
0.4698832234812773 0.46864731859048153 0.02247099801447019
0.47052804342430127 0.4423660209126881 0.02247099801447019
0.5892335329355243 0.31009977259968896 0.02247099801447019
0.5654435850375961 0.2887914044824892 0.02247099801447019
0.5622878753164336 0.5173996142827452 0.02247099801447019
0.4579247445379246 0.41433589338942073 0.02374109790224462
0.6540379372094292 0.3314081407168889 0.02374109790224462
0.5211659489499532 0.5115571547989829 0.02374109790224462
0.3389554650500098 0.45638596967389006 0.024424997841815455
0.47146596334142704 0.3648899277584494 0.024424997841815455
0.4704303434329341 0.35713254844388886 0.024424997841815455
0.6004788019418963 0.3160106220774083 0.024424997841815455
0.48475316216737463 0.2582015371853995 0.024424997841815455
0.6795669449536946 0.3990067647438973 0.024424997841815455
0.6438869081063707 0.4729558882097778 0.024913497798651735
0.6617269265300327 0.4439096807762909 0.025695097729589812
0.5608712254416083 0.3314081407168889 0.025695097729589812
0.5608712254416083 0.30692452288025307 0.025695097729589812
0.33357219552567363 0.3349448804043837 0.02637899766916065
0.47485615304187095 0.45918995942613056 0.02637899766916065
0.478031402761307 0.2587779671344663 0.02637899766916065
0.6104735110587671 0.47580872795770174 0.02637899766916065
0.4856520020879534 0.5423717320762174 0.02637899766916065
0.5064132502534966 0.5237305737233436 0.02637899766916065
0.6605936066301723 0.4600887993467093 0.026867497625997
0.6669050260724976 0.4439096807762909 0.02764909755693508
0.49652601112712963 0.3031923832100236 0.02764909755693508
0.3235774864088028 0.3442752295799572 0.02764909755693508
0.36320460290736417 0.4629318690954966 0.028332997496505915
0.4701274734596955 0.4728191082218635 0.028332997496505915
0.48188078242117716 0.45941466940627523 0.028332997496505915
0.6174199804449795 0.47040591843509216 0.028332997496505915
0.6771342151686499 0.4018498344926846 0.028332997496505915
0.6735779354828815 0.3831305161467173 0.028332997496505915
0.6323973891215806 0.35820724834892875 0.028332997496505915
0.35497826363424073 0.40861067389529904 0.029603097384280342
0.4579247445379246 0.38287649616916225 0.029603097384280342
0.6590499467665697 0.3442752295799572 0.029603097384280342
0.33879914506382214 0.456532519660941 0.030286997323851178
0.47466075305913646 0.36159743804937267 0.030286997323851178
0.4709090733906336 0.35482682864762144 0.030286997323851178
0.5188113791580021 0.528215003327101 0.030286997323851178
0.6157297705943259 0.3349937304000673 0.030286997323851178
0.6198527102300243 0.3401229799468486 0.030286997323851178
0.620507300172185 0.4485895103627827 0.030286997323851178
0.6438869081063707 0.4704938484273227 0.03077549728068746
0.5608712254416083 0.4729558882097778 0.031557097211625536
0.5222601888532664 0.2517240277577501 0.031557097211625536
0.4627218141140571 0.37827482657576433 0.031557097211625536
0.33369920551445115 0.469126048548181 0.032240997151196375
0.45862818447576875 0.46059683930181916 0.032240997151196375
0.5459915167563744 0.5180932842214526 0.032240997151196375
0.6102488010786224 0.3219996315482215 0.032240997151196375
0.6342927689541057 0.3377586401557608 0.032240997151196375
0.5487661965112045 0.2747714557212871 0.032240997151196375
0.35497826363424073 0.4214777627583675 0.0335110970389708
0.6509408474830869 0.4754276979913695 0.0335110970389708
0.3035099081819672 0.447221710483641 0.0335110970389708
0.36515860273470946 0.4676605486776722 0.034194996978541635
0.5078396701274586 0.4749685080319433 0.034194996978541635
0.4577977345491471 0.3211007916276427 0.034194996978541635
0.64926040763157 0.35534463860186793 0.034194996978541635
0.5617016753682301 0.5154553844545366 0.034194996978541635
0.6047482915646457 0.49300392643833985 0.034194996978541635
0.6667780160837201 0.4013906445332585 0.034194996978541635
0.3263033161679494 0.4729558882097778 0.03546509686631599
0.6509408474830869 0.4754276979913695 0.03546509686631599
0.35497826363424073 0.4343448516214358 0.03546509686631599
0.345442744476796 0.34619991940989225 0.03614899680588683
0.4682809436228542 0.35793368837310036 0.03614899680588683
0.49342892140078753 0.5359137626468413 0.03614899680588683
0.6741152854354016 0.4053963441793162 0.03614899680588683
0.4909375716209223 0.2557981173977649 0.03614899680588683
0.6168044704993656 0.48374196725672347 0.03614899680588683
0.667921105982717 0.40232856445038423 0.03614899680588683
0.501156990717938 0.24874417802104853 0.03741909669366126
0.518137249217568 0.423031192621107 0.03741909669366126
0.618895250314625 0.47206681828833563 0.0381029966332321
0.6541160972025231 0.3780403465964829 0.0381029966332321
0.6646090762753668 0.40044295461699597 0.0381029966332321
0.4952363712410818 0.2528573476576103 0.0381029966332321
0.4709383833880438 0.4050641642086674 0.0381029966332321
0.48166584244016913 0.4668398687501872 0.0381029966332321
0.6287336394453084 0.3588813782893629 0.039373096521006526
0.5866054031677452 0.26706292640241014 0.039373096521006526
0.5093930999901981 0.5115571547989829 0.039373096521006526
0.4901364316917108 0.5366562825812324 0.04005699646057736
0.49713175107360663 0.5449021618526293 0.04005699646057736
0.6524454273501427 0.4154203632935972 0.04005699646057736
0.6034000316837774 0.3251358012711106 0.04005699646057736
0.46623901380327853 0.4758478079542487 0.04005699646057736
0.48279916234002934 0.3403379199278565 0.04005699646057736
0.36414252282448994 0.3261518811813301 0.04005699646057736
0.5074879501585364 0.24132874867627335 0.041327096348351716
0.6893369440904209 0.3904873254966721 0.041327096348351716
0.3805756613724634 0.32156975158620554 0.041327096348351716
0.48931575176422576 0.5405838222341962 0.042010996287922556
0.500795500749879 0.5429090820287371 0.042010996287922556
0.6603298166534809 0.445863680603636 0.042010996287922556
0.6319088891647445 0.3269823311079519 0.042010996287922556
0.5084551800730723 0.4752127580103615 0.042010996287922556
0.4689941535598353 0.32028011170015763 0.042010996287922556
0.34608756441981997 0.3377781801540342 0.042010996287922556
0.5074879501585364 0.550158421388188 0.042499496244758905
0.5608712254416083 0.4343448516214358 0.04328109617569698
0.7024189729344972 0.37000940730609394 0.04328109617569698
0.3035099081819672 0.4600887993467093 0.04328109617569698
0.49902713090613154 0.5353275626986378 0.043964996115267815
0.5599137655262093 0.5215616339149903 0.043964996115267815
0.6596166067164998 0.36355143787671795 0.043964996115267815
0.5283468983154469 0.2782398054148249 0.043964996115267815
0.4786078327103738 0.35675151847755654 0.043964996115267815
0.46963897350285927 0.43544886152388584 0.043964996115267815
0.3460387144241362 0.46238474914384 0.043964996115267815
0.5125390397122238 0.545947551760259 0.0444534960721041
0.3035099081819672 0.3442752295799572 0.04523509600304218
0.632885889078417 0.35636071851208745 0.04523509600304218
0.5187527591631818 0.447221710483641 0.04523509600304218
0.6766750252092238 0.4600887993467093 0.04523509600304218
0.48535890211385163 0.5486147615245852 0.04591899594261301
0.6769583551841888 0.4048394542285228 0.04591899594261301
0.5223578888446337 0.2716157460001246 0.04591899594261301
0.4786469127069208 0.46511057890298657 0.04591899594261301
0.5090706900186861 0.3209737816388652 0.04591899594261301
0.48714681195587256 0.4583204295029619 0.04591899594261301
0.33976637497835804 0.34081664988555616 0.04591899594261301
0.5125390397122238 0.24132874867627335 0.04640749589944936
0.5093930999901981 0.24903727799515032 0.04718909583038744
0.6252066697569503 0.5115571547989829 0.04718909583038744
0.35497826363424073 0.3957435850322307 0.04718909583038744
0.5124120297234465 0.540525202239376 0.04787299576995828
0.6641108063193939 0.43949364116649053 0.04787299576995828
0.594030602511657 0.3021469933023939 0.04787299576995828
0.5089143700324985 0.3247156913082314 0.04787299576995828
0.45887243445418696 0.3206904516639002 0.04787299576995828
0.48915943177803806 0.36592554766694235 0.04787299576995828
0.3669660525750038 0.4705329284238697 0.04787299576995828
0.4193234779487194 0.447221710483641 0.049143095657732706
0.6163257405416662 0.3056739629907521 0.049143095657732706
0.5191630991269243 0.550158421388188 0.049143095657732706
0.5577057457213092 0.4986900659359146 0.049143095657732706
0.6101022510915717 0.47175417831596045 0.04982699559730354
0.664677466269324 0.43863388124245867 0.04982699559730354
0.5303302081402022 0.2659198365034133 0.04982699559730354
0.4742601830945307 0.3903993955044415 0.04982699559730354
0.47910610266634684 0.4034423443519709 0.04982699559730354
0.3367767552425199 0.4576267595642544 0.04982699559730354
0.5351272777163348 0.5390303923714569 0.050315495554139826
0.3035099081819672 0.4600887993467093 0.051097095485077904
0.7024189729344972 0.4343448516214358 0.051097095485077904
0.5192217191217446 0.35714231844302563 0.051097095485077904
0.5259727885252223 0.5319080630007836 0.051780995424648736
0.6619125565136306 0.43575173149712443 0.051780995424648736
0.6217676300608226 0.33330352054941365 0.051780995424648736
0.4782951927379986 0.39132754542243053 0.051780995424648736
0.47307801319898674 0.44809124040680964 0.051780995424648736
0.5025541005944898 0.34498843951693825 0.051780995424648736
0.33194060566984035 0.33057769079026705 0.051780995424648736
0.4595172543972109 0.4343448516214358 0.05305109531242316
0.6341950689627383 0.3157370621015799 0.05305109531242316
0.5297537781911353 0.5110588848430099 0.05305109531242316
0.49919322089145585 0.5351321627159031 0.053734995251994
0.5295290682109907 0.5363045626123103 0.053734995251994
0.5297440081919986 0.27375537581106757 0.053734995251994
0.5035408705072991 0.4715001583384056 0.053734995251994
0.47291192321366243 0.3644600477964335 0.053734995251994
0.3441237945933379 0.33765117016525686 0.053734995251994
0.5378042574797979 0.5418441521228341 0.05422349520883028
0.5222601888532664 0.29125344426494426 0.05500509513976836
0.5922622326679094 0.5115571547989829 0.05500509513976836
0.35497826363424073 0.40861067389529904 0.05500509513976836
0.4915140015699891 0.5476084516135026 0.05568899507933919
0.6867381243200518 0.3939068251945262 0.05568899507933919
0.5539345260545326 0.27497662570315834 0.05568899507933919
0.4958714211849691 0.33683049023777184 0.05568899507933919
0.33813478512252476 0.4571675696048283 0.05568899507933919
0.5580086156945474 0.5301299231578993 0.05617749503617554
0.3035099081819672 0.4729558882097778 0.05695909496711362
0.7024189729344972 0.3957435850322307 0.05695909496711362
0.5196809090811707 0.3442752295799572 0.05695909496711362
0.5574810357411643 0.5147812545141025 0.05764299490668446
0.6604372866439848 0.4256984023854332 0.05764299490668446
0.49756163103562256 0.25722453727172695 0.05764299490668446
0.46844703360817863 0.32492086129010267 0.05764299490668446
0.47160274332934116 0.36854390743558496 0.05764299490668446
0.34610710441809334 0.4550181697947484 0.05764299490668446
0.5198372290673583 0.35714231844302563 0.05891309479445889
0.6733923054992836 0.3610307780994426 0.05891309479445889
0.35048406403134674 0.4214777627583675 0.05891309479445889
0.4648809839232735 0.40991985377962037 0.05891309479445889
0.6226176199857176 0.4622088891593789 0.059596994734029726
0.5101746999211362 0.2678249863350748 0.059596994734029726
0.6276100895445847 0.33291272058394467 0.059596994734029726
0.46992230347782427 0.43616207146086694 0.059596994734029726
0.36216898299887124 0.4676410086793986 0.059596994734029726
0.3205683266746911 0.4127043035335874 0.060085494690866006
0.3035099081819672 0.4214777627583675 0.060867094621804084
0.6523477273587756 0.35714231844302563 0.060867094621804084
0.5199837790544092 0.4343448516214358 0.060867094621804084
0.5562890958464838 0.5156019344415875 0.06155099456137492
0.6722882955968336 0.37603749677345405 0.06155099456137492
0.5490202164887594 0.2725145859207034 0.06155099456137492
0.4679292236539322 0.4765023978964094 0.06155099456137492
0.34557952446471013 0.4628243991049927 0.06155099456137492
0.3289705259322756 0.33269778060293664 0.06155099456137492
0.32270795648563416 0.4600887993467093 0.062039494518211266
0.6382496186044798 0.3185410518538204 0.062039494518211266
0.5681107948019225 0.525928823529107 0.062039494518211266
0.5281514983327122 0.5306770431095561 0.06350499438872018
0.5372962175246879 0.5356304326718763 0.06350499438872018
0.5595718155564235 0.2854891447742758 0.06350499438872018
0.5043127004391004 0.471803028311644 0.06350499438872018
0.4736837531454639 0.3609135381098019 0.06350499438872018
0.3324681856232236 0.38185064625980614 0.06350499438872018
0.6539988572128823 0.35167111892645897 0.06399349434555647
0.5201400990405969 0.4600887993467093 0.06399349434555647
0.3035099081819672 0.4600887993467093 0.06399349434555647
0.46074827428843845 0.4251415124346398 0.06399349434555647
0.5737676243020867 0.5114692248067524 0.06545899421606538
0.6647458562632811 0.35701530845424817 0.06545899421606538
0.5306721581099876 0.2623635568176449 0.06545899421606538
0.46123677424527476 0.4616129192120387 0.06545899421606538
0.33670836524856274 0.41663184318655133 0.06545899421606538
0.5819548835786635 0.2815127551256281 0.06594749417290173
0.4539385848901403 0.3185410518538204 0.0667290941038398
0.6438869081063707 0.4652668988891742 0.0667290941038398
0.6438869081063707 0.3185410518538204 0.0667290941038398
0.47576476296158654 0.4858229770728461 0.0667290941038398
0.5902593828448808 0.49255450647805055 0.06741299404341064
0.6620688764998182 0.44907801031961897 0.06741299404341064
0.5544425660096426 0.29203504419588233 0.06741299404341064
0.51353557962417 0.4787690376961299 0.06741299404341064
0.3331911655593413 0.37871447653691703 0.06741299404341064
0.32573665621801934 0.42598173236039827 0.06741299404341064
0.6638079363461553 0.3435424796447027 0.06790149400024692
0.35708858344777356 0.4775184778066289 0.06868309393118507
0.5222601888532664 0.48426954721010657 0.06868309393118507
0.6252066697569503 0.34741139930284626 0.06868309393118507
0.35497826363424073 0.4343448516214358 0.06868309393118507
0.6414053283256421 0.4709530383867488 0.0693669938707559
0.5781543539144769 0.2956694838747445 0.0693669938707559
0.47143665334401685 0.4702593684480413 0.0693669938707559
0.47376191313855764 0.42653862231119166 0.0693669938707559
0.3363371052813672 0.36896401739846424 0.0693669938707559
0.6559919370367743 0.33974194998051627 0.06985549382759218
0.4579247445379246 0.40861067389529904 0.06985549382759218
0.4608948242754892 0.42478979246571763 0.07063709375853026
0.5480041365785399 0.4214777627583675 0.07063709375853026
0.6766750252092238 0.3442752295799572 0.07063709375853026
0.3501714240589714 0.3957435850322307 0.07063709375853026
0.5626395952853558 0.5041808054507546 0.0713209936981011
0.6740468954414444 0.42995812200904576 0.0713209936981011
0.49833346096742404 0.4714903883392688 0.0713209936981011
0.47084068339667645 0.36551520770319995 0.0713209936981011
0.3641718328219001 0.3357753303310054 0.0713209936981011
0.6638079363461553 0.3314081407168889 0.07180949365493745
0.4635718040389522 0.40861067389529904 0.07180949365493745
0.3301624658269562 0.47608228793353013 0.07259109358587552
0.6123395808938819 0.5115571547989829 0.07259109358587552
0.6322117591379828 0.31646981203683444 0.07259109358587552
0.33303484557315377 0.4291472120806975 0.07327499352544636
0.32852110597198625 0.4366310314194298 0.07327499352544636
0.4738693831290616 0.3298644808532861 0.07327499352544636
0.5783888338937584 0.4997647658409544 0.07327499352544636
0.6768215751962745 0.4198364029033974 0.07327499352544636
0.6367548087365605 0.3323949106296982 0.07327499352544636
0.4579247445379246 0.3957435850322307 0.07376349348228264
0.6283037594832925 0.3072176228543547 0.07454509341322073
0.5222601888532664 0.48426954721010657 0.07454509341322073
0.3807222113595143 0.447221710483641 0.07454509341322073
0.33898477504742 0.46002040935275224 0.07522899335279155
0.4746021330643161 0.3683973574485341 0.07522899335279155
0.4972001410675638 0.3324535306245186 0.07522899335279155
0.6417961282911114 0.4595319093959159 0.07522899335279155
0.5504466363627214 0.5148007945123759 0.07522899335279155
0.5527523561589889 0.5088313250398363 0.07522899335279155
0.6183188203655582 0.29280687412768364 0.0757174933096279
0.5222601888532664 0.48426954721010657 0.07649909324056599
0.3242906963457837 0.4729558882097778 0.07649909324056599
0.33339633554121256 0.4347845015825885 0.07718299318013683
0.361924733020453 0.33598050031287663 0.07718299318013683
0.47782623277943576 0.3908488154647309 0.07718299318013683
0.4717590633155288 0.4809184375062096 0.07718299318013683
0.6072884913401944 0.48584251707111953 0.07718299318013683
0.6096723711295556 0.4890373067888291 0.07718299318013683
0.6615706065438451 0.42155592275146125 0.07718299318013683
0.6464271078819195 0.47629722791453816 0.07845309306791125
0.545542096796085 0.29579649386352186 0.07845309306791125
0.5130275396690602 0.31375375227682467 0.07845309306791125
0.36588158267082715 0.47041568843422893 0.07913699300748209
0.32873604595299427 0.33150584070825606 0.07913699300748209
0.47171021331984525 0.3253507412521186 0.07913699300748209
0.648410417706675 0.34600451942715776 0.07913699300748209
0.6492017876367496 0.4487849103455172 0.07913699300748209
0.6656153861864497 0.3584514983273468 0.07913699300748209
0.6259101096947945 0.49208554651948766 0.07962549296431837
0.5428553470334853 0.5103945249017124 0.08040709289525645
0.3241246063604594 0.4729558882097778 0.08040709289525645
0.5396507873166391 0.28963162440824763 0.08040709289525645
0.6579459368641197 0.4387608912312362 0.08109099283482728
0.6519276173958962 0.4339149716594199 0.08109099283482728
0.5072827801766652 0.34270225971894425 0.08109099283482728
0.4728533032188421 0.3214134316000179 0.08109099283482728
0.3618172630299491 0.46424104897981794 0.08109099283482728
0.3478754742618408 0.4140232534170454 0.08236109272260171
0.5160757793997188 0.4858229770728461 0.08236109272260171
0.5246147586452174 0.35714231844302563 0.08236109272260171
0.669210745868765 0.447221710483641 0.08236109272260171
0.5912950027533737 0.5003216557917477 0.08304499266217255
0.6880277642060997 0.397980914834541 0.08304499266217255
0.4787836926948349 0.37328235701689716 0.08304499266217255
0.5154602694541051 0.3226835314877924 0.08304499266217255
0.37458665190165025 0.34285857970513195 0.08304499266217255
0.6438869081063707 0.47364955814848536 0.08353349261900883
0.65800455685894 0.4608020092836904 0.0843150925499469
0.5601580155046272 0.29754532370899583 0.0843150925499469
0.4193234779487194 0.45853536948396995 0.0843150925499469
0.38583192090802204 0.4986900659359146 0.0843150925499469
0.6143033507203637 0.4754374679905062 0.08499899248951774
0.6395587984888009 0.33015758082738794 0.08499899248951774
0.49893920091390104 0.4679243386543638 0.08499899248951774
0.33593653531676143 0.34624876940557586 0.08499899248951774
0.3319992256646607 0.4666249287691791 0.08499899248951774
0.6407507383834817 0.3185410518538204 0.08626909237729218
0.5249273986175926 0.4343448516214358 0.08626909237729218
0.32248324650548954 0.42007088288267885 0.08626909237729218
0.593102452593668 0.30123838338267833 0.086952992316863
0.6782968450659204 0.4052693341905387 0.086952992316863
0.6644820662865893 0.4436068108030523 0.086952992316863
0.4659263738309032 0.4770592878472027 0.086952992316863
0.34135888483764437 0.3423505397500221 0.086952992316863
0.36262817295829736 0.4728386482201371 0.086952992316863
0.6696308558316442 0.447221710483641 0.08822309220463743
0.32407575636477587 0.37965239645404264 0.08822309220463743
0.6036149716647853 0.3092693226730673 0.08890699214420827
0.6088810011994809 0.3202508017027475 0.08890699214420827
0.4722280232740917 0.3864425458540674 0.08890699214420827
0.5024759406013959 0.33359662052351546 0.08890699214420827
0.3275831860548605 0.35157341893509164 0.08890699214420827
0.3452864244906083 0.4557899997265498 0.08890699214420827
0.3181551368879197 0.3684657474424912 0.09017709203198263
0.6895421140722923 0.36752782752536545 0.09017709203198263
0.6322410691353931 0.4703961484359555 0.09086099197155346
0.6524845073466897 0.36036641815814524 0.09086099197155346
0.5082109300946541 0.46580424884169425 0.09086099197155346
0.47284353321970546 0.4813385474690888 0.09086099197155346
0.3448076945329088 0.46354737904111043 0.09086099197155346
0.674203215427632 0.4600887993467093 0.09134949192838981
0.3458335444422651 0.37248121708768567 0.0921310918593279
0.683592184598026 0.37000940730609394 0.0921310918593279
0.6186021503405232 0.48010752757786135 0.09281499179889872
0.611089021004381 0.32181400156462364 0.09281499179889872
0.5084063300773888 0.33930230001936357 0.09281499179889872
