0.1619872157867587 0.4085393955740799 -0.22259144712361478
0.2475414751078707 0.4970318619972236 -0.22259144712361478
0.524613415534141 0.31473441327958573 -0.22259144712361478
0.13039901620161626 0.3499236478315279 -0.22259144712361478
0.12941961383427247 0.41609761182307725 -0.22259144712361478
0.437941252500808 0.5076568937399241 -0.22259144712361478
0.659137793222448 0.4813515311665157 -0.22209679946334007
0.19006341698395057 0.28089062036359086 -0.22209679946334007
0.1428245654277167 0.3879521599534469 -0.22061285648251597
0.5098531293515438 0.30991654506851024 -0.22061285648251597
0.13365379780622386 0.32121429762918435 -0.22061285648251597
0.1287172141566824 0.3871013659777744 -0.22061285648251597
0.12966693766440973 0.46942062960068986 -0.22061285648251597
0.466739639282001 0.5034227097679728 -0.22061285648251597
0.29430546491024084 0.533467608653058 -0.2191289135016919
0.5027796678096156 0.2573354987813097 -0.2191289135016919
0.16479681449711892 0.3915136231074247 -0.21863426584141718
0.36817614649566444 0.5112282498471075 -0.21863426584141718
0.5668464327683949 0.34215767956521514 -0.21863426584141718
0.12797524266627033 0.3329869119437223 -0.21863426584141718
0.12873700006309335 0.4059672277406514 -0.21863426584141718
0.14094490431867288 0.3180188737438098 -0.21863426584141718
0.13971817812119167 0.45029755105446995 -0.21863426584141718
0.14238927548667502 0.38303536221031637 -0.2166556752003184
0.13208081824655027 0.41003323150810944 -0.2166556752003184
0.1320412464337284 0.45424483938346205 -0.2166556752003184
0.5685084489069177 0.46486987112616257 -0.2166556752003184
0.5031654929846299 0.30774998831650713 -0.2166556752003184
0.17785551272837105 0.48622875709682417 -0.2166556752003184
0.6461087738508127 0.34854852733596425 -0.21616102754004368
0.1237014868814969 0.4918776333771612 -0.21616102754004368
0.15390467301787003 0.4200844719648913 -0.2146770845592196
0.13510806192743155 0.4579942686483443 -0.2146770845592196
0.3251220141453546 0.5131870545817953 -0.2146770845592196
0.49973263822232356 0.2927621642101837 -0.2146770845592196
0.378741820519132 0.293771245437144 -0.2146770845592196
0.5806174236304424 0.3627152363262317 -0.2146770845592196
0.5679247646677935 0.533467608653058 -0.21319314157839547
0.11187940780093152 0.3224904885926931 -0.21319314157839547
0.1381550915147236 0.3973999302646936 -0.2126984939181208
0.512019686103547 0.49617117506834557 -0.2126984939181208
0.5781342923758634 0.4547197011373258 -0.2126984939181208
0.595071028263669 0.35917355907866483 -0.2126984939181208
0.13701740189609185 0.4224983525470318 -0.2126984939181208
0.24880777311817392 0.4893549303097603 -0.2126984939181208
0.42161787971174297 0.5147600341414689 -0.2126984939181208
0.16881335349854953 0.4058880841150075 -0.21071990327702197
0.13358454713378537 0.4465975865556152 -0.21071990327702197
0.12967683061761529 0.4571632605790828 -0.21071990327702197
0.3710945676912852 0.5237527286052628 -0.21071990327702197
0.1723154589332944 0.4038501357546757 -0.21071990327702197
0.5000393197716938 0.49419258442724673 -0.21071990327702197
0.2424861760198633 0.3557604902227694 -0.21071990327702197
0.5261765021406088 0.4861990782372077 -0.21071990327702197
0.6461087738508127 0.36157754670759995 -0.2102252556167473
0.11187940780093152 0.4267226435657778 -0.2102252556167473
0.1321203900593723 0.39047486302084783 -0.2087413126359232
0.16143321040725092 0.4157810373205015 -0.2087413126359232
0.13416823137290948 0.49450915892982267 -0.2087413126359232
0.141627518089852 0.5009395785133937 -0.2087413126359232
0.1395104261038763 0.4428580502439385 -0.2087413126359232
0.20683197266726297 0.3212934412548284 -0.2087413126359232
0.39813200880190014 0.4403749189893595 -0.2087413126359232
0.39813200880190014 0.32494394098765567 -0.2087413126359232
0.24143752298008087 0.3046139221503654 -0.2087413126359232
0.6851958319657194 0.4658097016806845 -0.2072573696550991
0.12995383330736915 0.2950474364006528 -0.2072573696550991
0.5234361541026872 0.3075026644863697 -0.2067627219948244
0.4943409787253293 0.28973492052930255 -0.2067627219948244
0.6227811901922579 0.4122294671197291 -0.2067627219948244
0.3666625246552238 0.5052825849706056 -0.2067627219948244
0.20683197266726297 0.3341344945155596 -0.2067627219948244
0.39658870810184316 0.3052173922959006 -0.2067627219948244
0.4645532966235868 0.35973745741137797 -0.2067627219948244
0.6009474424677324 0.4235272196804033 -0.2067627219948244
0.15975140836231708 0.4009515004654659 -0.2047841313537256
0.16630054338435402 0.4081139985862436 -0.2047841313537256
0.47615773073363127 0.27926817603788984 -0.2047841313537256
0.1846915433933673 0.49637892708566095 -0.2047841313537256
0.18742199847808372 0.3046732798695984 -0.2047841313537256
0.3226586687971866 0.5107632810464493 -0.2047841313537256
0.5680434801062594 0.4614271234106507 -0.2047841313537256
0.41699787056477733 0.32870326320574333 -0.2047841313537256
0.21629952888492066 0.30541525136001046 -0.2047841313537256
0.39853761988332553 0.5363563509890623 -0.2042894836934509
0.13249632228118102 0.39429354295816843 -0.2028055407126268
0.13121023836446685 0.48580336010898784 -0.2028055407126268
0.13796712540381917 0.2981637166603833 -0.2028055407126268
0.2938207102031716 0.29619501897249007 -0.2028055407126268
0.1692090716267692 0.39691517555762434 -0.2028055407126268
0.43537897762058503 0.288923698366452 -0.2028055407126268
0.5541240949461296 0.4744165709694643 -0.2028055407126268
0.46475115568769676 0.4093407247837248 -0.2028055407126268
0.44317462474651426 0.5182720325294192 -0.2028055407126268
0.6721668125940837 0.3640804638685899 -0.2013215977318027
0.14045025665839822 0.2891413433369729 -0.2013215977318027
0.19672137449124805 0.5309646914920679 -0.2013215977318027
0.47386256558995665 0.33170082802700795 -0.20082695007152798
0.45686647198291797 0.45969585659968926 -0.20082695007152798
0.14863172895934174 0.41777941386801126 -0.20082695007152798
0.14280477952130577 0.3044556348990776 -0.20082695007152798
0.6247399949269454 0.39023743214391593 -0.20082695007152798
0.447933135238357 0.5289564219913526 -0.20082695007152798
0.31748465427071315 0.502987419826931 -0.20082695007152798
0.45718304648549385 0.28834990708053343 -0.20082695007152798
0.5835061659664467 0.45075262690192275 -0.20082695007152798
0.4797884445600476 0.3407429872568295 -0.20082695007152798
0.1420825939373048 0.3114499528153618 -0.20082695007152798
0.13343615283570295 0.3672165300347314 -0.20082695007152798
0.46287149457865295 0.4638410039927912 -0.1988483594304292
0.38675511261558215 0.2891710221965894 -0.1988483594304292
0.1970973067130568 0.4919073122367777 -0.1988483594304292
0.4024156575398791 0.27646847028073507 -0.1988483594304292
0.5937058007213107 0.3480242008160731 -0.1988483594304292
0.39761757523521457 0.5322804542683987 -0.1988483594304292
0.20992846702058246 0.34717340684040066 -0.1988483594304292
0.4733975967892985 0.28885444769401347 -0.1988483594304292
0.47962026435555427 0.5036403547384937 -0.1988483594304292
0.6461087738508127 0.34854852733596425 -0.19835371177015448
0.13022094304391751 0.29107046921204416 -0.19835371177015448
0.1916067176840077 0.5309646914920679 -0.19835371177015448
0.27138349233311115 0.5309646914920679 -0.197562275513715
0.11187940780093152 0.28339353752458085 -0.197562275513715
0.5418667259245225 0.24430647940967404 -0.197562275513715
0.4690150185192647 0.4649490147518066 -0.1968697687893304
0.13649307537620056 0.3143782669641881 -0.1968697687893304
0.623246158992916 0.4115171744889335 -0.1968697687893304
0.140044645576973 0.3066617634639028 -0.1968697687893304
0.1626401506983212 0.49796179959854 -0.1968697687893304
0.138362843532039 0.29944980057709764 -0.1968697687893304
0.42977956610627543 0.26805946005606524 -0.1968697687893304
0.27478666823580117 0.49823880228829387 -0.1968697687893304
0.20990868111417152 0.492194207879737 -0.1968697687893304
0.3155060636296145 0.28745954129203893 -0.1968697687893304
0.5253751729309639 0.4965668931965654 -0.1968697687893304
0.39109811907279396 0.38019608464033955 -0.1968697687893304
0.11187940780093152 0.29799553645589 -0.19558368487261615
0.1916067176840077 0.31964131806951085 -0.19558368487261615
0.6330797544791771 0.3355195079643288 -0.19558368487261615
0.46854015676540095 0.46852037085898984 -0.19489117814823162
0.14401171981237604 0.48954289642066456 -0.19489117814823162
0.47809674956190806 0.33171072098021354 -0.19489117814823162
0.13118055950485036 0.3866067183174996 -0.19489117814823162
0.13934224589938293 0.4965174284305378 -0.19489117814823162
0.586760947571054 0.46360357311585937 -0.19489117814823162
0.5181335311845424 0.5129990884708909 -0.19489117814823162
0.21081883280907696 0.3294155558365389 -0.19489117814823162
0.33053345954875973 0.3100748323197982 -0.19489117814823162
0.5766206705354229 0.45715336762587727 -0.19489117814823162
0.48112399324278937 0.5117130045541766 -0.19489117814823162
0.28879508997478065 0.2716901738824814 -0.1943965304879569
0.19006341698395057 0.34854852733596425 -0.1936050942315174
0.47430774848420393 0.46858962153142836 -0.19291258750713283
0.46891608898720966 0.29275227125697817 -0.19291258750713283
0.1388278123326972 0.31357693775454304 -0.19291258750713283
0.4646225472960253 0.3413167785427482 -0.19291258750713283
0.20614935889608385 0.49800137141136197 -0.19291258750713283
0.4336477108096236 0.5258797135444442 -0.19291258750713283
0.11769646428576207 0.3052371782023116 -0.19291258750713283
0.2927126994441563 0.5149776791119898 -0.19291258750713283
0.25099411577658814 0.3016163573291008 -0.19291258750713283
0.328515297094839 0.4896813977655416 -0.19291258750713283
0.4744363568758754 0.4562135370713553 -0.19291258750713283
0.484121558064054 0.5029775268737254 -0.19291258750713283
0.5548957452961581 0.5309646914920679 -0.19162650359041858
0.2990342965424669 0.2670206999694883 -0.19162650359041858
0.4702417447167459 0.5147006764222358 -0.190933996866034
0.4726160534860645 0.33294734013090027 -0.190933996866034
0.1363545740313237 0.3375871351842769 -0.190933996866034
0.500365787227475 0.5141367780895227 -0.190933996866034
0.2082367720224431 0.30607807922477853 -0.190933996866034
0.39485744129088174 0.5267799722861439 -0.190933996866034
0.26838592751184653 0.525157527960443 -0.190933996866034
0.30051823952329104 0.489631932999514 -0.190933996866034
0.3897229985772303 0.31391329816352975 -0.190933996866034
0.25372457086130445 0.49572599217409835 -0.190933996866034
0.48921642896488343 0.47830450157922344 -0.190933996866034
0.48113388619599473 0.5096552702874338 -0.190933996866034
0.6200507351075414 0.5074095699097868 -0.1896479129493198
0.30419841811573484 0.2646167123405533 -0.1896479129493198
0.7112538707089904 0.4267226435657778 -0.1896479129493198
0.46342549995816057 0.2862328150945577 -0.1889554062249352
0.20019380106637644 0.3032289087015963 -0.1889554062249352
0.47772081734009936 0.522031354747507 -0.1889554062249352
0.1417363405751124 0.3018834670656491 -0.1889554062249352
0.3056131104241205 0.5182819254826246 -0.1889554062249352
0.18027928626371698 0.5144929244049204 -0.1889554062249352
0.2411605202903271 0.4886723165385812 -0.1889554062249352
0.2243227139345762 0.300379738178414 -0.1889554062249352
0.33038506525067735 0.4818461788267903 -0.1889554062249352
0.4867431906635099 0.3350347532572595 -0.1889554062249352
0.31949292377142846 0.2655961147078971 -0.1884607585646605
0.3073344842818763 0.5424207313040301 -0.187669322308221
0.6070217157359057 0.309451576267852 -0.187669322308221
0.47981812341966407 0.331681042120597 -0.18697681558383641
0.13408908774726558 0.38741794048035016 -0.18697681558383641
0.48314215569671004 0.33498528849123205 -0.18697681558383641
0.3211153680971295 0.5208639862692587 -0.18697681558383641
0.4457665784863537 0.27360940680434725 -0.18697681558383641
0.1794185993348391 0.5055398017539484 -0.18697681558383641
0.48336969362043636 0.5256917474335397 -0.18697681558383641
0.31553574248923094 0.5297478582477922 -0.18697681558383641
0.3901879673778885 0.4856747517173165 -0.18697681558383641
0.46764979097690645 0.35200116800468173 -0.18697681558383641
0.4883557420360054 0.4886129588193482 -0.18697681558383641
0.47672162906634447 0.5570227302353392 -0.18569073166712216
0.47672162906634447 0.2573354987813097 -0.18569073166712216
0.3911080120259995 0.4011295736231648 -0.18499822494273763
0.3994180927186145 0.49796179959854 -0.18499822494273763
0.12772791883613294 0.4080645338202162 -0.18499822494273763
0.21001750359943192 0.48297397549221655 -0.18499822494273763
0.4819648942652563 0.5134640572715491 -0.18499822494273763
0.136681041487105 0.3013789264521689 -0.18499822494273763
0.2192179500805414 0.510436813590668 -0.18499822494273763
0.12537339597322536 0.41815534608982 -0.18499822494273763
0.32371721479017446 0.2721452497299342 -0.18499822494273763
0.5360793482993084 0.2907736806158793 -0.18499822494273763
0.4913137350444482 0.3034366607189117 -0.18499822494273763
0.5657977797286122 0.3216693734766371 -0.18499822494273763
0.22959565799310452 0.319344529473346 -0.18499822494273763
0.5809537840394291 0.5179356721204323 -0.1837121410260234
0.3333925230251475 0.25982852298909415 -0.1837121410260234
0.48131195935369364 0.5055595876603594 -0.18301963430163884
0.46126883615936287 0.33803231807852413 -0.18301963430163884
0.20988889520776058 0.492075492441271 -0.18301963430163884
0.20348815448380592 0.3004489888508525 -0.18301963430163884
0.6171520998183316 0.43708056557193 -0.18301963430163884
0.2773390501628186 0.28182055796490724 -0.18301963430163884
0.2975998183276703 0.518628178844817 -0.18301963430163884
0.1255613620841298 0.44617218956777893 -0.18301963430163884
0.6407962579794624 0.39109811907279396 -0.18301963430163884
0.5962680756015338 0.4703901390148283 -0.18301963430163884
0.2213350420665171 0.4802929851735278 -0.18301963430163884
0.48770280712444275 0.4637123956011199 -0.18301963430163884
0.37247958114005436 0.2573354987813097 -0.18252498664136413
0.1950494653995196 0.3224904885926931 -0.18173355038492459
0.4099145160696435 0.4918776333771612 -0.18173355038492459
0.5027796678096156 0.5570227302353392 -0.18173355038492459
0.6851958319657194 0.34854852733596425 -0.18173355038492459
0.39360103623378395 0.3128547521705419 -0.18104104366054
0.4160382541038443 0.5271855833675692 -0.18104104366054
0.2196829188811996 0.4936286860945337 -0.18104104366054
0.14766221954520334 0.3911277979324104 -0.18104104366054
0.4771371331009752 0.5239901594821946 -0.18104104366054
0.19006341698395057 0.29341509912174635 -0.18104104366054
0.3006072761021405 0.2804058656565216 -0.18104104366054
0.19050859987819782 0.5116932186477656 -0.18104104366054
0.12416645568215509 0.5055892665199758 -0.18104104366054
0.5244353423764421 0.5065587759341142 -0.18104104366054
0.5638389749939247 0.4788585069587311 -0.18104104366054
0.22149332931780505 0.327674396072372 -0.18104104366054
0.3450662078076305 0.2977877844385746 -0.1797549597438258
0.3143782669641881 0.5035414252064386 -0.1797549597438258
0.4507328409955118 0.4006646048225066 -0.1797549597438258
0.6330797544791771 0.4658097016806845 -0.1797549597438258
0.12726295003547475 0.3825011427372197 -0.1790624530194412
0.21458804798037018 0.30787859670817846 -0.1790624530194412
0.38635939448736234 0.49796179959854 -0.1790624530194412
0.29580919379747594 0.31921592108167457 -0.1790624530194412
0.48112399324278937 0.5246430943937574 -0.1790624530194412
0.31058926588648395 0.5227931121443299 -0.1790624530194412
0.2152706617515493 0.2882509775484784 -0.1790624530194412
0.37445817178115304 0.5248211675514564 -0.1790624530194412
0.5859794042678202 0.48203414493769464 -0.1790624530194412
0.5242374833123321 0.2937019947647056 -0.1790624530194412
0.48431941712816384 0.34338440576269635 -0.1790624530194412
0.19006341698395057 0.4006646048225066 -0.177776369102727
0.3809380561307516 0.5147402482350579 -0.177776369102727
0.5939828034110648 0.2703645181529452 -0.177776369102727
0.12704530506495382 0.3909002600086841 -0.17708386237834242
0.2183275842920469 0.3919093412356444 -0.17708386237834242
0.2250547924717829 0.48715869469814055 -0.17708386237834242
0.38635939448736234 0.49796179959854 -0.17708386237834242
0.4812427086812553 0.27649814914035153 -0.17708386237834242
0.3328583035520508 0.525978643076499 -0.17708386237834242
0.3797904735589143 0.2705920560766717 -0.17708386237834242
0.26061006629232825 0.5194591869140784 -0.17708386237834242
0.5724260583762933 0.4935891142817117 -0.17708386237834242
0.49349018474965684 0.3314139323840487 -0.17708386237834242
0.48575389534296043 0.34338440576269635 -0.17708386237834242
0.20388387261202573 0.3746065660792354 -0.17579777846162817
0.37247958114005436 0.5554497506756655 -0.17579777846162817
0.401891331019988 0.24430647940967404 -0.17579777846162817
0.5030566704993695 0.5208244144564367 -0.17510527173724363
0.3442450926915744 0.5283430588926121 -0.17510527173724363
0.41014205399336984 0.26755491944258497 -0.17510527173724363
0.2761123239653374 0.5211212030526015 -0.17510527173724363
0.6160045172464944 0.45746004917524763 -0.17510527173724363
0.531667091169658 0.29514636593270777 -0.17510527173724363
0.5661341401375992 0.48116356505561125 -0.17510527173724363
0.38775430088933704 0.3150707736885726 -0.17510527173724363
0.22096900279791376 0.3115192034878003 -0.17510527173724363
0.2144891184483152 0.40925168820487534 -0.17510527173724363
0.1506202125536461 0.4040677807251965 -0.17510527173724363
0.20695068810572875 0.41369362419414213 -0.1738191878205294
0.19006341698395057 0.3876355854508711 -0.1738191878205294
0.3297222373859093 0.3062264735228609 -0.1738191878205294
0.380225763499956 0.4995941368774465 -0.1738191878205294
0.3954015537171839 0.24960910232781883 -0.1738191878205294
0.6070217157359057 0.5049066527487969 -0.1738191878205294
0.6482357587899936 0.4016242212834395 -0.17312668109614485
0.41794759407250465 0.5346052982716897 -0.17312668109614485
0.38919867205733916 0.261025570326959 -0.17312668109614485
0.4864958668333725 0.28533255635285765 -0.17312668109614485
0.4639992912440792 0.4678476500410163 -0.17312668109614485
0.49544898948434457 0.4671056785506042 -0.17312668109614485
0.38775430088933704 0.48625843595644064 -0.17312668109614485
0.30419841811573484 0.4897209695783635 -0.17312668109614485
0.3959456661434861 0.39963573768913524 -0.17312668109614485
0.38610217770401956 0.3069486591068621 -0.17312668109614485
0.1541124250351854 0.4019111169263989 -0.17312668109614485
0.26833646274581907 0.4975265096574983 -0.1718405971794306
0.2478778355168574 0.3062264735228609 -0.1718405971794306
0.41156663925496106 0.4397516629374133 -0.1718405971794306
0.4084305730888195 0.2480559086745563 -0.1718405971794306
0.6070217157359057 0.4918776333771612 -0.1718405971794306
0.5188161449557214 0.5166990529697456 -0.171148090455046
0.3196314251163053 0.5253652799777583 -0.171148090455046
0.4867530836167153 0.5180741734653093 -0.171148090455046
0.40005124172376605 0.5458140142535144 -0.171148090455046
0.5346547630377172 0.5183214972954466 -0.171148090455046
0.6042714747447785 0.34445284470888976 -0.171148090455046
0.22225508671462807 0.40971665700553367 -0.171148090455046
0.2149639802021789 0.49209527834768213 -0.171148090455046
0.38635939448736234 0.4953203810926731 -0.171148090455046
0.3817888501064241 0.3989333380115452 -0.171148090455046
0.4166812960622014 0.2508556144317111 -0.17065344279477135
0.23368144766697366 0.49721982810812804 -0.1698620065383318
0.40213865485012523 0.40307848540464714 -0.1698620065383318
0.46036857741766296 0.25315077957538573 -0.1698620065383318
0.49518187974779626 0.46825326112244153 -0.16916949981394722
0.44703287649665696 0.2669019845310224 -0.16916949981394722
0.32688295981593246 0.5230899007404948 -0.16916949981394722
0.4473692369056438 0.5389087329160795 -0.16916949981394722
0.5627210712817038 0.5043922191821111 -0.16916949981394722
0.4989708808255004 0.3337783482001618 -0.16916949981394722
0.221612044756271 0.47748338646316746 -0.16916949981394722
0.21794175911703262 0.4760588012015763 -0.16916949981394722
0.30934275378259163 0.4934605058900402 -0.16916949981394722
0.3951344439806355 0.48378519765506717 -0.16916949981394722
0.43762467799823224 0.41369362419414213 -0.1686748521536725
0.2659225821636786 0.509556340755379 -0.1686748521536725
0.19006341698395057 0.3746065660792354 -0.1686748521536725
0.6721668125940837 0.3746065660792354 -0.1686748521536725
0.6379668733626911 0.3758827570427442 -0.16719090917284843
0.36751331863089626 0.5325574569581525 -0.16719090917284843
0.48594186145386487 0.27894170858210854 -0.16719090917284843
0.45686647198291797 0.34064405772477463 -0.16719090917284843
0.5196372600717775 0.28650981778431145 -0.16719090917284843
0.49916873988961036 0.4976353321427588 -0.16719090917284843
0.38269900180132954 0.3916125526394796 -0.16719090917284843
0.29601694581479115 0.3157237086001352 -0.16719090917284843
0.20991857406737707 0.3986761212282024 -0.16719090917284843
0.13235782093630416 0.41132920837802917 -0.16719090917284843
0.5418667259245225 0.5570227302353392 -0.16590482525613418
0.28127644553860515 0.5179356721204323 -0.16590482525613418
0.29885622338476797 0.3017350727675667 -0.16590482525613418
0.6851958319657194 0.4267226435657778 -0.16590482525613418
0.6478499336149796 0.4125955063883324 -0.16521231853174964
0.42000532833924736 0.5368015338833094 -0.16521231853174964
0.41272411478000387 0.26887068221891564 -0.16521231853174964
0.48966161185913065 0.33349145255720236 -0.16521231853174964
0.5024037355878069 0.4658492734935065 -0.16521231853174964
0.5073897840033759 0.4964877495709215 -0.16521231853174964
0.38429176726741404 0.4041172454912241 -0.16521231853174964
0.37990918899738024 0.3141705149468727 -0.16521231853174964
0.20553599579734325 0.3033773029996787 -0.16521231853174964
0.12769823997651644 0.4092615811580809 -0.16521231853174964
0.42459565862659654 0.24430647940967404 -0.16471767087147493
0.380225763499956 0.5017211218166278 -0.16392623461503544
0.19940236480993695 0.32026457412145704 -0.16392623461503544
0.5211409889590124 0.24430647940967404 -0.16392623461503544
0.49558749082922143 0.27412384037103305 -0.16323372789065085
0.3695413740380225 0.26800999529003766 -0.16323372789065085
0.6138775323073132 0.3385269657387988 -0.16323372789065085
0.4188082810013826 0.25209223358239785 -0.16323372789065085
0.4908586591969954 0.28719243155549057 -0.16323372789065085
0.5019882315531761 0.49731875764018285 -0.16323372789065085
0.22066232124854354 0.3972119641537892 -0.16323372789065085
0.2159532755227284 0.39653924333581564 -0.16323372789065085
0.29375145953073306 0.488969105134746 -0.16323372789065085
0.38635939448736234 0.49754629556390934 -0.16323372789065085
0.5809537840394291 0.5049066527487969 -0.16273908023037614
0.2083653804141144 0.452780682309049 -0.16273908023037614
0.3736568425715081 0.3017350727675667 -0.16273908023037614
0.37669397920559466 0.26689209157781685 -0.161255137249552
0.5323694908472482 0.5150271438780172 -0.161255137249552
0.4522761416955688 0.5363563509890623 -0.161255137249552
0.6530041622350418 0.415751358460885 -0.161255137249552
0.5378402939698863 0.28023768545202826 -0.161255137249552
0.5101894897605306 0.49928745532807617 -0.161255137249552
0.503848106755809 0.2785855622667108 -0.161255137249552
0.3914938372010138 0.31570392269372427 -0.161255137249552
0.22483714750126196 0.3139034052103244 -0.161255137249552
0.20991857406737707 0.3986761212282024 -0.161255137249552
0.138461773064094 0.4151874601281718 -0.161255137249552
0.24217949447049295 0.5074095699097868 -0.16076048958927736
0.28947770374595977 0.3041093815368852 -0.16076048958927736
0.6461087738508127 0.452780682309049 -0.16076048958927736
0.6575944925223912 0.40103064409110994 -0.15927654660845322
0.43365760376282914 0.5425196608360849 -0.15927654660845322
0.6017091998645556 0.3246768312511073 -0.15927654660845322
0.44869489263518 0.2536454272356604 -0.15927654660845322
0.5260281078425264 0.2862031362349412 -0.15927654660845322
0.6082484419333869 0.461031405282431 -0.15927654660845322
0.29601694581479115 0.48560550104487804 -0.15927654660845322
0.388674345537448 0.47837375225166195 -0.15927654660845322
0.39493658491652567 0.31836512710600207 -0.15927654660845322
0.6721668125940837 0.46832251179488 -0.1587818989481785
0.19006341698395057 0.4918776333771612 -0.1587818989481785
0.4627231002805705 0.24430647940967404 -0.1587818989481785
0.4497336527217569 0.2609761055609314 -0.15729795596735444
0.5000887845377212 0.3399812298600065 -0.15729795596735444
0.4620701653690079 0.4637123956011199 -0.15729795596735444
0.4917984897515173 0.5202803020301344 -0.15729795596735444
0.3906826150381632 0.5442113558342243 -0.15729795596735444
0.5037986419897814 0.344739740351849 -0.15729795596735444
0.21719978762662054 0.48625843595644064 -0.15729795596735444
0.2204644621844337 0.48962204004630866 -0.15729795596735444
0.3994180927186145 0.48483385069484947 -0.15729795596735444
0.33405535088991567 0.32314342350425573 -0.15729795596735444
0.3736568425715081 0.4995941368774465 -0.15680330830707973
0.19006341698395057 0.3224904885926931 -0.15680330830707973
0.698224851337355 0.36157754670759995 -0.15680330830707973
0.5048077232167418 0.5126726210151096 -0.15531936532625565
0.42222134985727805 0.2616785052385215 -0.15531936532625565
0.4233194676630879 0.5352087684172249 -0.15531936532625565
0.4627329932337759 0.544963220277842 -0.15531936532625565
0.5101103461348867 0.2969369904629021 -0.15531936532625565
0.6561600143075945 0.3986761212282024 -0.15531936532625565
0.3870222223521305 0.4902156172386383 -0.15531936532625565
0.38701232939892494 0.32527040844343696 -0.15531936532625565
0.31018365480505855 0.312053422960897 -0.15531936532625565
0.5027796678096156 0.2573354987813097 -0.15376617167299308
0.4507328409955118 0.39431332886457954 -0.15376617167299308
0.19006341698395057 0.452780682309049 -0.15376617167299308
0.4714288991014052 0.2656950442399521 -0.15334077468515683
0.42584217073048886 0.5416886527668234 -0.15334077468515683
0.4618821992581035 0.2592943035159974 -0.15334077468515683
0.40845035899523047 0.2540015735510582 -0.15334077468515683
0.49705164790363465 0.4570643310470278 -0.15334077468515683
0.6573867405050757 0.3985574057897365 -0.15334077468515683
0.3914938372010138 0.31570392269372427 -0.15334077468515683
0.22483714750126196 0.3139034052103244 -0.15334077468515683
0.20991857406737707 0.3986761212282024 -0.15334077468515683
0.4313822245255655 0.2610354632801644 -0.15136218404405805
0.4994754214389806 0.27330272525497706 -0.15136218404405805
0.5005141815255575 0.3372408818220846 -0.15136218404405805
0.4576282293797411 0.46492922884539556 -0.15136218404405805
0.5025224510262728 0.45786566025667286 -0.15136218404405805
0.511317286425957 0.46502815837745054 -0.15136218404405805
0.30590000606707973 0.31852341435729004 -0.15136218404405805
0.21714042990738758 0.3110641276403475 -0.15136218404405805
0.2144891184483152 0.40925168820487534 -0.15136218404405805
0.34094084632093946 0.32314342350425573 -0.15136218404405805
0.6721668125940837 0.4788486140055257 -0.15073892799211192
0.4010801088571374 0.404137031397635 -0.15073892799211192
0.45069326918268976 0.26194561497506985 -0.14938359340295923
0.5025026651198617 0.27438105715437583 -0.14938359340295923
0.6226525818005864 0.338368678487511 -0.14938359340295923
0.5915095651096913 0.3066320846042863 -0.14938359340295923
0.5960207517713965 0.3236776429773524 -0.14938359340295923
0.31121252193842996 0.48120313686843325 -0.14938359340295923
0.3089470356543718 0.48560550104487804 -0.14938359340295923
0.39503551444858054 0.4005854611968627 -0.14938359340295923
0.38610217770401956 0.3069486591068621 -0.14938359340295923
0.6721668125940837 0.4397516629374133 -0.14770179135802528
0.39853761988332553 0.2964225568962164 -0.14770179135802528
0.3855086005116899 0.5074095699097868 -0.14770179135802528
0.5115250384432724 0.2996476596412075 -0.14740500276186044
0.44531150263890107 0.2537146779080989 -0.14740500276186044
0.4391976575579058 0.2681979614009421 -0.14740500276186044
0.5144137807792766 0.34015930301770536 -0.14740500276186044
0.2966995595859703 0.48166810566909146 -0.14740500276186044
0.2100471824590484 0.4934506129368348 -0.14740500276186044
0.38592410454632065 0.4941233337548084 -0.14740500276186044
0.39503551444858054 0.4005854611968627 -0.14740500276186044
0.6427154909013281 0.4369420642270531 -0.14542641212076166
0.48805895343984057 0.5299160384522856 -0.14542641212076166
0.4401473810656331 0.5504241304472747 -0.14542641212076166
0.46787732890063277 0.547851962613846 -0.14542641212076166
0.5185490352191732 0.3411288124318438 -0.14542641212076166
0.29375145953073306 0.32012607277658 -0.14542641212076166
0.2138460764899581 0.31836512710600207 -0.14542641212076166
0.21963345411517216 0.49364847200094464 -0.14542641212076166
0.37969154402685945 0.4087867194042172 -0.14542641212076166
0.6070217157359057 0.4937869733458215 -0.1446646547239386
0.41156663925496106 0.3876355854508711 -0.1446646547239386
0.47982801637286965 0.26477499959184114 -0.14344782147966284
0.4559464273348071 0.5398683493770126 -0.14344782147966284
0.4842897382685474 0.5398980282366291 -0.14344782147966284
0.4697273111500603 0.5475353881112704 -0.14344782147966284
0.53831515572375 0.30519760638948956 -0.14344782147966284
0.21719978762662054 0.48625843595644064 -0.14344782147966284
0.22411496191726096 0.48962204004630866 -0.14344782147966284
0.3951344439806355 0.4837950906082727 -0.14344782147966284
0.22527243744230366 0.4388118323828914 -0.14344782147966284
0.5116437538817382 0.5439937108637035 -0.14146923083856405
0.39659860105504857 0.3355195079643288 -0.14146923083856405
0.46409822077613416 0.2573354987813097 -0.14146923083856405
0.4589835639688938 0.5399870648154785 -0.14146923083856405
0.6188042230036491 0.4709342514411304 -0.14146923083856405
0.6213763908370777 0.4737834219643128 -0.14146923083856405
0.6027380669979269 0.47553447468168514 -0.14146923083856405
0.2217703320075588 0.48467556344356166 -0.14146923083856405
0.2126193502924769 0.4864958668333725 -0.14146923083856405
0.3770501255209925 0.48971107662515806 -0.14146923083856405
0.3904550771144369 0.40941986840936884 -0.14146923083856405
0.5677664774165057 0.5049264386552078 -0.13949064019746524
0.5122670099336843 0.3372903465881121 -0.13949064019746524
0.4994754214389806 0.27672568706407785 -0.13949064019746524
0.5201220147788466 0.27916924650583486 -0.13949064019746524
0.5397298480321356 0.5020772681320256 -0.13949064019746524
0.3755562895869629 0.4851306392910143 -0.13949064019746524
0.3911080120259995 0.3974098232178992 -0.13949064019746524
0.3774161647895958 0.30787859670817846 -0.13949064019746524
0.5418667259245225 0.25482268866711416 -0.1386002744089708
0.29885622338476797 0.3017350727675667 -0.1386002744089708
0.20388387261202573 0.40437446227456686 -0.1386002744089708
0.51798513688646 0.5273933353848846 -0.13751204955636645
0.4620701653690079 0.4637123956011199 -0.13751204955636645
0.45686647198291797 0.33989219328115705 -0.13751204955636645
0.5258500346848277 0.521873067496219 -0.13751204955636645
0.5502163784299593 0.33065217498722566 -0.13751204955636645
0.3888919905079688 0.3103815138691684 -0.13751204955636645
0.2100471824590484 0.30787859670817846 -0.13751204955636645
0.21263913619888783 0.47587083509067196 -0.13751204955636645
0.5939828034110648 0.5204385892814224 -0.13553345891526766
0.3712825338021895 0.3062264735228609 -0.13553345891526766
0.2083653804141144 0.41369362419414213 -0.13553345891526766
0.6032327146582017 0.4813515311665157 -0.13553345891526766
0.5277099098874605 0.4647610486409022 -0.13553345891526766
0.4569752944681785 0.4634848576773934 -0.13553345891526766
0.5463383407734057 0.46409822077613416 -0.13553345891526766
0.553856985209581 0.33651869623808367 -0.13553345891526766
0.39360103623378395 0.3128547521705419 -0.13553345891526766
0.2178230436785667 0.3113312373768959 -0.13553345891526766
0.21001750359943192 0.40755999320673597 -0.13553345891526766
0.5118020411330262 0.5304304720189712 -0.13355486827416885
0.5044120050885222 0.26867282315480584 -0.13355486827416885
0.5337050395299899 0.2882806564080949 -0.13355486827416885
0.5319342009062065 0.29229719540952553 -0.13355486827416885
0.5635718652573761 0.4621493089946518 -0.13355486827416885
0.3870024364457194 0.3192950647073186 -0.13355486827416885
0.29601694581479115 0.3157237086001352 -0.13355486827416885
0.2141923298521505 0.3929382083690158 -0.13355486827416885
0.37425041976383766 0.3639122836640964 -0.13355486827416885
0.43762467799823224 0.4006646048225066 -0.132535894094003
0.19006341698395057 0.4788486140055257 -0.132535894094003
0.5380183671275852 0.34125742082351523 -0.13157627763307006
0.5327553160222624 0.27839759615580645 -0.13157627763307006
0.5365047452871446 0.28740018357280595 -0.13157627763307006
0.5398881352834235 0.30726523360943786 -0.13157627763307006
0.5659164951670782 0.492332709224614 -0.13157627763307006
0.3030607284971029 0.3155654213488473 -0.13157627763307006
0.21645781613620863 0.31079701790379916 -0.13157627763307006
0.21449901140152072 0.4740109598880391 -0.13157627763307006
0.33405535088991567 0.32314342350425573 -0.13157627763307006
0.5193701503352292 0.5439937108637035 -0.12959768699197124
0.4055616166592262 0.4810646355235562 -0.12959768699197124
0.4925107823823129 0.5364256016615008 -0.12959768699197124
0.5321518458767274 0.27728958539679105 -0.12959768699197124
0.540837858791151 0.28756836377729933 -0.12959768699197124
0.5462987689605838 0.3006171690553459 -0.12959768699197124
0.580567958864415 0.4698954913545536 -0.12959768699197124
0.38335193671289214 0.3238557161350513 -0.12959768699197124
0.29908376130849434 0.3117071695987046 -0.12959768699197124
0.21449901140152072 0.3273281427101797 -0.12959768699197124
0.47850236064333346 0.5406894644930685 -0.12761909635087246
0.5603962272784127 0.5009593644198047 -0.12761909635087246
0.4671749292230427 0.5479904639587231 -0.12761909635087246
0.47963015730875963 0.5511562089844811 -0.12761909635087246
0.5553508211436108 0.4578161954906454 -0.12761909635087246
0.21719978762662054 0.3150707736885726 -0.12761909635087246
0.2138460764899581 0.31836512710600207 -0.12761909635087246
0.21859469402859524 0.49796179959854 -0.12761909635087246
0.3409507392741449 0.4781857861407575 -0.12761909635087246
0.6330797544791771 0.5049066527487969 -0.12646162082582965
0.39659860105504857 0.4267226435657778 -0.12646162082582965
0.5470209545445847 0.5186974295172554 -0.12564050570977367
0.48037212879917174 0.26145096731479517 -0.12564050570977367
0.46125894320615735 0.3381213546573736 -0.12564050570977367
0.4621097371818298 0.467659683930112 -0.12564050570977367
0.5033237802359178 0.4570643310470278 -0.12564050570977367
0.29375145953073306 0.32012607277658 -0.12564050570977367
0.2100471824590484 0.3124986058551441 -0.12564050570977367
0.21001750359943192 0.4829640825390112 -0.12564050570977367
0.3834607591981527 0.4006646048225066 -0.12564050570977367
0.6457823063950312 0.44569732781391536 -0.12366191506867488
0.6403609680384206 0.45740069145601464 -0.12366191506867488
0.6515894699266561 0.45084166348077215 -0.12366191506867488
0.591964640957144 0.332620872675119 -0.12366191506867488
0.22136472092613357 0.4855164644660286 -0.12366191506867488
0.21325249929762843 0.485506571512823 -0.12366191506867488
0.3755562895869629 0.488969105134746 -0.12366191506867488
0.3904550771144369 0.47400106693483357 -0.12366191506867488
0.6690109605215313 0.4397516629374133 -0.12343437714494852
0.41156663925496106 0.34854852733596425 -0.12343437714494852
0.48266729394284635 0.26044188608783475 -0.12168332442757605
0.4813020664004882 0.5414809007495082 -0.12168332442757605
0.6724636011902486 0.38396529981163274 -0.12168332442757605
0.6703662951106839 0.3741119184189608 -0.12168332442757605
0.5978608410676184 0.3247164030639292 -0.12168332442757605
0.22136472092613357 0.31581274517898467 -0.12168332442757605
0.21353939494058788 0.3170295784232605 -0.12168332442757605
0.20553599579734325 0.49796179959854 -0.12168332442757605
0.33404545793671014 0.47819567909396304 -0.12168332442757605
0.5418667259245225 0.5570227302353392 -0.12039724051086186
0.41156663925496106 0.4788486140055257 -0.12039724051086186
0.5734054607436372 0.29514636593270777 -0.11970473378647727
0.5368015338833095 0.5244452353296475 -0.11970473378647727
0.5383349416301612 0.528244129360557 -0.11970473378647727
0.552650044918511 0.5264732907367738 -0.11970473378647727
0.6088123402661002 0.4681741174967976 -0.11970473378647727
0.3926710986324676 0.4870103004000581 -0.11970473378647727
0.39491679901011456 0.30787859670817846 -0.11970473378647727
0.22940769188220023 0.31236999746347277 -0.11970473378647727
0.5581406339475599 0.28596570535800936 -0.11772614314537848
0.5754335161507635 0.5055793735667704 -0.11772614314537848
0.5518289298024549 0.5230305430212618 -0.11772614314537848
0.5869390207287529 0.50847800885598 -0.11772614314537848
0.5922317506936922 0.4601806113067585 -0.11772614314537848
0.3848358796937163 0.32102633151828003 -0.11772614314537848
0.2983813616309043 0.31380447567826936 -0.11772614314537848
0.21449901140152072 0.3919093412356444 -0.11772614314537848
0.6721668125940837 0.33300669785013326 -0.1173601038767752
0.380225763499956 0.3017350727675667 -0.1173601038767752
0.19006341698395057 0.4397516629374133 -0.1173601038767752
0.5967330444021921 0.4930746807150259 -0.11574755250427969
0.5922416436468977 0.4867926554295373 -0.11574755250427969
0.5922614295533087 0.46852037085898984 -0.11574755250427969
0.6008979777017049 0.3152488468462715 -0.11574755250427969
0.61100857587772 0.46019050425996394 -0.11574755250427969
0.3880214106258854 0.4908586591969954 -0.11574755250427969
0.3889018834611743 0.3227773842356524 -0.11574755250427969
0.30942189740823556 0.3110146628743201 -0.11574755250427969
0.6054487361762323 0.2964225568962164 -0.11433286019589403
0.4507328409955118 0.3876355854508711 -0.11433286019589403
0.19006341698395057 0.4658097016806845 -0.11433286019589403
0.4646225472960253 0.46008168177470354 -0.11376896186318089
0.5123560465125339 0.27176931750812544 -0.11376896186318089
0.4892955725905273 0.25046978925669683 -0.11376896186318089
0.6074174338641257 0.4601608254003474 -0.11376896186318089
0.5773923208854512 0.4570643310470278 -0.11376896186318089
0.3890008129932292 0.39653924333581564 -0.11376896186318089
0.3065727268850533 0.31380447567826936 -0.11376896186318089
0.21001750359943192 0.3254682675075468 -0.11376896186318089
0.5353670556685128 0.2750537779723494 -0.11179037122208206
0.6178841783555382 0.32369742888376335 -0.11179037122208206
0.6482357587899936 0.4541063380385852 -0.11179037122208206
0.5881459610198233 0.5091408367207483 -0.11179037122208206
0.6113053644738848 0.4569555085617674 -0.11179037122208206
0.30826442188319286 0.3196611039759218 -0.11179037122208206
0.2138460764899581 0.32203541274524045 -0.11179037122208206
0.21859469402859524 0.49796179959854 -0.11179037122208206
0.5939828034110648 0.2703645181529452 -0.11129572356180739
0.6519950810080816 0.46585916644671205 -0.11129572356180739
0.39659860105504857 0.34854852733596425 -0.11129572356180739
0.48354776677813527 0.5403926758969037 -0.10981178058098327
0.6107117872815552 0.3405847000055417 -0.10981178058098327
0.4943706575849458 0.258582010885202 -0.10981178058098327
0.5817254343894577 0.28808279734398506 -0.10981178058098327
0.6460692020379906 0.4478243127530964 -0.10981178058098327
0.29375145953073306 0.32012607277658 -0.10981178058098327
0.2100471824590484 0.3124986058551441 -0.10981178058098327
0.21001750359943192 0.4829640825390112 -0.10981178058098327
0.3834607591981527 0.4006646048225066 -0.10981178058098327
0.6753028787602254 0.4658097016806845 -0.10931713292070858
0.19006341698395057 0.3746065660792354 -0.10931713292070858
0.28947770374595977 0.49721982810812804 -0.10931713292070858
0.29907386835528893 0.48962204004630866 -0.10783318993988449
0.3866265042239107 0.47400106693483357 -0.10783318993988449
0.38610217770401956 0.3069486591068621 -0.10783318993988449
0.5374445758416666 0.27542971019415813 -0.10783318993988449
0.6106227507027056 0.4841314510172594 -0.10783318993988449
0.6721865985004948 0.4250210556144329 -0.10783318993988449
0.6836921030784842 0.41454441816981474 -0.10783318993988449
0.6331885769644374 0.34009005234526685 -0.10783318993988449
0.6851958319657194 0.34854852733596425 -0.10733854227960977
0.380225763499956 0.2996080878283855 -0.10733854227960977
0.2083653804141144 0.4397516629374133 -0.10733854227960977
0.48943407393540417 0.5397199550789302 -0.1058545992987857
0.631674955123997 0.45832073610412566 -0.1058545992987857
0.48260793622361337 0.25380371448694833 -0.1058545992987857
0.5655009911324475 0.29667977367955933 -0.1058545992987857
0.6581880697147207 0.43171858493455223 -0.1058545992987857
0.29547283338848906 0.3199677855252922 -0.1058545992987857
0.21353939494058788 0.3170295784232605 -0.1058545992987857
0.21885191081193806 0.49438055053815116 -0.1058545992987857
0.3796816510736539 0.43254959300381374 -0.1058545992987857
0.6693176420709014 0.4524740007596786 -0.10535995163851099
0.19006341698395057 0.34854852733596425 -0.10535995163851099
0.30712673226456094 0.5015925134249563 -0.10535995163851099
0.49611181734911275 0.5387603386179973 -0.1038760086576869
0.48400284262558807 0.5476046387837089 -0.1038760086576869
0.6282618862681015 0.4760983730143983 -0.1038760086576869
0.6889254753241905 0.40755010025353045 -0.1038760086576869
0.643032065403904 0.3547613019490145 -0.1038760086576869
0.221612044756271 0.3238557161350513 -0.1038760086576869
0.21605220505478326 0.47855182540936086 -0.1038760086576869
0.30934275378259163 0.4934605058900402 -0.1038760086576869
0.3796816510736539 0.44284815729073296 -0.1038760086576869
0.24217949447049295 0.5179356721204323 -0.10258992474097266
0.20388387261202573 0.3948772271972927 -0.10258992474097266
0.636928113276114 0.3392491513227999 -0.10189741801658808
0.5759083779046273 0.508735225639323 -0.10189741801658808
0.6613637076936845 0.44246233211571867 -0.10189741801658808
0.643734465081494 0.33308584147577713 -0.10189741801658808
0.6492547329701597 0.4447278183997768 -0.10189741801658808
0.2179615450234437 0.48203414493769464 -0.10189741801658808
0.2119862012873252 0.48748516215392185 -0.10189741801658808
0.38592410454632065 0.4941233337548084 -0.10189741801658808
0.3959456661434861 0.39963573768913524 -0.10189741801658808
0.7112538707089904 0.4267226435657778 -0.10061133409987387
0.40213865485012523 0.4006646048225066 -0.10061133409987387
0.4906311212732691 0.5433902407181683 -0.09991882737548928
0.6534097733164672 0.4344193611596522 -0.09991882737548928
0.644614937916783 0.3536829700496157 -0.09991882737548928
0.49639871299207206 0.5468626672932967 -0.09991882737548928
0.6513718249561353 0.45453173502642136 -0.09991882737548928
0.6682689890311191 0.40017985011543733 -0.09991882737548928
0.3911080120259995 0.3183453411995911 -0.09991882737548928
0.22611333846477075 0.36334838533138325 -0.09991882737548928
0.5679247646677935 0.2573354987813097 -0.09863274345877508
0.5679247646677935 0.532547564004947 -0.09863274345877508
0.20388387261202573 0.4397516629374133 -0.09863274345877508
0.3021901486150195 0.48962204004630866 -0.09794023673439049
0.22494596998652236 0.48252879259796944 -0.09794023673439049
0.4974275801254434 0.5386614090859424 -0.09794023673439049
0.49795190664533456 0.26099589146734253 -0.09794023673439049
0.614154534997067 0.33743874088619447 -0.09794023673439049
0.45686647198291797 0.3396943342170472 -0.09794023673439049
0.6797151358898758 0.4250210556144329 -0.09794023673439049
0.6277375597482103 0.309451576267852 -0.09665415281767628
0.22473821796920698 0.4995941368774465 -0.09665415281767628
0.20388387261202573 0.3746065660792354 -0.09665415281767628
0.2138460764899581 0.4829838684454221 -0.0959616460932917
0.3834112944321251 0.48091624122547383 -0.0959616460932917
0.6263228674398247 0.32744685814864566 -0.0959616460932917
0.6146293967509306 0.48392369899994403 -0.0959616460932917
0.5685183418601232 0.5224765376417542 -0.0959616460932917
0.6081989771673595 0.37508142783309917 -0.0959616460932917
0.6688328873638324 0.38080944773908015 -0.0959616460932917
0.657109737815322 0.3478263417519633 -0.0946755621765775
0.4507328409955118 0.41369362419414213 -0.0946755621765775
0.19940236480993695 0.32026457412145704 -0.0946755621765775
0.20553599579734325 0.3033773029996787 -0.09398305545219292
0.6327730729298067 0.3322845122661321 -0.09398305545219292
0.5790840158835908 0.2842047596874313 -0.09398305545219292
0.5796578071695094 0.5124747619509997 -0.09398305545219292
0.590124551660922 0.4921645290201205 -0.09398305545219292
0.6782905506282845 0.4220135978399627 -0.09398305545219292
0.20259778869531142 0.4006646048225066 -0.09269697153547866
0.5325871358177691 0.5439937108637035 -0.09269697153547866
0.6417657673936006 0.35971767150496703 -0.09269697153547866
0.5653031320683377 0.2703645181529452 -0.09269697153547866
0.213262392250834 0.3996258447359297 -0.09200446481109409
0.3454322470762337 0.4826771868960519 -0.09200446481109409
0.4691337339577306 0.46008168177470354 -0.09200446481109409
0.5040162869603024 0.26344934386230495 -0.09200446481109409
0.6414195140314084 0.32497361984727213 -0.09200446481109409
0.6673588373362137 0.4398011277034409 -0.09200446481109409
0.22311577364350596 0.5033336731891233 -0.09071838089437988
0.4507328409955118 0.3876355854508711 -0.09071838089437988
0.6519950810080816 0.4426404052734176 -0.09071838089437988
0.5319737727190285 0.25681117226141853 -0.09071838089437988
0.21332174997006695 0.48536807016794614 -0.0900258741699953
0.39493658491652567 0.4011493595295759 -0.0900258741699953
0.22790396299496513 0.3191763492688527 -0.0900258741699953
0.5231096866469058 0.27295647189278466 -0.0900258741699953
0.5702001439050572 0.5133552347862887 -0.0900258741699953
0.46781797118139995 0.3454322470762337 -0.0900258741699953
0.6845033252413348 0.3962028829268289 -0.0900258741699953
0.5288377065528868 0.5570227302353392 -0.08953122650972059
0.4010801088571374 0.404137031397635 -0.08873979025328109
0.6651428158181829 0.4572028323919048 -0.08873979025328109
0.6547156431395922 0.33237354884498155 -0.08873979025328109
0.3844995192847294 0.48962204004630866 -0.0880472835288965
0.3052074993426951 0.30787859670817846 -0.0880472835288965
0.22098878870432484 0.3228565278612964 -0.0880472835288965
0.5049363316084133 0.2719177118062079 -0.0880472835288965
0.46786743594742736 0.3896834267644083 -0.0880472835288965
0.6851067953868698 0.39786489906535183 -0.0880472835288965
0.6097620637738277 0.4887910319770471 -0.0880472835288965
0.512059257916369 0.5475254951580649 -0.0880472835288965
0.19006341698395057 0.4918776333771612 -0.08676119961218229
0.6114933305847889 0.5049066527487969 -0.08676119961218229
0.6330797544791771 0.2964225568962164 -0.08676119961218229
0.2113629452353792 0.4884744574744713 -0.08606869288779771
0.2261034455115652 0.43741692598091686 -0.08606869288779771
0.22149332931780505 0.36044975004217356 -0.08606869288779771
0.6041032945402851 0.2985000770693702 -0.08606869288779771
0.4677091486961394 0.43317284905575987 -0.08606869288779771
0.5356341654050613 0.3733303751157267 -0.08606869288779771
0.6081594053545376 0.3443638081300403 -0.08606869288779771
0.6654099255547314 0.42153873608609893 -0.08606869288779771
0.5533920164089229 0.5123065817465062 -0.08606869288779771
0.20388387261202573 0.3876355854508711 -0.0847826089710835
0.5394528453423819 0.5428857001046883 -0.0847826089710835
0.5721391627333341 0.27287732826714073 -0.0847826089710835
0.2113629452353792 0.4884744574744713 -0.08409010224669893
0.39493658491652567 0.3183552341527967 -0.08409010224669893
0.22149332931780505 0.3916916962651236 -0.08409010224669893
0.6405786130089413 0.3225597392651316 -0.08409010224669893
0.4878512014225252 0.3984584762576815 -0.08409010224669893
0.4667297463287955 0.4583800938233586 -0.08409010224669893
0.5911732047007043 0.38451930519114036 -0.08409010224669893
0.6732847163063046 0.4403650260361541 -0.08409010224669893
0.6358695672831262 0.4745253934547247 -0.08409010224669893
0.3410793476658164 0.5179356721204323 -0.08280401832998467
0.19940236480993695 0.309451576267852 -0.08280401832998467
