-0.36311544075463376 0.1923164474415122 -0.18425393729517495
0.3789193050155414 0.46587416780269475 -0.18373112515043794
0.6912248740466617 0.2862732585956793 -0.18373112515043794
-0.04726968662915133 0.3414747523349836 -0.18373112515043794
0.45962656267308727 0.14692141578848947 -0.18373112515043794
0.2218665367365409 0.22958548461633688 -0.18373112515043794
-0.41092287701837166 0.1484002272836027 -0.18373112515043794
-0.42465789893510564 0.3054679330524527 -0.18373112515043794
0.23154603015910072 0.05743091409936154 -0.1833576879041972
0.23693846399481666 0.04476392270687598 -0.18276018831021204
-0.5117509335033681 0.2710146127142831 -0.18276018831021204
0.3905107971388535 0.07823883745989478 -0.18223737616547503
-0.05476830653366507 0.10689641173640822 -0.18223737616547503
7.991557069551516E-4 0.4321005032526834 -0.18223737616547503
0.4589693131197036 0.3892821885987216 -0.18223737616547503
0.10279233640022267 0.20262331543775636 -0.18223737616547503
-0.2674258807779097 0.2532315310482997 -0.18223737616547503
-0.42482968006837635 0.19602841366914503 -0.18223737616547503
-0.5117882772279921 0.28085094978026387 -0.1812664393252491
0.5222071763981085 0.025091248574914453 -0.1812664393252491
0.7189488552075732 0.39095518746187996 -0.1812664393252491
-0.02955382366749123 0.24791378466183173 -0.1807436271805121
0.35545997720669875 0.4873916219310855 -0.1807436271805121
-0.048233154724452346 0.14559944793679724 -0.1807436271805121
0.5633823671686109 0.4264317258547491 -0.1807436271805121
0.28868192883393184 0.4783021593575861 -0.1807436271805121
0.24196492932921687 0.19092726088549675 -0.1807436271805121
-0.4217749633941272 0.35353677538855915 -0.1807436271805121
-0.49289235256821134 0.29548222108797556 -0.1807436271805121
0.2861201493247205 0.5071016397876711 -0.1797726903402862
-0.18939990254837222 0.30052362391222537 -0.1797726903402862
-0.43196980021649906 0.21199659031839857 -0.1797726903402862
0.4307523947937543 0.3662485792505935 -0.1792498781955492
0.31987140763995753 0.05445835361928528 -0.1792498781955492
0.09067056338724862 0.44122730955080663 -0.1792498781955492
0.38455820743377633 0.07055349893226064 -0.1792498781955492
0.22388309786624092 0.34078762780190064 -0.1792498781955492
0.1966445851254423 0.19393716509019707 -0.1792498781955492
-0.35381685332323964 0.34467137516280416 -0.1792498781955492
-0.5274128916107041 0.20088309787027453 -0.1792498781955492
0.5517236563409756 0.4775926285897287 -0.17827894135532332
-0.2164367591762008 0.30052362391222537 -0.17827894135532332
-0.27205650263129477 0.2218329273843794 -0.17827894135532332
0.42305211877627047 0.4623937326677311 -0.17775612921058628
0.39340867016968156 0.05063435621778022 -0.17775612921058628
-0.05408865074550699 0.2447320993238607 -0.17775612921058628
0.5067244681689679 0.45440964434310444 -0.17775612921058628
-0.05252021431129588 0.41955301177899496 -0.17775612921058628
0.3212605941959731 0.1852286085078632 -0.17775612921058628
-0.2866728364491568 0.2893578502496277 -0.17775612921058628
-0.4223575254982628 0.1939296963452722 -0.17775612921058628
-0.28981717806250373 0.19876197431162715 -0.17738269196434556
0.28877902251795445 0.15297109917758916 -0.17678519237036042
-0.38782951771084506 0.18921691829771423 -0.17678519237036042
0.4434641986557887 0.15034956970897925 -0.17626238022562338
0.5804783243015116 0.42087497963068704 -0.17626238022562338
-0.06080305243291528 0.4069233641111335 -0.17626238022562338
-0.054589056655469516 0.2935552848973735 -0.17626238022562338
0.6669738592757888 0.21101071598832302 -0.17626238022562338
0.25248839092828074 0.35948189634871147 -0.17626238022562338
-0.2911018021895718 0.21188455914452636 -0.17626238022562338
-0.29399967522039994 0.22592579960317766 -0.17626238022562338
-0.28981717806250373 0.30815668122538586 -0.17588894297938265
0.23220327971248433 0.16280743624356997 -0.1752914433853975
-0.4179210910129229 0.18944098064545867 -0.1752914433853975
0.4561834712627479 0.08752248740143934 -0.17476863124066047
0.6930397790633916 0.24376116248363486 -0.17476863124066047
0.3044484493702155 0.4909318070254475 -0.17476863124066047
0.5793505438178644 0.40888017528143494 -0.17476863124066047
0.24751420680835404 0.07704383827192447 -0.17476863124066047
0.2277295015025203 0.334371975911485 -0.17476863124066047
0.293305081942392 0.36327601877051724 -0.17476863124066047
-0.2112385127085299 0.29248725437312495 -0.17476863124066047
-0.4171069978161181 0.20754521834320908 -0.17476863124066047
0.7681305405374771 0.2906872868462447 -0.17379769440043458
0.49269816520016607 0.03611511608394083 -0.17379769440043458
-0.48821691824527735 0.2930175352627868 -0.17379769440043458
-0.4189293715777729 0.22747182980261435 -0.17327488225569754
-0.39497710660389257 0.3577790225058538 -0.17327488225569754
-0.2791294040750942 0.24535947389754514 -0.17327488225569754
-0.042571846071442945 0.14620441627570724 -0.17327488225569754
0.22046241269067585 0.34163906472332956 -0.17327488225569754
0.3125296313788648 0.17628852083286017 -0.17327488225569754
0.09807208960773985 0.46086263995814425 -0.17327488225569754
0.29337976939164034 0.059320506565339624 -0.17327488225569754
0.4680811819279774 0.3959443090716561 -0.17327488225569754
0.3058002922016068 0.49726530272169034 -0.17290144500945684
0.32542068511909467 0.5071016397876711 -0.17230394541547167
-0.5332086376723603 0.2218329273843794 -0.17230394541547167
-0.5195557719497992 0.29380175347989235 -0.17178113327073463
-0.2954710179705884 0.2954747523430508 -0.17178113327073463
-0.29718882930329565 0.21801639872779907 -0.17178113327073463
-0.05747199219644801 0.30014271792105995 -0.17178113327073463
0.2007374573442407 0.19803003730899535 -0.17178113327073463
0.3054716674249151 0.05527991556101487 -0.17178113327073463
0.10381555445492216 0.43838918647937714 -0.17178113327073463
0.6800366941492894 0.22467105045580887 -0.17178113327073463
0.5144247441864518 0.0862303945294464 -0.17178113327073463
-0.2549082642839205 0.21199659031839857 -0.17081019643050876
0.3174067218147686 0.5005142067639846 -0.17081019643050876
0.2942461438029187 0.07528868321459306 -0.17028738428577175
0.287031336205548 0.49525621033691514 -0.17028738428577175
0.5954830328554639 0.13081133298566439 -0.17028738428577175
0.45604156510917637 0.07708118199654862 -0.17028738428577175
0.09868452669157458 0.19007582396406786 -0.17028738428577175
-0.07069167071336972 0.20667137518700585 -0.17028738428577175
-0.4028790387343464 0.3659199544739016 -0.17028738428577175
-0.5215648643345744 0.20548384474396028 -0.17028738428577175
-0.3139262866798051 0.16280743624356997 -0.16931644744554586
0.4430011364704501 0.28085094978026387 -0.16931644744554586
0.46922389990147395 0.4437069328658452 -0.16879363530080885
0.705908426568847 0.2967295014904196 -0.16879363530080885
0.18687546676378472 0.07860480596121074 -0.16879363530080885
0.15005455428444917 0.46202776416641517 -0.16879363530080885
0.25047182979858074 0.18936629319621048 -0.16879363530080885
-0.058786491303215276 0.2051402824774189 -0.16879363530080885
-0.3562740704035036 0.16513768466011208 -0.16879363530080885
-0.5158064619975424 0.3004339989731276 -0.16879363530080885
-0.29837635974634125 0.22150430260768747 -0.16782269846058295
0.4431281051341719 0.32576051301317377 -0.16782269846058295
0.4638837472802315 0.388453157912067 -0.16729988631584594
0.7176268873558811 0.2711565188678547 -0.16729988631584594
0.4561610650279733 0.323818639332722 -0.16729988631584594
0.33628770898469995 0.4895127454897327 -0.16729988631584594
0.22911868805853586 0.3382557232723885 -0.16729988631584594
-0.274543594691258 0.272993830119359 -0.16729988631584594
-0.4120730637367931 0.13914645232175743 -0.16729988631584594
-0.5197424905729197 0.21257915242253414 -0.16729988631584594
-0.2647446013499013 0.2991344373562099 -0.16632894947562002
0.3254729663335684 0.15297109917758916 -0.16632894947562002
0.44808735176424885 0.3875345022863149 -0.165806137330883
0.5430225685035664 0.4547756128444204 -0.165806137330883
0.5873122259077168 0.41684185737128726 -0.165806137330883
0.1901915895104025 0.4589058287878428 -0.165806137330883
0.24348108454895423 0.35261811976280694 -0.165806137330883
-0.2696739730002789 0.23967575900976132 -0.165806137330883
-0.3433307354488 0.17833495694225937 -0.165806137330883
-0.5185923038544982 0.20957671696275867 -0.165806137330883
-0.392624451952576 0.13724192236592975 -0.1648352004906571
0.4433895112065404 0.2415056015163409 -0.1648352004906571
0.35245007300199854 0.5169379768536517 -0.1648352004906571
0.319610001567589 0.0725177788474869 -0.1643123883459201
0.33497320987793244 0.4932620554419897 -0.1643123883459201
0.6464348107325487 0.36411998694702125 -0.1643123883459201
0.1074976457028558 0.18492238996594584 -0.1643123883459201
-0.3984426042490065 0.35607614866299603 -0.1643123883459201
-0.3759318070456155 0.16282237373341957 -0.1643123883459201
-0.5228868321862666 0.2967892514498181 -0.1643123883459201
-0.2549082642839205 0.21199659031839857 -0.1633414515056942
0.3474086701777486 0.0315666504247287 -0.1633414515056942
0.7386215293395348 0.17146371161143006 -0.1633414515056942
0.4581328136881244 0.0793890241783163 -0.1628186393609572
0.4660272770736533 0.07674508847493196 -0.1628186393609572
0.4728686474247834 0.45712079875081213 -0.1628186393609572
0.3122532878166466 0.17655739565015352 -0.1628186393609572
-0.31254456886871446 0.3097848676189955 -0.1628186393609572
-0.41656924818153146 0.22193748981332675 -0.1628186393609572
-0.5260386425445382 0.30593099523779116 -0.1628186393609572
0.5910690046048986 0.07616999511572124 -0.1618477025207313
-0.29902614055480015 0.2218329273843794 -0.1618477025207313
0.47074752386613616 0.4826489689038283 -0.1613248903759943
0.3942526383461856 0.041193862632814666 -0.1613248903759943
0.5126919953638948 0.46549326181152906 -0.1613248903759943
0.2293726253859795 0.4761511608192396 -0.1613248903759943
0.1789436596536318 0.19803003730899535 -0.1613248903759943
-0.26587985057847313 0.25367218699886374 -0.1613248903759943
-0.41287221944374825 0.24634534822762072 -0.1613248903759943
0.49269816520016607 0.5082817014857918 -0.1603539535357684
0.4336801428042816 0.3398764409210733 -0.1603539535357684
-0.49026335435467655 0.2914565675735005 -0.1603539535357684
0.7194119173929118 0.2782966390159773 -0.15983114139103138
0.2522717973254609 0.07017259294109508 -0.15983114139103138
0.46932099358549656 0.4654633868318299 -0.15983114139103138
0.30295470038525246 0.3835760674761632 -0.15983114139103138
-0.02158467283271405 0.251409157286645 -0.15983114139103138
-0.42114012007551793 0.30608783888121227 -0.15983114139103138
-0.5266660171182227 0.19977025487647715 -0.15983114139103138
-0.2549082642839205 0.2218329273843794 -0.15886020455080546
0.6599233640667639 0.12346208797964692 -0.15886020455080546
0.3367358336801886 0.04338967364071012 -0.15833739240606845
0.4468923525762786 0.3949957784662046 -0.15833739240606845
0.4844153270785469 0.3922174053541737 -0.15833739240606845
0.1149887968624448 0.3351188504039664 -0.15833739240606845
-0.057016398756034266 0.2688262704513124 -0.15833739240606845
-0.37652930663960066 0.1560183471069135 -0.15833739240606845
-0.5160828055597605 0.20505812628324585 -0.15833739240606845
-0.4184289656678103 0.18675223247252543 -0.15736645556584256
0.3746546516634723 0.025091248574914453 -0.15736645556584256
-0.5159558368960386 0.2977228445654199 -0.15684364342110554
-0.2746406883752806 0.27580954695601406 -0.15684364342110554
-0.03049488552801779 0.2953179086996297 -0.15684364342110554
0.24451177134857868 0.18838041886613505 -0.15684364342110554
0.4184140281779606 0.044487579144657896 -0.15684364342110554
0.411154408111041 0.48128965732751194 -0.15684364342110554
0.7166410130258055 0.2745174540840211 -0.15684364342110554
-0.3434427666226722 0.3595491150530348 -0.15587270658087965
0.38602208143904 0.025091248574914453 -0.15587270658087965
-0.5036772202396436 0.30736499426335556 -0.15534989443614264
-0.25946419868805737 0.2595575579996176 -0.15534989443614264
0.11526514042466288 0.20148806620918452 -0.15534989443614264
0.24833576875008373 0.18818623149808977 -0.15534989443614264
0.44389738586142785 0.46924257176378603 -0.15534989443614264
0.3798080856615943 0.04498798505462042 -0.15534989443614264
0.487350543833999 0.44883796062919273 -0.15534989443614264
0.7976470204803442 0.2906872868462447 -0.15437895759591677
-0.3139262866798051 0.3398764409210733 -0.15437895759591677
-0.5197350218279948 0.20507306377309553 -0.15385614545117973
-0.40183341444487236 0.1408941386341641 -0.15385614545117973
-0.036888131183659106 0.2880806948674844 -0.15385614545117973
0.3111553823126989 0.38203003727672663 -0.15385614545117973
0.43348595543623636 0.49621967843221615 -0.15385614545117973
0.32951355733789306 0.04719873355236558 -0.15385614545117973
0.47788764401425876 0.153785192374394 -0.15385614545117973
0.777966877603458 0.2532315310482997 -0.15288520861095387
-0.35327910368865295 0.3595491150530348 -0.15288520861095387
-0.5229391134007402 0.2530448124251793 -0.15236239646621683
-0.3962691994758855 0.15309059909638623 -0.15236239646621683
-0.025528170153016175 0.26451680462969446 -0.15236239646621683
0.24653580122320334 0.18790241919094686 -0.15236239646621683
0.28390940082697547 0.07155431075218578 -0.15236239646621683
0.32946874486834415 0.4948753043457497 -0.15236239646621683
0.3873440492907321 0.03994658223037063 -0.15236239646621683
-0.33360642955669145 0.16368874814469805 -0.15139145962599093
0.44456210415973635 0.30052362391222537 -0.15139145962599093
0.41305893806686866 0.5169379768536517 -0.15139145962599093
-0.37947199213997757 0.154950316582665 -0.1508686474812539
-0.018768955996059 0.2710146127142831 -0.1508686474812539
0.21853547650007363 0.19803003730899535 -0.1508686474812539
0.47935898676444727 0.08794820586215378 -0.1508686474812539
0.3249053417192826 0.49093927577037233 -0.1508686474812539
0.7075067379827573 0.2419387887219801 -0.1508686474812539
-0.36311544075463376 0.3300326351101677 -0.14989771064102803
0.3254729663335684 0.38905812625097713 -0.14989771064102803
0.4286686149597311 0.5071016397876711 -0.14989771064102803
-0.3738853709362163 0.1568399090486431 -0.149374898496291
-0.019866861500006675 0.26627942843195074 -0.149374898496291
0.2572683876801619 0.17563127127947653 -0.149374898496291
0.47530345827027315 0.08032261729391811 -0.149374898496291
0.3242704984006733 0.49082724459650023 -0.149374898496291
0.3058301671813062 0.05983584996515174 -0.149374898496291
-0.43196980021649906 0.2094124045744127 -0.14840396165606512
0.4336801428042816 0.3398764409210733 -0.14840396165606512
0.49269816520016607 0.5169379768536517 -0.14840396165606512
-0.3997048221413002 0.30109871727143617 -0.14788114951132808
-0.02222698489624809 0.28134388694530166 -0.14788114951132808
0.2666192563260298 0.20798587429377322 -0.14788114951132808
0.33086540016928456 0.06569134598620639 -0.14788114951132808
0.33073843150556254 0.48827293383221354 -0.14788114951132808
0.6698194510921431 0.18510163984414138 -0.14788114951132808
-0.28981717806250373 0.3000754992167366 -0.1469102126711022
-0.42884039609300173 0.2316692644503601 -0.1469102126711022
0.6992761810756118 0.3693854521190155 -0.1469102126711022
-0.397538886113104 0.30321984083008346 -0.1463874005263652
-0.3018119824117559 0.29865643768102174 -0.1463874005263652
0.10569020943105065 0.21482724464490333 -0.1463874005263652
0.48295145307328324 0.08750008116666488 -0.1463874005263652
0.3381100827463547 0.48881815221172503 -0.1463874005263652
0.35366000967981853 0.057991069968722546 -0.1463874005263652
-0.5245299560697257 0.3201962980441869 -0.1454164636861393
-0.2647446013499013 0.20215278450749302 -0.1454164636861393
0.777966877603458 0.21199659031839857 -0.1454164636861393
-0.40079525890032314 0.3074471504575285 -0.1448936515414023
-0.3301110569318782 0.32785176159212187 -0.1448936515414023
0.10145543105868085 0.3224294527767065 -0.1448936515414023
0.44516707249864623 0.1462118850206321 -0.1448936515414023
0.34395064127755953 0.491880337630899 -0.1448936515414023
0.3715103100501252 0.05424176001646568 -0.1448936515414023
-0.43196980021649906 0.23913800937517465 -0.14392271470117637
-0.30140120144089116 0.2922258483007565 -0.14392271470117637
0.689439844009631 0.4204641986598222 -0.14392271470117637
0.3347790225098874 0.04189592465574719 -0.14339990255643936
0.4918766032584366 0.4155348270094446 -0.14339990255643936
0.22120181843823242 0.3386067542838548 -0.14339990255643936
-0.3421730799854537 0.33467819445340236 -0.14339990255643936
-0.42467283642495524 0.2026009092029819 -0.14339990255643936
-0.29753986031476204 0.289342912759778 -0.14302646531019864
0.45088813111105436 0.13818298422645642 -0.14242896571621347
-0.5128040265377669 0.2415056015163409 -0.14242896571621347
0.48700698156745736 0.14615960380615833 -0.14190615357147646
0.3670514693300111 0.49536077276586266 -0.14190615357147646
0.7179106996630239 0.29368972230602014 -0.14190615357147646
0.10116415000661308 0.26621967847255223 -0.14190615357147646
-0.2667238187549772 0.2575260593800681 -0.14190615357147646
-0.5293174215665319 0.28210569892763276 -0.14190615357147646
-0.27943562261701155 0.20215278450749302 -0.14093521673125056
0.7582942034714962 0.3497127779870541 -0.14093521673125056
0.48821691824527735 0.09061454780031257 -0.14041240458651355
0.49335541475354994 0.08077074198940701 -0.14041240458651355
0.3743185581418555 0.4928139307465008 -0.14041240458651355
0.1789436596536318 0.19803003730899535 -0.14041240458651355
-0.33843870752304644 0.16339746709263028 -0.14041240458651355
-0.5037444389439669 0.3018455917639176 -0.14041240458651355
0.44351647987026244 0.025091248574914453 -0.13944146774628766
-0.51066796548927 0.2415056015163409 -0.13944146774628766
0.4894268549230974 0.09059961031046286 -0.13891865560155064
0.7263578501729892 0.26884867668608686 -0.13891865560155064
0.22315116086360898 0.3377329111276516 -0.13891865560155064
-0.3204315635093186 0.18449667150523139 -0.13891865560155064
-0.3956791686268252 0.30107631103666177 -0.13891865560155064
-0.4909952913573085 0.29200178595301207 -0.13794771876132475
0.44574216585785714 0.2710146127142831 -0.13794771876132475
0.4505595063343624 0.15335947391367957 -0.13742490661658774
0.47643123875392 0.07617746386064599 -0.13742490661658774
0.38090599116554197 0.4968171780262014 -0.13742490661658774
0.29988504622115364 0.15612290953586097 -0.13742490661658774
-0.28652346155066055 0.2975062509626003 -0.13742490661658774
-0.531685013707698 0.22078730309490535 -0.13742490661658774
-0.3816752718927979 0.3103599609782062 -0.13645396977636182
0.5910690046048986 0.08410927097079902 -0.13645396977636182
0.4782162687909507 0.4717968825280727 -0.1359311576316248
0.4028566324995719 0.4897666828171764 -0.1359311576316248
0.627090761377279 0.40069443084383816 -0.1359311576316248
0.12706575740586995 0.3480397791238956 -0.1359311576316248
-0.39095145308941753 0.20656681275805838 -0.1359311576316248
-0.43196980021649906 0.20215278450749302 -0.1349602207913989
-0.28441727548186285 0.30963549272049923 -0.1349602207913989
0.5517236563409756 0.4775926285897287 -0.1349602207913989
0.48826173071482626 0.4907749633820265 -0.1344374086466619
0.49343757094772284 0.0769392758429771 -0.1344374086466619
0.2685088487920078 0.3539251501246494 -0.1344374086466619
-0.30181945115668074 0.30731271304888186 -0.1344374086466619
-0.41434356219393675 0.2720602370037572 -0.1344374086466619
-0.51066796548927 0.2218329273843794 -0.133466471806436
0.4259798667867978 0.15297109917758916 -0.133466471806436
0.7351560316944209 0.2703872381405987 -0.132943659661699
0.6721048870391364 0.3790948205212745 -0.132943659661699
0.409137846981341 0.490513557309658 -0.132943659661699
0.23000746870458877 0.3147291767592227 -0.132943659661699
-0.39983925954994687 0.19794788111482242 -0.132943659661699
-0.5127144015986691 0.2306759213753598 -0.13197272282147313
0.4336801428042816 0.3201962980441869 -0.13197272282147313
0.45318850454789716 0.17091849323191854 -0.1314499106767361
0.43057314491555876 0.14376960543021763 -0.1314499106767361
0.5065452182907724 0.0941099204251257 -0.1314499106767361
0.3021256696985981 0.38443497314251696 -0.1314499106767361
-0.31157363202848853 0.3074471504575285 -0.1314499106767361
-0.5041477511699068 0.3050720895714375 -0.1314499106767361
0.24677480106079747 0.3840615358962761 -0.13047897383651022
0.5265689234342 0.4874289656557095 -0.13047897383651022
0.40281182003002297 0.5102310439111682 -0.12995616169177318
0.6019509659603534 0.4314805974239238 -0.12995616169177318
0.25284689068467164 0.37923672667484604 -0.12995616169177318
-0.2829011202621255 0.29882821881429256 -0.12995616169177318
-0.523798019067094 0.297640688371247 -0.12995616169177318
0.24441467766455607 0.3792217891849963 -0.1289852248515473
0.6009053416708793 0.47948222105570687 -0.1289852248515473
0.4084133787236339 0.4836124369991293 -0.12846241270681025
0.44051404441048686 0.041641987328303556 -0.12846241270681025
0.2713021593938884 0.3487418411468281 -0.12846241270681025
-0.2807351842339293 0.21274346481088 -0.12846241270681025
-0.5246793309682221 0.2904632244985002 -0.12846241270681025
-0.2647446013499013 0.2876400389169203 -0.12749147586658438
0.6697597011327447 0.430300535725803 -0.12749147586658438
-0.2778298424581764 0.28401022888346045 -0.12696866372184734
0.3044783243499147 0.38294869290247874 -0.12696866372184734
0.668213670933308 0.3783852897534171 -0.12696866372184734
0.6399594088827346 0.41371992199271473 -0.12696866372184734
0.5075236238759231 0.11353612597456844 -0.12696866372184734
-0.2549082642839205 0.2906872868462447 -0.12599772688162147
0.6992761810756118 0.1314013638347248 -0.12599772688162147
-0.27450625096663395 0.2795663256531958 -0.12547491473688444
0.2557597012053494 0.3770857281364994 -0.12547491473688444
0.6244169506941954 0.419874167810762 -0.12547491473688444
0.5255382366345758 0.4840456242047685 -0.12547491473688444
0.5064406558618249 0.39917080687917594 -0.12547491473688444
-0.36311544075463376 0.28085094978026387 -0.12450397789665857
0.7976470204803442 0.2415056015163409 -0.12450397789665857
0.44659360277928584 0.5057273907215051 -0.12398116575192154
0.5141334631343839 0.4192766682167767 -0.12398116575192154
0.5128936514768646 0.07993424255782772 -0.12398116575192154
0.09503231042334034 0.3451568435829172 -0.12398116575192154
-0.2684490988326093 0.28636288353477707 -0.12398116575192154
-0.5032216267992299 0.3104645234071536 -0.12398116575192154
0.3254729663335684 0.3792217891849963 -0.12301022891169566
0.7091125181415924 0.1920699788589934 -0.12301022891169566
0.7426621203438595 0.25949033929529425 -0.12248741676695864
0.5177408669330693 0.41201704814985696 -0.12248741676695864
0.5053576878477268 0.37490485461845346 -0.12248741676695864
0.10027536936056014 0.34468631265265387 -0.12248741676695864
-0.38313167715313673 0.2983800941188037 -0.12248741676695864
-0.550013313753193 0.2316692644503601 -0.12151647992673273
0.4336801428042816 0.2415056015163409 -0.12151647992673273
0.5139542132561883 0.142305731424954 -0.1209936677819957
0.5075908425802462 0.14335135571442803 -0.1209936677819957
0.5083227795828782 0.22924192234979535 -0.1209936677819957
0.3134632244944666 0.17802126965541726 -0.1209936677819957
-0.2811833089294181 0.21599983759809918 -0.1209936677819957
-0.5026315959501695 0.1999196297749734 -0.1209936677819957
0.21726578986285525 0.38905812625097713 -0.12002273094176982
0.7386215293395348 0.3300326351101677 -0.12002273094176982
0.45509303450372485 0.3650759862973975 -0.1194999187970328
0.5214378956708525 0.4065723330996672 -0.1194999187970328
0.521258645792657 0.13809335928735864 -0.1194999187970328
0.2506734859115506 0.1782005195336127 -0.1194999187970328
-0.2732589705641899 0.28586994636973934 -0.1194999187970328
-0.5180993666894604 0.29435444060432864 -0.1194999187970328
0.43758629639995955 0.11362575091366621 -0.11852898195680692
0.5733531416432385 0.0850353953414761 -0.1180061698120699
0.5118256209526162 0.08671586294955932 -0.1180061698120699
0.5076729987744192 0.14940103910352784 -0.1180061698120699
0.09799740215849166 0.2028623152753504 -0.1180061698120699
-0.2710855657910689 0.22986182817855494 -0.1180061698120699
-0.5240967688640865 0.2981037505565855 -0.1180061698120699
0.45501834705447675 0.13894479620878744 -0.11703523297184401
0.6697597011327447 0.1037894138476854 -0.11703523297184401
0.427137522250144 0.5136143853621093 -0.116512420827107
0.5456440979721764 0.09688082479223196 -0.116512420827107
0.2214632245106009 0.2065892189928328 -0.116512420827107
0.20503198567600897 0.19787319366557424 -0.116512420827107
-0.41773437238980254 0.19831384961613838 -0.116512420827107
-0.5320136384843899 0.3103599609782062 -0.1155414839868811
0.5078746548873893 0.4284034745149002 -0.1155414839868811
0.4590066568443277 0.5033224548557149 -0.1150186718421441
0.5242610812524323 0.08086036692850479 -0.1150186718421441
0.509375872617277 0.14337376194920248 -0.1150186718421441
0.3177353465914605 0.1501255073612348 -0.1150186718421441
-0.25946419868805737 0.26133511929172343 -0.1150186718421441
-0.5013395030781765 0.3072454943445585 -0.1150186718421441
0.5078223736729156 0.12464214967776763 -0.11404773500191819
0.6773255397415817 0.3764210098381909 -0.11352492285718116
0.5437096930366495 0.06268144178150609 -0.11352492285718116
0.4585809383836133 0.30879152454399517 -0.11352492285718116
0.09799740215849166 0.2028623152753504 -0.11352492285718116
0.25375060882057426 0.27857298257819546 -0.11352492285718116
-0.4976947555548671 0.20587968822497543 -0.11352492285718116
0.3254729663335684 0.38905812625097713 -0.11255398601695528
0.7189488552075732 0.15107403796668634 -0.11255398601695528
0.5581393082313911 0.0687012501909067 -0.11203117387221825
0.6934430912893316 0.3552097742517175 -0.11203117387221825
0.2231063483940601 0.2042739080661403 -0.11203117387221825
0.10336742975943337 0.3343421009317857 -0.11203117387221825
-0.4160688422715689 0.1923761974009108 -0.11203117387221825
-0.4011537586567142 0.21199659031839857 -0.11106023703199237
0.7681305405374771 0.30052362391222537 -0.11106023703199237
0.4343672673373644 0.4846580612886032 -0.11053742488725535
0.5528663743144722 0.09026351678884631 -0.11053742488725535
0.11339048544853449 0.2032506900114408 -0.11053742488725535
0.1609365156399039 0.1981794122074917 -0.11053742488725535
-0.2598899171487718 0.27138804996052385 -0.11053742488725535
-0.37957655456892503 0.1923164474415122 -0.10956648804702947
0.4389082642516517 0.21198912157347372 -0.10956648804702947
0.553351842734585 0.44392352646866484 -0.10904367590229244
0.7551199868784501 0.2687889267266884 -0.10904367590229244
0.5086439356146453 0.39600405903105473 -0.10904367590229244
-0.25364604639162686 0.26204465005958094 -0.10904367590229244
-0.430117551475145 0.1923164474415122 -0.10807273906206656
0.5299597336300659 0.1923164474415122 -0.10807273906206656
0.7140120148122708 0.33570888125302684 -0.10754992691732954
0.5507153757761255 0.09985338527230812 -0.10754992691732954
0.45698262696970304 0.5020079557489475 -0.10754992691732954
0.29901120306495044 0.15521919139995835 -0.10754992691732954
0.4439496670759016 0.2177699301452802 -0.10717648967108881
0.5320435134640891 0.2710146127142831 -0.10657899007710363
0.5812326675389178 0.4893185581216877 -0.10657899007710363
0.2543779833942587 0.16433852895315693 -0.10605617793236662
0.5070232179659604 0.37323932450021996 -0.10605617793236662
0.49652963134659595 0.04300129890461982 -0.10605617793236662
0.5550621853223677 0.451608864996299 -0.10605617793236662
0.2450569897280902 0.3834266925776668 -0.10508524109214072
0.6992761810756118 0.16848368238642905 -0.10508524109214072
0.29818964112322094 0.38034210092371856 -0.10456242894740371
0.4513437245514681 0.2492581587482984 -0.10456242894740371
0.4383032959127418 0.02765302808412587 -0.10456242894740371
0.4443006980873679 0.04450998537943234 -0.10456242894740371
0.25661113812677827 0.13329842504562775 -0.10359149210717783
0.5517236563409756 0.4874289656557095 -0.10359149210717783
-0.38360967682832486 0.20312372134771886 -0.1030686799624408
0.5154330247513016 0.39282984243800845 -0.1030686799624408
0.7005832114374543 0.18132245491218524 -0.1030686799624408
0.5567725279101501 0.08891914270237963 -0.1030686799624408
0.25661113812677827 0.13329842504562775 -0.10209774312221492
0.23693846399481666 0.1824801103755315 -0.10209774312221492
-0.5297282025373967 0.21591768140392625 -0.1015749309774779
0.509704497393969 0.14987157003379117 -0.1015749309774779
0.5169939924405879 0.48694349723559655 -0.1015749309774779
0.7470238673799512 0.25852687119999324 -0.1015749309774779
-0.3768579314162925 0.2906872868462447 -0.10120149373123717
0.4336801428042816 0.21436418245956484 -0.10120149373123717
-0.5246643934783725 0.21081652862027786 -0.10008118199251499
0.27951777881118456 0.37706332190172503 -0.10008118199251499
0.5045585321407717 0.05049245006420881 -0.10008118199251499
0.6270982301222039 0.4357452507759929 -0.10008118199251499
-0.5373313848708579 0.2218329273843794 -0.09970774474627427
0.26644747519275913 0.4185671374489194 -0.09970774474627427
-0.5326932942725481 0.28639275851447626 -0.09858743300755206
0.31896022075913005 0.3591159278473956 -0.09858743300755206
0.5024150023473499 0.06717762622624447 -0.09858743300755206
0.7598402336709329 0.27557801586334485 -0.09858743300755206
-0.48867998043061595 0.19350397788455775 -0.09761649616732618
0.21726578986285525 0.2710146127142831 -0.09761649616732618
0.5234544568005524 0.04476392270687598 -0.09761649616732618
0.2977937976422056 0.15843075171762866 -0.09709368402258915
0.46125474906669695 0.3702667640201436 -0.09709368402258915
0.4964698813871974 0.04141792498055911 -0.09709368402258915
0.59262250354926 0.43379590835061616 -0.09709368402258915
0.25661113812677827 0.13329842504562775 -0.09612274718236327
0.689439844009631 0.12156502676874399 -0.09612274718236327
-0.38283292735614416 0.3022190290101583 -0.09559993503762626
0.4510524434994002 0.15371050492514582 -0.09559993503762626
0.5795447311859098 0.43422909555625555 -0.09559993503762626
0.5962523135827198 0.11133284622174813 -0.09559993503762626
0.5517236563409756 0.2710146127142831 -0.09462899819740037
0.6599233640667639 0.4185671374489194 -0.09462899819740037
-0.38089105367569237 0.2120936840024212 -0.09410618605266335
0.45500340956462704 0.1721209611648137 -0.09410618605266335
0.47366033438681393 0.03816902093826476 -0.09410618605266335
0.6024812468500153 0.1128639389313351 -0.09410618605266335
0.21726578986285525 0.3792217891849963 -0.09313524921243746
0.61074167873686 0.08600633218170195 -0.09313524921243746
-0.41774930987965214 0.19786572492064947 -0.09261243706770045
0.4565120960394396 0.16943221299188047 -0.09261243706770045
0.6187257670614867 0.40066455586413896 -0.09261243706770045
0.6407959083143138 0.1592747198941327 -0.09261243706770045
-0.3978226984202469 0.2890142879830862 -0.09164150022747454
0.5418798505300699 0.38905812625097713 -0.09164150022747454
-0.5277639226221705 0.2009279103398234 -0.09111868808273751
0.4486624451234596 0.39284477992785816 -0.09111868808273751
0.5578181521996243 0.4543723006184804 -0.09111868808273751
0.47874654968061253 0.056893164464774874 -0.09111868808273751
-0.4852443577652012 0.3091798992800855 -0.09014775124251163
0.5320435134640891 0.14313476211160844 -0.09014775124251163
-0.5015112842114473 0.30921724300470954 -0.08962493909777461
0.2984958596651383 0.1546814417653718 -0.08962493909777461
0.6171722681171253 0.12626286732645237 -0.08962493909777461
0.6814333494502298 0.39273274875398584 -0.08962493909777461
-0.51066796548927 0.2611782756483024 -0.08865400225754873
0.5517236563409756 0.2513419385823216 -0.08865400225754873
-0.5237308003627706 0.2982157817304577 -0.0881311901128117
0.27012956644069264 0.18663273255372836 -0.0881311901128117
0.5706942684500045 0.4475010552876509 -0.0881311901128117
0.7248865074228009 0.34248303289983356 -0.0881311901128117
-0.4909952913573085 0.293331222549629 -0.08716025327258582
0.5222071763981085 0.3595491150530348 -0.08716025327258582
0.501242409394154 0.505204578576768 -0.08716025327258582
0.2548783893042213 0.37828072732446966 -0.0866374411278488
0.46059749951331314 0.37288829348875346 -0.0866374411278488
0.47433252143004706 0.028571683709878094 -0.0866374411278488
-0.44433804181199194 0.1923164474415122 -0.08566650428762292
0.5320435134640891 0.13519548625653055 -0.08566650428762292
0.7386215293395348 0.33319938295828905 -0.08566650428762292
-0.42389608695277453 0.3082313686746341 -0.08514369214288589
0.4547868159618075 0.14556957295709794 -0.08514369214288589
0.6621042375848097 0.13326855006592844 -0.08514369214288589
0.6514089948524753 0.14919938299055785 -0.08514369214288589
-0.44161194991443464 0.1824801103755315 -0.08417275530265998
0.24252508519857807 0.2710146127142831 -0.08417275530265998
-0.5249407370405905 0.29524322125038155 -0.08364994315792297
-0.38251177132437714 0.31443789570715486 -0.08364994315792297
0.45209806778887435 0.15326238022965694 -0.08364994315792297
0.615417113059794 0.4146012338938428 -0.08364994315792297
0.7398015910376554 0.23379785675393222 -0.08364994315792297
-0.550013313753193 0.20215278450749302 -0.08267900631769708
0.4238363369933759 0.4284034745149002 -0.08267900631769708
0.7311527844147203 0.17027618116838453 -0.08267900631769708
-0.38195908419994085 0.20312372134771886 -0.08215619417296006
0.4501039128939487 0.32084607885264577 -0.08215619417296006
0.5551144665368413 0.06326400388564164 -0.08215619417296006
0.6765786652491003 0.19043432372045896 -0.08215619417296006
-0.51066796548927 0.2316692644503601 -0.08118525733273418
0.21726578986285525 0.3508928396851747 -0.08118525733273418
0.742482870465664 0.21199659031839857 -0.08118525733273418
-0.49537944462817457 0.31204042858628944 -0.08066244518799716
0.3006543269484096 0.3859660658521038 -0.08066244518799716
0.6630004869757875 0.17474249063342362 -0.08066244518799716
0.7110767980568187 0.17789430099169531 -0.08066244518799716
0.7105987983816306 0.37233560636431734 -0.08028900794175642
0.6205780158028409 0.0644365968388375 -0.07969150834777128
0.21726578986285525 0.3497127779870541 -0.07969150834777128
-0.4481545704685722 0.1824801103755315 -0.07969150834777128
-0.48673810675016416 0.19890388046519866 -0.07916869620303425
0.2984137034709652 0.38843822042221754 -0.07916869620303425
0.46492937156970565 0.03390436758619567 -0.07916869620303425
0.6573839907923269 0.4186492936430923 -0.07916869620303425
0.7297337228790054 0.3497053092421292 -0.07879525895679353
-0.514208150583632 0.23913800937517465 -0.07819775936280837
0.5418798505300699 0.2316692644503601 -0.07819775936280837
0.2423533040653074 0.1923164474415122 -0.07819775936280837
-0.43097645714149874 0.1961180386082428 -0.07767494721807135
0.4609186555450802 0.3699456079883767 -0.07767494721807135
0.7457915244673566 0.30639405742312964 -0.07767494721807135
0.7228774150380257 0.35496330566919865 -0.07767494721807135
0.7335950640051346 0.3595491150530348 -0.07730150997183062
-0.45587725272083046 0.30712599442576144 -0.07670401037784544
0.5225432699197251 0.3792217891849963 -0.07670401037784544
0.740989121480701 0.18994885530034605 -0.07670401037784544
-0.3823698651708057 0.20920327971651798 -0.07618119823310841
0.4430310114501495 0.16868533849939907 -0.07618119823310841
0.4643019969960212 0.4887957459769505 -0.07618119823310841
0.5892765058229431 0.4568892676581428 -0.07618119823310841
-0.45587725272083046 0.30712599442576144 -0.07580776098686771
0.21726578986285525 0.15297109917758916 -0.07521026139288253
0.689439844009631 0.4204641986598222 -0.07521026139288253
-0.5276294852135238 0.22837554793851686 -0.07468744924814551
0.2971440168337468 0.38420344204984763 -0.07468744924814551
0.676511446544777 0.36756307835736074 -0.07468744924814551
0.4596116251832378 0.02984137034709658 -0.07468744924814551
0.7032868971002371 0.3580628348129967 -0.07468744924814551
-0.5386832277022493 0.28148579309887317 -0.07371651240791963
0.2422188666566607 0.2316692644503601 -0.07371651240791963
0.6344474751282215 0.08410927097079902 -0.07371651240791963
-0.3923630458802075 0.2120936840024212 -0.07319370026318262
0.4541893163678224 0.32546176321618125 -0.07319370026318262
0.6863253773759833 0.1945346646841822 -0.07319370026318262
0.7270449747060722 0.33288569567144694 -0.07319370026318262
0.48742523128324705 0.05731141418056447 -0.07319370026318262
0.21726578986285525 0.1824801103755315 -0.07222276342295669
0.7976470204803442 0.2415056015163409 -0.07222276342295669
-0.3838038641963701 0.3162229257441856 -0.07169995127821968
0.45472706600240886 0.2734718297945471 -0.07169995127821968
0.5354791361295038 0.4640069815714911 -0.07169995127821968
0.5688718946883498 0.4543200194040067 -0.07169995127821968
0.4439496670759016 0.25855674617969243 -0.07132651403197897
0.5615599934069562 0.4099183308259842 -0.07072901443799381
0.5328874816405932 0.49726530272169034 -0.07072901443799381
0.2529365156237694 0.37801185250717634 -0.0702062022932568
0.45000681920992625 0.15065578825089673 -0.0702062022932568
0.6417220326849907 0.42892628665963717 -0.0702062022932568
0.714766358049677 0.33089154077652133 -0.0702062022932568
-0.550013313753193 0.2710146127142831 -0.0692352654530309
0.44813216423379776 0.2415056015163409 -0.0692352654530309
-0.5061717810445315 0.20215278450749302 -0.06871245330829387
0.24942620550910657 0.3835611299863135 -0.06871245330829387
0.6919344048145191 0.3557325863964546 -0.06871245330829387
0.5067319369138927 0.49835573948071316 -0.06871245330829387
0.7194268548827613 0.21554424415768544 -0.06871245330829387
-0.36311544075463376 0.3300326351101677 -0.06774151646806802
0.44351647987026244 0.252088813074803 -0.06774151646806802
-0.5253739242462299 0.2712088000823283 -0.06721870432333099
0.2642740704196379 0.28046257504417355 -0.06721870432333099
0.6916057800378271 0.18458629644432917 -0.06721870432333099
0.5568472153593982 0.45239308321340443 -0.06721870432333099
0.7348498131525033 0.2824343237043246 -0.06721870432333099
-0.3958285435253215 0.2890142879830862 -0.06624776748310508
0.6205780158028409 0.0644365968388375 -0.06624776748310508
-0.5254710179302523 0.23942929042724242 -0.06572495533836806
0.25481863934482274 0.17808101961481573 -0.06572495533836806
0.6879012825551191 0.1560332845967632 -0.06572495533836806
0.7302266600440431 0.35349196291901025 -0.06572495533836806
0.6715746061494746 0.40919386256827717 -0.06572495533836806
0.4485205389698881 0.2316692644503601 -0.06475401849814215
0.7316158466000587 0.1832419223578626 -0.06475401849814215
-0.46886540014508293 0.3055799642263249 -0.06423120635340512
0.4628904042052313 0.3671373598966464 -0.06423120635340512
0.5042747198336287 0.06619922064109376 -0.06423120635340512
0.7193745736682878 0.2191217729766717 -0.06423120635340512
-0.5360766357234891 0.23553807432141405 -0.06326026951317927
0.5320435134640891 0.2415056015163409 -0.06326026951317927
0.689439844009631 0.4284034745149002 -0.06326026951317927
-0.46958986840278993 0.3087989932889199 -0.06273745736844225
0.5152761811078804 0.3966090273699646 -0.06273745736844225
0.4714570546339935 0.06106819287774619 -0.06273745736844225
0.7196509172305058 0.3267389185983245 -0.06273745736844225
0.5646819287855287 0.48553190444480665 -0.06176652052821634
0.7062071763658397 0.18573648316275057 -0.06176652052821634
0.29305861335987327 0.1499836012076634 -0.06176652052821634
-0.3940509822332156 0.19874703682177755 -0.06124370838347932
0.4493495696565424 0.28505585317293447 -0.06124370838347932
0.6827478485569971 0.18141954859620785 -0.06124370838347932
0.7654492611094686 0.27127601878665164 -0.06124370838347932
-0.536158791917662 0.2218329273843794 -0.060272771543253466
0.25661113812677827 0.13329842504562775 -0.060272771543253466
0.7618642635455577 0.2316692644503601 -0.060272771543253466
-0.3860967688882881 0.2048938138949 -0.05974995939851644
0.5155226496903994 0.39669865230906237 -0.05974995939851644
0.6748384476816185 0.1338062997005151 -0.05974995939851644
0.7323627210925401 0.23261032631088677 -0.05974995939851644
-0.4777009253911385 0.3176793310045245 -0.05877902255829053
0.22710212692883605 0.14313476211160844 -0.05877902255829053
0.7976470204803442 0.2415056015163409 -0.05877902255829053
-0.38095827238001573 0.21027131024076645 -0.058256210413553514
0.4542490663272208 0.33024175996806254 -0.058256210413553514
0.6929576228692187 0.15025247602495673 -0.058256210413553514
0.6750401037945886 0.4003658060671462 -0.058256210413553514
0.7287851922735541 0.38905812625097713 -0.0572852735733276
0.22710212692883605 0.40079152452786077 -0.0572852735733276
-0.5258369864315683 0.30172609184512056 -0.05676246142859058
0.44323266756311935 0.1464807598379253 -0.05676246142859058
0.6559574605116874 0.15024500728003187 -0.05676246142859058
0.7403990906316407 0.29816350051598406 -0.05676246142859058
0.2928793634816777 0.3921576553947751 -0.05579152458836472
0.5517236563409756 0.2906872868462447 -0.05579152458836472
-0.5401769766872122 0.1824801103755315 -0.05579152458836472
0.27810618602039444 0.1635543107360514 -0.0552687124436277
0.6758990094609421 0.1680430264358649 -0.0552687124436277
0.7668309789205593 0.26684705304623657 -0.0552687124436277
0.6599233640667639 0.4480761486468616 -0.05429777560340179
0.2416437732974498 0.2906872868462447 -0.05429777560340179
-0.5260610487793127 0.3017410293349702 -0.05377496345866477
0.4417314498332317 0.17102305566086592 -0.05377496345866477
0.4820850786620047 0.057050008108195986 -0.05377496345866477
0.7533723005660435 0.27695226492951075 -0.05377496345866477
0.566646208700755 0.48553190444480665 -0.052804026618438915
0.21726578986285525 0.20215278450749302 -0.052804026618438915
-0.5259863613300647 0.29734193857425445 -0.0522812144737019
0.4600373436439521 0.1679309952619927 -0.0522812144737019
0.5848848838071522 0.09515554471459974 -0.0522812144737019
0.7449251500560783 0.29484737776936637 -0.0522812144737019
0.5404981327189792 0.5071016397876711 -0.05131027763347598
0.24156908584820172 0.3103599609782062 -0.05131027763347598
-0.5194586782657766 0.20873274878625464 -0.05078746548873896
0.2543779833942587 0.17851420682045493 -0.05078746548873896
0.5005478161161463 0.3329902581003943 -0.05078746548873896
0.7535664879340886 0.2734568923046975 -0.05078746548873896
0.4927131026900158 0.4900056826547705 -0.05078746548873896
0.7287851922735541 0.16091037503266703 -0.049816528648513055
-0.36311544075463376 0.1824801103755315 -0.049816528648513055
-0.382033771649189 0.31691005027726854 -0.04929371650377603
0.46111284291312543 0.1732711478832351 -0.04929371650377603
0.657742490548718 0.1251052118631061 -0.04929371650377603
0.5969245006259531 0.4588834225530683 -0.04929371650377603
-0.36311544075463376 0.28085094978026387 -0.048322779663550176
0.5418798505300699 0.20404984571839596 -0.048322779663550176
-0.5092937164231041 0.30501980835696374 -0.04779996751881315
0.25020295498128736 0.3814474751725911 -0.04779996751881315
0.4471388211587974 0.3885054391265408 -0.04779996751881315
0.692300373315835 0.15950625098680188 -0.04779996751881315
0.667571358869774 0.4168343886263624 -0.04779996751881315
0.3254729663335684 0.15297109917758916 -0.04682903067858724
0.6992761810756118 0.19421350865241513 -0.04682903067858724
-0.4875372624571193 0.1999644422445223 -0.046306218533850224
0.26900178595704555 0.37813882117089814 -0.046306218533850224
0.46380159108605856 0.3421618768680665 -0.046306218533850224
0.7667114790017624 0.2867960707404163 -0.046306218533850224
0.6725903554592494 0.37518866692559655 -0.046306218533850224
0.45022341281274586 0.30052362391222537 -0.045335281693624364
0.7878032146694385 0.3024206851231283 -0.045335281693624364
-0.3929232017495686 0.31050933587670243 -0.044812469548887346
0.4560565025990261 0.33120522806336355 -0.044812469548887346
0.572763110794178 0.06692368889880083 -0.044812469548887346
0.6955940898276781 0.39389040421733207 -0.044812469548887346
-0.3724961843802008 0.2611782756483024 -0.04384153270866144
0.5812326675389178 0.04476392270687598 -0.04384153270866144
-0.46182237368098283 0.19820181844226614 -0.04331872056392441
0.27222081501964074 0.18419792170823887 -0.04331872056392441
0.49856112996614543 0.06053791198808437 -0.04331872056392441
0.7477558043825829 0.31467689554474904 -0.04331872056392441
-0.4418136060274046 0.3201962980441869 -0.042945283317683706
0.7976470204803442 0.28085094978026387 -0.042347783723698504
0.4456824158984586 0.2882898197253792 -0.042347783723698504
-0.47808183138230403 0.18704351352459322 -0.041824971578961485
0.4539279102954537 0.3243713264571583 -0.041824971578961485
0.607477837204716 0.10502175676027985 -0.041824971578961485
0.4879704496627586 0.47792872211134546 -0.041824971578961485
-0.40953369046235616 0.1824801103755315 -0.040854034738735626
0.5517236563409756 0.3201962980441869 -0.040854034738735626
-0.4321042376251457 0.19702922548907018 -0.04033122259399861
0.3001464522935223 0.15170888128529553 -0.04033122259399861
0.5506481570718023 0.053502354268909015 -0.04033122259399861
0.7498171779818318 0.2660628348291311 -0.04033122259399861
-0.4133950315884853 0.1824801103755315 -0.039957785347757846
0.5615599934069562 0.1923164474415122 -0.03936028575377269
0.707962331423171 0.3908655625227822 -0.03936028575377269
-0.5335746061736761 0.31583455100809527 -0.03883747360903567
0.4982623801691529 0.37606251008179975 -0.03883747360903567
0.5463760349748084 0.05427910374108972 -0.03883747360903567
0.5458532228300713 0.4594734534021287 -0.03883747360903567
0.6697597011327447 0.1037894138476854 -0.037866536768809814
0.44506997881462385 0.27830410776090214 -0.037866536768809814
-0.4354726415862371 0.18436223409658473 -0.037343724624072795
0.45866309457778626 0.22092920924847675 -0.037343724624072795
0.5617691182648511 0.08963614221516186 -0.037343724624072795
0.6791553822481613 0.4082826756874497 -0.037343724624072795
0.2762240622993413 0.3300326351101677 -0.03637278778384689
0.5418798505300699 0.2710146127142831 -0.03637278778384689
-0.379292742261782 0.18782773174169867 -0.03584997563910987
-0.39177301503114714 0.1960732261386939 -0.03584997563910987
0.5131699950390829 0.23085517125355534 -0.03584997563910987
0.7784896897481949 0.26226871240732524 -0.03584997563910987
0.2506212046970771 0.3902008442244737 -0.035476538392869156
0.6304143528688216 0.08221967850482094 -0.035476538392869156
-0.507725279988893 0.26539064778589777 -0.034356226654146935
-0.47655073867271713 0.30591605774794156 -0.034356226654146935
0.515052118760136 0.3958173404079343 -0.034356226654146935
0.7532005194327729 0.22942864097291576 -0.034356226654146935
0.6409079394881861 0.4145190776996699 -0.034356226654146935
0.2367592141166211 0.28085094978026387 -0.03398278940790623
0.6009053416708793 0.46939941540720725 -0.03398278940790623
-0.40538106828415926 0.19339941545561037 -0.032862477669184056
0.31534534821551996 0.3943086539331218 -0.032862477669184056
0.541147913527438 0.04752735832905739 -0.032862477669184056
0.5441055365176647 0.46656876108070244 -0.032862477669184056
0.7542461437222467 0.21199659031839857 -0.032489040422943295
0.4461828218084212 0.22800211069227616 -0.032489040422943295
-0.5178230231272423 0.2698420197610873 -0.03136872868422112
0.2492917681004599 0.24677106668833515 -0.03136872868422112
0.6038256209364818 0.10854700436479227 -0.03136872868422112
0.6280915731972043 0.4445284948075747 -0.03136872868422112
0.7976395517354193 0.2513419385823216 -0.030397791843995266
0.5320435134640891 0.2906872868462447 -0.030397791843995266
-0.502930345747162 0.3095458677814015 -0.029874979699258248
0.2496652053467007 0.38196281857240316 -0.029874979699258248
0.6275911672872416 0.10065254097926328 -0.029874979699258248
0.730637441014908 0.21763549273663352 -0.029874979699258248
0.3181834712869494 0.39889446331695794 -0.028904042859032336
0.6304143528688216 0.08221967850482094 -0.028904042859032336
-0.4927280401798655 0.24420928717912374 -0.028381230714295318
-0.47490014604433306 0.2988655625389166 -0.028381230714295318
0.5190703035296863 0.14708572817683532 -0.028381230714295318
0.7409293715213026 0.20040509819508645 -0.028381230714295318
0.5367114790420981 0.4787726902878495 -0.028381230714295318
0.7484578664055155 0.3595491150530348 -0.027410293874069406
