0.4014967575062194 0.7222711268528701 -0.07420199450454298
0.4581887871006673 0.6428835216978946 -0.07420199450454298
0.3830741933533673 -0.5817052565736319 -0.07420199450454298
0.3155162624946909 0.6633359794935146 -0.07377554626026399
0.5177209620020133 0.7082665665107483 -0.07377554626026399
0.34812249525226185 -0.509226112975976 -0.07249620152742704
0.3300410896948331 0.46090952689916737 -0.07249620152742704
0.41536485441017185 0.7716026597510629 -0.07249620152742704
0.49716615662776636 0.5190344225943927 -0.07249620152742704
0.43230337867293306 0.7238831012162448 -0.07249620152742704
0.33274477156356175 -0.4404485401386617 -0.07249620152742704
0.34380683902015857 0.5862000210683325 -0.07206975328314806
0.3504679605957963 0.7532056824928676 -0.07206975328314806
0.5048251670950169 0.6521033327392064 -0.07206975328314806
0.47835978905506327 0.6408706859848979 -0.07206975328314806
0.35185818187214574 0.565798737062026 -0.07079040855031112
0.4188276141537172 0.771312674944953 -0.07079040855031112
0.5105225156385841 0.40187203196118476 -0.07079040855031112
0.43366801305462577 -0.6132965425098189 -0.07079040855031112
0.41174857329868614 0.7521651487768269 -0.07079040855031112
0.4855582354184924 0.5323737236754392 -0.07079040855031112
0.5011491832293321 0.4304099484683343 -0.07079040855031112
0.3416490109041069 0.6408706859848979 -0.07036396030603213
0.3941533187397353 0.7518495770760605 -0.07036396030603213
0.4474934651341505 0.7300239559338622 -0.07036396030603213
0.5136441167867063 0.5510009829855451 -0.07036396030603213
0.4211304346728237 -0.6116078074624742 -0.06908461557319517
0.35231021701108145 -0.5336274815136194 -0.06908461557319517
0.3513037991545831 0.594933681111166 -0.06908461557319517
0.42038841472777827 0.7786561137114373 -0.06908461557319517
0.32416463288866865 -0.38517231871522 -0.06908461557319517
0.44038883738446266 0.7052643708710242 -0.06908461557319517
0.3155162624946909 0.6991149871885215 -0.0686581673289162
0.5147272953271749 0.7527536473539318 -0.0686581673289162
0.34567468233010057 0.61566759474801 -0.06737882259607925
0.4703255041328471 0.6154714285556417 -0.06737882259607925
0.5075288489637457 0.4028528629230265 -0.06737882259607925
0.3748266843090117 0.6728201884462792 -0.06737882259607925
0.4876648897452306 -0.5166463124264303 -0.06737882259607925
0.4555533369510232 0.6920274173686046 -0.06737882259607925
0.35077500333167716 0.5970147485432474 -0.06737882259607925
0.5167401310401717 0.3718244886692877 -0.06737882259607925
0.3609159425806313 -0.5399986182831474 -0.06737882259607925
0.38843891226639693 0.6933494069258695 -0.06737882259607925
0.40538596549404377 0.7869036227557927 -0.06695237435180026
0.35274519422024603 0.7232519578147117 -0.06567302961896333
0.3615641439119355 0.7299386662850061 -0.06567302961896333
0.41591070816284903 -0.6125289356701167 -0.06567302961896333
0.47167308058476876 0.7299386662850061 -0.06567302961896333
0.3868184089381368 0.726475906541461 -0.06567302961896333
0.447177893433384 -0.59830262224097 -0.06567302961896333
0.49330253553459874 0.7265526672254311 -0.06567302961896333
0.3209065683023773 0.5750611929277654 -0.06567302961896333
0.5145737739592344 0.592374991645492 -0.06567302961896333
0.42088309469114193 0.7611376198364567 -0.06567302961896333
0.4774898346367341 0.7037973889107045 -0.06567302961896333
0.3438324259148153 0.7037973889107045 -0.06567302961896333
0.3381521353010193 -0.4696943607313143 -0.06567302961896333
0.446487047277652 0.7224928799398952 -0.0639672366418474
0.33243772882768086 0.45970694285030045 -0.0639672366418474
0.4397321070882729 0.7239001591460158 -0.0639672366418474
0.32866792634825476 -0.454666324602923 -0.0639672366418474
0.5115289334950824 0.726859709961312 -0.0639672366418474
0.5139085146981591 -0.42249506905451656 -0.0639672366418474
0.5103178204813302 -0.2587048273918449 -0.0639672366418474
0.48366480521389377 0.5406382906495658 -0.0639672366418474
0.45913550220296667 0.652069216879664 -0.0639672366418474
0.5055074842858632 0.6714811409592434 -0.0639672366418474
0.36325287895928016 0.6152923202930446 -0.0639672366418474
0.322919404015374 -0.32256118749017976 -0.0639672366418474
0.3256316148489883 0.7148850432619582 -0.06226144366473145
0.32327762054056836 -0.39874190184817715 -0.06226144366473145
0.5115374624599681 0.7462119312866923 -0.06226144366473145
0.41298527320709516 -0.6160258112732044 -0.06226144366473145
0.41627745365292884 0.7983750805268973 -0.06226144366473145
0.5074350303500043 0.45936578425487734 -0.06226144366473145
0.45403518120139 0.6731954629012448 -0.06226144366473145
0.5035628802919511 0.5790356905644455 -0.06226144366473145
0.5085437957851296 -0.384643522892314 -0.06226144366473145
0.3829377299151981 0.6815794353837696 -0.06226144366473145
0.33530346102923564 0.5617133628818332 -0.06226144366473145
0.5101728280782752 -0.13083858582723473 -0.06226144366473145
0.3272435892123629 0.7132730688985837 -0.06055565068761552
0.32333732329476744 -0.3977354839916788 -0.06055565068761552
0.5059936352843413 0.7299386662850061 -0.06055565068761552
0.39624291513670234 -0.6085800249280934 -0.06055565068761552
0.43594524667907564 0.7505361164836812 -0.06055565068761552
0.5180706495623221 0.3363695816399332 -0.06055565068761552
0.32320938882148376 -0.06682870436095935 -0.06055565068761552
0.4687476456290149 -0.548834625904608 -0.06055565068761552
0.505473368426321 0.5986864256608211 -0.06055565068761552
0.45765999127776136 0.7039764971733018 -0.06055565068761552
0.36041273365238213 0.6034967618562879 -0.06055565068761552
0.4886371917421867 -0.49245816801092646 -0.06055565068761552
0.3272435892123629 0.7232519578147117 -0.058849857710499595
0.3219641599481891 0.3351925844857232 -0.058849857710499595
0.44541239770206903 0.7078657051611261 -0.058849857710499595
0.31878285604586787 -0.3837138657197859 -0.058849857710499595
0.4451906446150439 0.7133242426878972 -0.058849857710499595
0.4518176503311393 -0.5981832167325719 -0.058849857710499595
0.5066333076507598 0.7045735247152923 -0.058849857710499595
0.4885007283040174 0.5501224996023304 -0.058849857710499595
0.45319081367771763 0.6629948208980916 -0.058849857710499595
0.3947929911061538 0.7367277223339278 -0.058849857710499595
0.38121487900831097 0.675344762052411 -0.058849857710499595
0.35548299194851707 0.5818843648362292 -0.058849857710499595
0.38725338614730137 0.7223052427124126 -0.057144064733383675
0.39405950012599394 0.7223649454666117 -0.057144064733383675
0.5112901224782862 -0.37686510691666536 -0.057144064733383675
0.32429256736195233 0.7109531904497058 -0.057144064733383675
0.5152134463256529 0.31471453979544634 -0.057144064733383675
0.3192434201496892 0.3952706131397464 -0.057144064733383675
0.43655933215083725 0.7222796558177557 -0.057144064733383675
0.4137443510819117 0.7645833216502308 -0.057144064733383675
0.323507902592479 -0.1996076296996635 -0.057144064733383675
0.46229974817551667 0.6420135672795655 -0.057144064733383675
0.44303281649899223 0.7067995845504286 -0.057144064733383675
0.3606088998447506 0.6031044294715513 -0.057144064733383675
0.3834835836678751 0.7004881505350996 -0.057144064733383675
0.3874069075152418 0.7223137716772982 -0.05543827175626775
0.33616488648267917 0.5520756325611282 -0.05543827175626775
0.5015329866491831 0.562225100774968 -0.05543827175626775
0.322595303349722 0.39395715254736685 -0.05543827175626775
0.511213361794316 0.7148765142970726 -0.05543827175626775
0.4025969939764591 -0.6164863753770257 -0.05543827175626775
0.46060248416328636 0.7403866482698415 -0.05543827175626775
0.39880160460237624 0.7256997707368732 -0.05543827175626775
0.500398634319401 -0.44035472152492033 -0.05543827175626775
0.33282153224753197 0.5670013211108926 -0.05543827175626775
0.3353546348185491 0.7041470764710133 -0.05543827175626775
0.4606195420930576 0.6471480041406845 -0.05543827175626775
0.40700646882230385 0.7386467394331832 -0.05543827175626775
0.5144970132752642 0.6934773413991533 -0.05373247877915179
0.3583913689744998 -0.5391457217945894 -0.05373247877915179
0.4579585050487566 0.6714555540645865 -0.05373247877915179
0.34593908024155345 0.5544040399748914 -0.05373247877915179
0.4877416504292008 0.5564765784420872 -0.05373247877915179
0.3901958790328263 0.7285143291491144 -0.05373247877915179
0.3193713546229729 0.39322366156720717 -0.05373247877915179
0.48639407397727924 0.5744726943506604 -0.05373247877915179
0.3238064163634743 -0.19990614347065874 -0.05373247877915179
0.3941533187397353 0.7113625807642137 -0.05373247877915179
0.3787755950510352 0.7486000414546546 -0.05373247877915179
0.4415914214333293 -0.5984987884333384 -0.05202668580203587
0.3324889026169944 -0.4668115705999884 -0.05202668580203587
0.3715174459334069 0.669638884543958 -0.05202668580203587
0.5027526286278211 0.4849782658062729 -0.05202668580203587
0.40858432732613614 0.7434741335584212 -0.05202668580203587
0.5037846333789762 -0.42010695888655425 -0.05202668580203587
0.3396447041559957 -0.47118692958629077 -0.05202668580203587
0.3214865379145967 -0.3451970602965081 -0.050320892824919944
0.4009338458237711 0.7435764811370482 -0.050320892824919944
0.513729406435562 0.39117670999466797 -0.050320892824919944
0.44368954679518197 -0.6048272803784384 -0.050320892824919944
0.32409640116958405 0.11910273014467708 -0.050320892824919944
0.42836299689579527 0.735363087952235 -0.050320892824919944
0.3621441135241549 0.6084776773494665 -0.048615099847804016
0.45765999127776136 0.6578689130018582 -0.048615099847804016
0.5149831642737422 0.27907199553860895 -0.048615099847804016
0.44566826664863646 -0.6023709384913913 -0.048615099847804016
0.41672095982697904 0.7599179778578188 -0.048615099847804016
0.32424139357263887 0.1896457987133064 -0.048615099847804016
0.39805105569244514 -0.5991128739051 -0.048615099847804016
0.5035287644324088 -0.419808445115559 -0.048615099847804016
0.32320085985659813 -0.383466525738104 -0.046909306870688096
0.39955215351230716 0.7356530727583447 -0.046909306870688096
0.5074691462095465 0.4484828250608776 -0.046909306870688096
0.3907758486450457 -0.5916159137706755 -0.046909306870688096
0.32439491494057926 -0.0017868181435289848 -0.046909306870688096
0.4381713065142119 0.7047099881534615 -0.046909306870688096
0.36612714012572056 0.6127592177220275 -0.046909306870688096
0.40634120956122866 0.7388429056255514 -0.04520351389357214
0.47565610718633444 0.6029764949982674 -0.04520351389357214
0.5179938888783518 0.2790975824332658 -0.04520351389357214
0.3622379321378962 -0.539683046582381 -0.04520351389357214
0.3272435892123629 -0.3949294545443231 -0.04520351389357214
0.33844212010712904 -0.4347597205599801 -0.04520351389357214
0.38897623705418843 0.6853321799334247 -0.04520351389357214
0.43628640527449875 -0.5991981635539558 -0.04349772091645621
0.4102474754788241 -0.6109254902716279 -0.04349772091645621
0.35480920372255637 -0.5445957303564749 -0.04349772091645621
0.4946671699162915 -0.43462325712181077 -0.04349772091645621
0.43952741193101913 0.696138378443454 -0.04349772091645621
0.32468489974668907 0.05464934250435162 -0.04349772091645621
0.37687363588155093 -0.5696623581551935 -0.04349772091645621
0.4940786713391865 -0.4768928070947436 -0.04179192793934029
0.5143946656966373 0.27906346657372355 -0.04179192793934029
0.5137891091897611 0.38113811832434075 -0.04179192793934029
0.49198907494221955 -0.4750761375741151 -0.04179192793934029
0.5084073323469603 -0.32865939738336925 -0.04179192793934029
0.4798097130856118 0.5367917274861694 -0.04179192793934029
0.41678919154606364 0.7423738970881812 -0.04179192793934029
0.49038562954373055 0.49927281095450454 -0.04179192793934029
0.46877323252367165 0.6070021664242612 -0.040086134962224365
0.43517763983937346 0.7183478030055036 -0.040086134962224365
0.42248654008963094 0.74544432444699 -0.040086134962224365
0.39592734343593583 0.6898525313227819 -0.040086134962224365
0.3880806957412026 0.6758394420157745 -0.040086134962224365
0.5082538109790199 0.19037928969346624 -0.040086134962224365
0.4103754099521078 -0.601953019211998 -0.040086134962224365
0.49227905974832914 -0.47169866747942557 -0.040086134962224365
0.5050810360415843 -0.42144600637359025 -0.038380341985108445
0.512552409281352 -0.3850443842419363 -0.038380341985108445
0.511699512792794 -0.422486540089631 -0.038380341985108445
0.4307937518881855 0.7083518561596043 -0.038380341985108445
0.32866792634825476 0.37566252286779866 -0.038380341985108445
0.4200387271674695 0.7098358960496949 -0.038380341985108445
0.5013282914919293 -0.427151883882043 -0.038380341985108445
0.5081088185759651 -0.3289493821894789 -0.038380341985108445
0.44965129325020214 -0.5800335794560583 -0.03667454900799249
0.45060653731738703 -0.5847500970377839 -0.03667454900799249
0.4428707661661663 -0.5974411967875264 -0.03667454900799249
0.3339814714719709 0.39095495690764304 -0.03667454900799249
0.35476655889812847 -0.5110427824966045 -0.03667454900799249
0.4217615780743566 -0.5994284456058664 -0.03667454900799249
0.4326871820927842 0.6921297649472317 -0.03667454900799249
0.4442951033020581 0.6740654173195739 -0.03667454900799249
0.40770584394292136 0.7452481582546218 -0.03556578357286714
0.4370881279737433 0.6944752302907661 -0.03496875603087656
0.4755622885725931 0.5845880467049577 -0.03496875603087656
0.516833949653913 0.2790975824332658 -0.03496875603087656
0.3295293518016983 0.11366125054767721 -0.03496875603087656
0.46532753070989746 -0.5418067588388903 -0.03496875603087656
0.4513741441570892 0.6499455046231547 -0.03496875603087656
0.3447364961926868 -0.47805274631918243 -0.03496875603087656
0.39039204522519466 -0.5791124512484157 -0.03496875603087656
0.4041322076558635 0.7382799939431032 -0.03385999059575121
0.4822148811833452 0.537917550851066 -0.033262963053760634
0.5123988879134116 -0.36288613346920034 -0.033262963053760634
0.44832077472805165 -0.5890828111996583 -0.033262963053760634
0.37326588373495073 0.5808011862957604 -0.033262963053760634
0.49177585082007996 0.44368954679518197 -0.033262963053760634
0.41577424472467966 -0.5963665472119435 -0.033262963053760634
0.43339508617828726 0.6925220973319682 -0.033262963053760634
0.494291895461326 0.451945584804423 -0.033262963053760634
0.4167465467216358 0.7142880157199677 -0.033262963053760634
0.3285826366993989 0.37566252286779866 -0.031557170076644714
0.3614020935791094 0.593876089465354 -0.031557170076644714
0.4130023311368663 0.7228937412895174 -0.031557170076644714
0.4502568497570783 0.672402269166886 -0.031557170076644714
0.4262819294637138 0.6940573110113726 -0.031557170076644714
0.4590672704838821 0.6169895843052748 -0.031557170076644714
0.3462972967667478 -0.478061275284068 -0.031557170076644714
0.3954497214023434 -0.5807755994011038 -0.031557170076644714
0.33493671553915577 -0.40262258087111596 -0.031557170076644714
0.40538596549404377 0.7348854659186425 -0.030448404641519367
0.44096027803179644 -0.5836925053919719 -0.029851377099528786
0.4435104385325848 -0.5859270941919938 -0.029851377099528786
0.44599236731428843 -0.5881105092027021 -0.029851377099528786
0.33498788932846923 0.3636452113440168 -0.029851377099528786
0.42627340049882834 -0.5904218586866944 -0.029851377099528786
0.40756938050475205 -0.5906947855630328 -0.029851377099528786
0.4363802238882401 0.6772723081165519 -0.029851377099528786
0.479255330368049 0.5307617493120647 -0.029851377099528786
0.4323886683217889 0.6787648769715282 -0.029851377099528786
0.41522839097200265 0.7059040432374428 -0.02814558412241283
0.4256849019217233 0.6972386149136938 -0.02814558412241283
0.49842844343083215 0.4508624062639543 -0.02814558412241283
0.505592773934719 -0.43226926281339084 -0.02814558412241283
0.4166186122483521 0.6800868665287931 -0.02814558412241283
0.469984345537424 -0.5228468698982467 -0.02814558412241283
0.36819967859291636 0.5915135661920484 -0.02814558412241283
0.37038309360362476 0.5902512793889827 -0.02814558412241283
0.45853847466097614 -0.550190731321415 -0.02814558412241283
0.5005862715468837 0.0064692198657121495 -0.02814558412241283
0.3439774183178702 0.48305924870701755 -0.026439791145296907
0.3670141524738208 0.6055181265341703 -0.026439791145296907
0.42184686772321245 0.7129319103031604 -0.026439791145296907
0.46936173110077667 0.606396609917385 -0.026439791145296907
0.33343561771929375 0.2626963829582961 -0.026439791145296907
0.46711008437098367 -0.5293544701059439 -0.026439791145296907
0.4079190680650609 -0.5878119954317069 -0.026439791145296907
0.4417705296959265 0.6542952767148003 -0.026439791145296907
0.33112426823530167 0.33317974877272644 -0.026439791145296907
0.4304525932927623 0.6729140070600208 -0.026439791145296907
0.44379189437380895 -0.5743021150529487 -0.024733998168180983
0.40930928934141037 -0.5923835206103777 -0.024733998168180983
0.3222285578596421 0.3303396034658282 -0.024733998168180983
0.45313111092351865 0.5993858007814385 -0.024733998168180983
0.49902547097282274 0.10897884882549405 -0.024733998168180983
0.4320901545507935 0.6671484267973689 -0.024733998168180983
0.4700099324320808 0.5643999868207907 -0.024733998168180983
0.33677897195444095 -0.42151423809267485 -0.024733998168180983
0.44031207670049244 -0.5679139203536496 -0.024733998168180983
0.34018202894378724 -0.3691549226601014 -0.024733998168180983
0.43093874429124035 -0.5833598757614344 -0.02302820519106506
0.4280900700194567 -0.5891169270592007 -0.02302820519106506
0.32807942777114973 -0.422486540089631 -0.02302820519106506
0.3351840555208376 -0.3527707811149029 -0.02302820519106506
0.4824536922001414 0.4755708175374787 -0.02302820519106506
0.4066482522971095 -0.576144371468234 -0.02302820519106506
0.4911532363834327 -0.4441501108990033 -0.02302820519106506
0.4733276997725712 0.5445957303564748 -0.02302820519106506
0.3336147259818909 -0.38988030733205997 -0.02302820519106506
0.4123029560162488 0.6726069643241399 -0.02302820519106506
0.49444541682926646 -0.4384442333905505 -0.021322412213949135
0.49300402176360353 -0.4606621869174855 -0.021322412213949135
0.32468489974668907 -0.3887459550022778 -0.021322412213949135
0.4986843123773995 0.3526428466416191 -0.021322412213949135
0.4128232228742692 0.6675663460767622 -0.021322412213949135
0.4739759011038752 0.5281689439868484 -0.021322412213949135
0.35875811446457967 -0.49898282614839484 -0.021322412213949135
0.3836797498602435 -0.5544978585886328 -0.021322412213949135
0.33577255409794254 0.13731207017538957 -0.021322412213949135
0.3599862854081032 -0.49152851083839827 -0.021322412213949135
0.4740356038580743 -0.5097293219042253 -0.01961661923683318
0.4852256057879548 -0.4868034642917871 -0.01961661923683318
0.32964022834521084 -0.422486540089631 -0.01961661923683318
0.4966800056292883 -0.21265694597460036 -0.01961661923683318
0.49059032470098446 -0.420883094691142 -0.01961661923683318
0.37402496160976734 -0.5345656676510332 -0.01961661923683318
0.48475651271924797 0.4741976541909004 -0.01961661923683318
0.4788374110886557 0.5116824548630228 -0.01961661923683318
0.3352864030994645 -0.3909976017320709 -0.01961661923683318
0.4223927214758896 0.6716005464676413 -0.01961661923683318
0.35643823601570207 -0.49979307781252497 -0.017910826259717256
0.37102276597004324 -0.5385913390770268 -0.017910826259717256
0.3778203509838502 0.6240856830900771 -0.017910826259717256
0.42023489335983794 0.6954304743579509 -0.017910826259717256
0.4367128535187777 0.6328022852031396 -0.017910826259717256
0.4490883815677539 0.6127506887571419 -0.017910826259717256
0.42032018300869367 -0.5773469555171007 -0.017910826259717256
0.3357981409925993 0.3480030897438639 -0.017910826259717256
0.3972834488527431 -0.5631547579474963 -0.017910826259717256
0.3373418836368892 -0.021864001484183482 -0.017910826259717256
0.4102986492681376 0.7237636957078466 -0.01620503328260133
0.4168488943002628 0.6689139225286838 -0.01620503328260133
0.45204793238304997 0.6191729993159832 -0.01620503328260133
0.39150933962520557 -0.5723233951994943 -0.01620503328260133
0.4267766094270775 -0.5583188348573725 -0.01620503328260133
0.44432921916160034 -0.5396233438281819 -0.01620503328260133
0.35637000429661747 -0.4883642648658482 -0.01620503328260133
0.49252639973001106 0.40248611743294654 -0.01620503328260133
0.48438123826428237 0.4703596199923894 -0.01620503328260133
0.3440968238262683 -0.43829071202261005 -0.01620503328260133
0.4451394708257304 0.6108402006227719 -0.01620503328260133
0.5005862715468837 -0.35227610115153923 -0.014499240305485404
0.5018144424904073 0.3528390128339874 -0.014499240305485404
0.32576807828715765 0.2790975824332658 -0.014499240305485404
0.39521943935043274 0.6182945159327685 -0.014499240305485404
0.4047121772680829 0.6459283621620466 -0.014499240305485404
0.4733191708076856 0.5200920142402045 -0.014499240305485404
0.47985235791003966 -0.4633232239617863 -0.014499240305485404
0.34648493399423064 0.4376595686210772 -0.014499240305485404
0.43172340906071366 -0.5596067085550951 -0.014499240305485404
0.3837991553686416 -0.5287915584234958 -0.014499240305485404
0.4229385752285666 0.7495126406974116 -0.01279344732836948
0.4172924004743128 0.6541758712064023 -0.01279344732836948
0.42023489335983794 0.6609052245011245 -0.01279344732836948
0.3976331364130518 -0.5718201862712451 -0.01279344732836948
0.36202470801575676 -0.4750334927496872 -0.01279344732836948
0.45081976143952657 -0.5225910009516793 -0.01279344732836948
0.46850030564733314 0.5181218233516357 -0.01279344732836948
0.34381536798504414 0.3995606824771928 -0.01279344732836948
0.35109057503244356 -0.463553506013697 -0.01279344732836948
0.44092616217225405 0.606234559584559 -0.01279344732836948
0.3902214659274831 0.6064648416364695 -0.01279344732836948
0.39849456186649534 0.6294674599328779 -0.011087654351253525
0.35641264912104537 0.5175247958096448 -0.011087654351253525
0.4166186122483521 0.7132730688985837 -0.011087654351253525
0.4742061831557859 0.5408173989121631 -0.011087654351253525
0.3863407869045444 0.5812873372942383 -0.011087654351253525
0.4932940065697131 0.3380497877223924 -0.011087654351253525
0.4578732153999009 -0.5200920142402045 -0.011087654351253525
0.3889335922297606 0.594566935621086 -0.011087654351253525
0.4258895970789772 0.6249471085435206 -0.011087654351253525
0.3409325778537183 -0.025454695701012452 -0.011087654351253525
0.4166186122483521 0.6484699936979493 -0.009381861374137601
0.35752141455617065 0.515273149079852 -0.009381861374137601
0.42023489335983794 0.7109787773443628 -0.009381861374137601
0.5026929258736219 -0.3926436919549878 -0.009381861374137601
0.34257013911174955 0.2718309043507519 -0.009381861374137601
0.48973742821242644 -0.42106220295373914 -0.009381861374137601
0.4460520700684874 -0.5261816951685083 -0.009381861374137601
0.37940673845256806 0.5706858339414629 -0.009381861374137601
0.3998847831428448 -0.5468217901916111 -0.009381861374137601
0.431126381518723 0.6053901920608866 -0.009381861374137601
0.42023489335983794 0.7495126406974116 -0.007676068397021676
0.3983751563580973 0.6244609575450427 -0.007676068397021676
0.42047370437663406 0.692547684226625 -0.007676068397021676
0.4580182078029557 -0.5340112849334705 -0.007676068397021676
0.47140015370843025 0.46451727904576756 -0.007676068397021676
0.4166186122483521 -0.5589670361886765 -0.007676068397021676
0.4863002553635379 0.38723632821753023 -0.007676068397021676
0.3978378315703057 0.5909250676149436 -0.007676068397021676
0.39580793792753777 0.6068912898807486 -0.007676068397021676
0.38533436904804585 -0.5254055593639206 -0.007676068397021676
0.36110357980811414 0.5002451129514607 -0.005970275419905751
0.33568726444908675 -0.39302749537483883 -0.005970275419905751
0.4166186122483521 0.7132730688985837 -0.005970275419905751
0.5008336115285655 -0.39339424086491875 -0.005970275419905751
0.3916969768526884 0.5623786221429085 -0.005970275419905751
0.4867011167131601 0.40366311458715654 -0.005970275419905751
0.37965407843424986 -0.5079808841026814 -0.005970275419905751
0.3390050317895773 -0.34532499476979184 -0.005970275419905751
0.45035919733570523 -0.5174395061607893 -0.005970275419905751
0.4370795990088577 0.6018762585280278 -0.005970275419905751
0.4166186122483521 0.743192677717197 -0.0042644824427898265
0.4398600415615566 0.5942257770256629 -0.0042644824427898265
0.42023489335983794 0.6370752966108151 -0.0042644824427898265
0.35534652851034787 0.4977290683102145 -0.0042644824427898265
0.48575440161086075 -0.2979977686197104 -0.0042644824427898265
0.36910374887078784 0.45725060096325365 -0.0042644824427898265
0.4540692970609324 0.5563742308634603 -0.0042644824427898265
0.3466811001865989 -0.3892321060007559 -0.0042644824427898265
0.38435353808620426 0.5561098329520072 -0.0042644824427898265
0.43415416405310386 0.5855262328423716 -0.0042644824427898265
0.43685784592183263 -0.5321093257639862 -0.0042644824427898265
0.3775218372128549 0.5532782166099949 -0.0025586894656738717
0.3358663727116839 0.2790378796790667 -0.0025586894656738717
0.4210707319186247 0.6939379055029744 -0.0025586894656738717
0.43632905009892675 -0.5485616990282693 -0.0025586894656738717
0.48391214519557557 0.2854516612730227 -0.0025586894656738717
0.4781295070031526 -0.44408187917991865 -0.0025586894656738717
0.4348364812439502 -0.5241859173852828 -0.0025586894656738717
0.35026326543854236 0.406656781261995 -0.0025586894656738717
0.44007326568369615 -0.5234268395104661 -0.0025586894656738717
0.4287809161751887 0.6039658549249949 -0.0025586894656738717
0.41362494557351365 0.6068827609158629 -8.528964885579472E-4
0.3724812189654774 0.542318496732025 -8.528964885579472E-4
0.42023489335983794 0.6720696395363482 -8.528964885579472E-4
0.33584931478191277 0.3351840555208376 -8.528964885579472E-4
0.39099760173207077 0.5705920153277215 -8.528964885579472E-4
0.378596486788438 -0.49014681852693437 -8.528964885579472E-4
0.4896094937391428 0.27911464036303707 -8.528964885579472E-4
0.3816754431121323 0.5409026885610189 -8.528964885579472E-4
0.45005215459982434 0.5360582365060095 -8.528964885579472E-4
0.4745985155405226 0.4038507518146395 -8.528964885579472E-4
0.353111939710326 0.34552116096216 -8.528964885579472E-4
0.48298248802304744 0.40306608704516605 8.528964885579775E-4
0.42047370437663406 0.614737937575482 8.528964885579775E-4
0.4113903567734918 0.6351221636520172 8.528964885579775E-4
0.42047370437663406 0.614737937575482 8.528964885579775E-4
0.37184154659905894 -0.465216654166385 8.528964885579775E-4
0.36631477735320334 0.46496078521981765 8.528964885579775E-4
0.4169341839491186 -0.5389751424968778 8.528964885579775E-4
0.46150655444115785 0.5079638261729102 8.528964885579775E-4
0.4572079561388257 -0.487050804273469 8.528964885579775E-4
0.4299664422942842 0.5886478339904936 8.528964885579775E-4
0.4130023311368663 0.7495126406974116 0.002558689465673902
0.39801693983290287 0.5846903942835847 0.002558689465673902
0.42023489335983794 0.6370752966108151 0.002558689465673902
0.41267823047121427 0.5999828283234291 0.002558689465673902
0.46195858958009356 0.4614980254762722 0.002558689465673902
0.3980681136222164 -0.5096952060446829 0.002558689465673902
0.37602926835787853 0.5020361955774322 0.002558689465673902
0.40963339000706234 0.5574744673337 0.002558689465673902
0.46699920782747106 -0.4645343369755387 0.002558689465673902
0.46002251455106696 -0.47642371402603667 0.002558689465673902
0.4394421222821633 -0.5163563276203207 0.002558689465673902
0.3540330679179687 -0.22758263452436478 0.002558689465673902
0.47777981944284387 -0.4280559541599145 0.0042644824427898265
0.4629650074365919 0.5119212658798192 0.0042644824427898265
0.4120726739643381 0.6735536794264392 0.0042644824427898265
0.4915114529086271 -0.38937709840381074 0.0042644824427898265
0.3767968751975807 0.4495574746364607 0.0042644824427898265
0.36634889321274555 -0.45861523534494636 0.0042644824427898265
0.3614276804737661 -0.4267083777079929 0.0042644824427898265
0.46111422205642116 0.46734889538777996 0.0042644824427898265
0.4169171260193474 -0.5157337131836733 0.0042644824427898265
0.37663482486475464 0.4937801575681912 0.0042644824427898265
0.4487131071127884 0.5232306733180978 0.0042644824427898265
0.34766193114844063 -0.35383690172560034 0.005970275419905782
0.4371648886577135 -0.5222839582157985 0.005970275419905782
0.4210707319186247 0.6939379055029744 0.005970275419905782
0.3407534695911211 0.2790890534683802 0.005970275419905782
0.4268960149354756 0.5685450637551823 0.005970275419905782
0.37101423700515773 -0.4519797006639654 0.005970275419905782
0.37470727880061366 0.48298248802304744 0.005970275419905782
0.4805773199253139 -0.38776512404043617 0.005970275419905782
0.4570373768411141 0.4807052543985977 0.005970275419905782
0.37101423700515773 -0.45859817741517517 0.005970275419905782
0.47592050509778744 0.09499134641314341 0.005970275419905782
0.4044392503917444 0.5622933324940527 0.007676068397021707
0.346843150519425 0.3244119728703504 0.007676068397021707
0.4210707319186247 0.6550372966598458 0.007676068397021707
0.4130023311368663 0.5942598928852052 0.007676068397021707
0.42023489335983794 0.6027717998410136 0.007676068397021707
0.3589542806569481 -0.23505400776413246 0.007676068397021707
0.4171815239308004 0.5364079240663182 0.007676068397021707
0.3750313794662657 -0.4627176674549102 0.007676068397021707
0.4792126855436212 -0.3848652759793391 0.007676068397021707
0.46109716412665 -0.45603095898461576 0.007676068397021707
0.4420349276073795 0.5332095622342259 0.007676068397021707
0.4021876036619514 0.5407662251228497 0.007676068397021707
0.4589137491159416 -0.47124663234048986 0.00938186137413763
0.4851403161390991 0.303524537865566 0.00938186137413763
0.42184686772321245 0.7129319103031604 0.00938186137413763
0.34676638983545477 0.3517217184339764 0.00938186137413763
0.4726453825817249 -0.15716750042901914 0.00938186137413763
0.36700562350893534 -0.4239791089446074 0.00938186137413763
0.3871936833931023 0.497865531748384 0.00938186137413763
0.41702800256285993 0.5278021984967685 0.00938186137413763
0.45462367977849505 -0.45356608813268323 0.00938186137413763
0.46092658482893833 -0.450222733897536 0.00938186137413763
0.36915492266010136 -0.44049971392797516 0.00938186137413763
0.4166186122483521 0.6821167601715611 0.011087654351253556
0.409275173481868 0.5538581862222144 0.011087654351253556
0.42167628842550087 0.5962130258440027 0.011087654351253556
0.412746462190299 0.6536385464186106 0.011087654351253556
0.47998882134820897 -0.4196293368529618 0.011087654351253556
0.37616573179604784 0.38632372897477324 0.011087654351253556
0.36710797108756216 -0.41394051727428016 0.011087654351253556
0.36691180489519387 -0.43989415742109905 0.011087654351253556
0.46641923821525166 -0.41366759039794154 0.011087654351253556
0.43404328750959137 -0.49630473117432283 0.011087654351253556
0.370357506708968 0.4255654964133252 0.011087654351253556
0.4057697689138947 0.5425487787839356 0.011087654351253556
0.4613615620381029 0.4280559541599145 0.011087654351253556
0.43840158856612255 -0.49568211673767554 0.01279344732836948
0.48177990397418063 0.31801524920616564 0.01279344732836948
0.42023489335983794 0.6954304743579509 0.01279344732836948
0.4063923833505421 0.5465659212450437 0.01279344732836948
0.40531773377495905 0.5352394558769938 0.01279344732836948
0.38370533675490026 -0.44945512705783386 0.01279344732836948
0.3695813709043803 0.4171815239308004 0.01279344732836948
0.4419240510638669 -0.46568574723509193 0.01279344732836948
0.4681506180870244 0.37534695116703215 0.01279344732836948
0.463715556346523 -0.42411557238277664 0.01279344732836948
0.372549450684562 -0.40785936531086187 0.01279344732836948
0.3982386929199279 0.48522560578795493 0.01279344732836948
0.4342053378424173 0.52318802849367 0.014499240305485436
0.42167628842550087 0.5767584569399957 0.014499240305485436
0.412746462190299 0.6730845863577323 0.014499240305485436
0.41403433588802147 -0.5089105412752096 0.014499240305485436
0.4657880948137188 -0.05197977649516517 0.014499240305485436
0.38352622849230306 -0.4638605487495779 0.014499240305485436
0.40466953244365506 -0.47124663234048986 0.014499240305485436
0.44750199409903596 -0.4612250985999337 0.014499240305485436
0.4651398934824147 0.3763789559181874 0.014499240305485436
0.36785851999749325 0.37854531299912453 0.014499240305485436
0.43512646605005995 0.5141643836447267 0.014499240305485436
0.4166186122483521 0.6146952927510538 0.01620503328260136
0.3692657992036138 -0.4401756132623232 0.01620503328260136
0.4210707319186247 0.6541076394873175 0.01620503328260136
0.4120726739643381 0.595743932775296 0.01620503328260136
0.4210707319186247 0.5577644521398099 0.01620503328260136
0.3938803918633968 -0.45615889345789945 0.01620503328260136
0.4138808145200811 -0.4743597045237264 0.01620503328260136
0.4679032781053426 0.30990420359997944 0.01620503328260136
0.439245956089795 -0.4553742286884261 0.01620503328260136
0.4624959143678851 -0.019305312018509612 0.01620503328260136
0.47186924677713704 0.34474502515757244 0.017910826259717284
0.37856237092889566 -0.4533784509052005 0.017910826259717284
0.41652479363461076 -0.48795487455134035 0.017910826259717284
0.45963871113121585 -0.3830230195640539 0.017910826259717284
0.4657198630946342 -0.34528234994536394 0.017910826259717284
0.36576892360052615 -0.3690440461165888 0.017910826259717284
0.4055394868619841 0.47442793624281093 0.017910826259717284
0.43519469776914455 0.42831182310648186 0.017910826259717284
0.4113903567734918 0.5573038880359885 0.017910826259717284
0.41922847550333947 0.713102489600872 0.017910826259717284
0.460508665549545 0.4025031753627178 0.019616619236833208
0.3893429825442684 -0.47677340158634546 0.019616619236833208
0.3946650566328701 0.43383859235233746 0.019616619236833208
0.37085218667233166 -0.3551503623179796 0.019616619236833208
0.4599628117968678 -0.3814878058846496 0.019616619236833208
0.4491907291463808 -0.4446362618974813 0.019616619236833208
0.45255967027618477 -0.3844985304892592 0.019616619236833208
0.412746462190299 0.6555063897285525 0.019616619236833208
0.4210707319186247 0.6152070306441887 0.019616619236833208
0.37779476408919344 0.4106483368284464 0.021322412213949135
0.47249186121378445 -0.3440968238262683 0.021322412213949135
0.45262790199526937 0.05442758941732658 0.021322412213949135
0.41710476324683016 -0.4760228526764144 0.021322412213949135
0.37990994738081724 -0.42420939099651805 0.021322412213949135
0.45481131700597777 -0.3606515446691785 0.021322412213949135
0.45865788016937425 0.3519946453103151 0.021322412213949135
0.4070405846818461 0.44509682600130257 0.021322412213949135
0.4280985989843423 0.48151550606272775 0.021322412213949135
0.4113903567734918 0.6351221636520172 0.021322412213949135
0.42047370437663406 0.6360518208245455 0.021322412213949135
0.4516385420685421 -0.42756980316143645 0.02302820519106509
0.37933850673348346 -0.4413611393814187 0.02302820519106509
0.4168830101598051 0.43516058190960233 0.02302820519106509
0.45295200266092145 0.3409496357834895 0.02302820519106509
0.37422965676702125 0.35095411159427425 0.02302820519106509
0.3770356862143769 -0.21612823468303127 0.02302820519106509
0.45177500550671146 -0.42084897883159966 0.02302820519106509
0.4011641278756818 -0.4429645847799077 0.02302820519106509
0.3838929739823829 -0.06841509182967721 0.02302820519106509
0.412746462190299 0.6166057808854238 0.02302820519106509
0.4210707319186247 0.6550372966598458 0.02302820519106509
0.46253003022742734 -0.344224758299552 0.024733998168181014
0.41338613455671736 -0.4714769143924005 0.024733998168181014
0.40793612599483203 0.40105325133216935 0.024733998168181014
0.43438444610501453 -0.4493271925845501 0.024733998168181014
0.38298037473962593 -0.3919784326939125 0.024733998168181014
0.45360873295711107 -0.19541990794084388 0.024733998168181014
0.45653416791286494 -0.21214520808146559 0.024733998168181014
0.4233223786484177 0.410230417549053 0.024733998168181014
0.4106398078635608 0.7129319103031604 0.024733998168181014
0.4120726739643381 0.5568347949672816 0.024733998168181014
0.411731515368915 0.7129148523733894 0.024733998168181014
0.42047370437663406 0.6360518208245455 0.02643979114529694
0.4113903567734918 0.6545767325560244 0.02643979114529694
0.3769162807059788 -0.38284391130145673 0.02643979114529694
0.38002935288921535 0.40707470054138845 0.02643979114529694
0.43783014791878866 0.4308534546423846 0.02643979114529694
0.44982187254791367 0.3421778067270128 0.02643979114529694
0.43551026946991106 0.39324924846186377 0.02643979114529694
0.37811033578995995 -0.36431899956997776 0.02643979114529694
0.3835774022816166 -0.24783892612761643 0.02643979114529694
0.41678919154606364 -0.45564715556476465 0.02643979114529694
0.44276841858753935 0.19200832198661197 0.02643979114529694
0.4113903567734918 0.6545767325560244 0.028145584122412862
0.42047370437663406 0.6554978607636671 0.028145584122412862
0.45595419830064543 -0.17280109306428665 0.028145584122412862
0.3705963177257643 0.2790975824332658 0.028145584122412862
0.4388877395646006 -0.20659285194095314 0.028145584122412862
0.3885497888099095 -0.4092581155520969 0.028145584122412862
0.40221319055660815 -0.40020035484361133 0.028145584122412862
0.38350917056253186 -0.10832211852930443 0.028145584122412862
0.4428622372012807 -0.11141813278276985 0.028145584122412862
0.44676850311887617 0.3311327972001873 0.028145584122412862
0.44154877660890146 -0.38508702906636416 0.028145584122412862
0.44372366265472424 0.38686105376256463 0.028145584122412862
0.3992280528466552 0.3831509540373375 0.028145584122412862
0.412746462190299 0.6555063897285525 0.029851377099528786
0.42167628842550087 0.6545767325560244 0.029851377099528786
0.45544246040751074 -0.18695917477434884 0.029851377099528786
0.3693766757471264 -0.18387168948576904 0.029851377099528786
0.42129248500564975 0.4052324441261032 0.029851377099528786
0.3891724032465567 0.36577745256541166 0.029851377099528786
0.38278420854725764 -0.214226275513547 0.029851377099528786
0.4497365828990579 0.29348594619523855 0.029851377099528786
0.4354590956805976 -0.3948356359305817 0.029851377099528786
0.38359446021138766 -0.2871318673554819 0.029851377099528786
0.43048670915230464 -0.40711734536581645 0.029851377099528786
0.40970162172614694 0.3743831781349617 0.029851377099528786
0.44432921916160034 0.16939803607494022 0.029851377099528786
0.44491771773870536 -0.006861552250448869 0.029851377099528786
0.3883195067579988 -0.11529028284082295 0.029851377099528786
0.44432921916160034 -0.33633546578039086 0.029851377099528786
0.4130023311368663 0.7109787773443628 0.03155717007664474
0.42184686772321245 0.61566759474801 0.03155717007664474
0.4042004393749481 -0.4209001526209132 0.03155717007664474
0.44952335877691846 0.34329510112702377 0.03155717007664474
0.4391947823004815 0.37367527404945855 0.03155717007664474
0.4175653273506515 0.15523995436487803 0.03155717007664474
0.3930871981290378 -0.4013858809627069 0.03155717007664474
0.3969081743977775 -0.3853258400831604 0.03155717007664474
0.4122858980864777 -0.27937050930960433 0.03155717007664474
0.4122858980864777 -0.1404763161479397 0.03155717007664474
0.38646872137782806 0.01945030442156443 0.03155717007664474
0.4122858980864777 0.15647665427328705 0.03155717007664474
0.4230835676316214 -0.1507707767648344 0.03155717007664474
0.42095132641022653 -0.22576596500373622 0.03155717007664474
0.44676850311887617 -0.1366382819494288 0.03155717007664474
0.44676850311887617 0.021420495310133285 0.03155717007664474
0.42095132641022653 0.2100726696142695 0.03155717007664474
0.44515652875550166 0.31996838216496354 0.03155717007664474
0.412746462190299 0.7119937241657467 0.03326296305376067
0.42116455053236607 0.6346530705833103 0.03326296305376067
0.430580527766046 -0.4048656986360234 0.03326296305376067
0.446427344523453 0.3416575398689926 0.03326296305376067
0.4100939541108837 0.35763229109968325 0.03326296305376067
0.39991889900238714 0.3300752055543754 0.03326296305376067
0.38976090182366174 0.17144498764747942 0.03326296305376067
0.38976090182366174 0.013394739352802809 0.03326296305376067
0.44347632267304243 -0.09573336635818887 0.03326296305376067
0.4330027537935507 -0.21636704569982743 0.03326296305376067
0.44347632267304243 -0.3447876699820003 0.03326296305376067
0.44105409664553774 -0.1974924464080397 0.03326296305376067
0.4130023311368663 0.6915242084403554 0.03496875603087659
0.42023489335983794 0.6915242084403554 0.03496875603087659
0.4072111639795578 0.3745964022571012 0.03496875603087659
0.3814963348495351 -0.25203517685132154 0.03496875603087659
0.4003794631062085 0.33751246293460074 0.03496875603087659
0.3928825029717839 0.20204691365693928 0.03496875603087659
0.40691265020856243 0.04072154284620008 0.03496875603087659
0.4403547215249203 0.23254649208777206 0.03496875603087659
0.4263245742881418 0.09928994471547548 0.03496875603087659
0.4403547215249203 -0.05228681923104605 0.03496875603087659
0.4403547215249203 -0.19766302570575126 0.03496875603087659
0.4263245742881418 -0.32197268891307473 0.03496875603087659
0.4118594498421986 -0.39515120763134814 0.03496875603087659
0.4130023311368663 -0.2592847970040643 0.03496875603087659
0.401991437469583 -0.125678562071459 0.03496875603087659
0.4069041212436769 0.008302947316111805 0.03496875603087659
0.44020972912186546 4.690930687066967E-5 0.03496875603087659
0.40642649921008445 -0.2589777542681834 0.03496875603087659
0.3988868942512321 -0.3770186282846058 0.03496875603087659
0.3928825029717839 -0.11760163232481505 0.03496875603087659
0.4333097965294314 -0.11302157818125884 0.03667454900799252
0.4366360928348075 -0.28562224057073426 0.03667454900799252
0.4469817272410157 -0.2572719612910675 0.03667454900799252
0.4470584879249859 -0.24568962697645028 0.03667454900799252
0.3893856273686963 -0.25634230411853937 0.03667454900799252
0.43055494087138924 -0.3216571172123082 0.03667454900799252
0.4305464119065036 -0.20925388898525407 0.03667454900799252
0.4022728933108071 -0.11369536640721958 0.03667454900799252
0.4015564602604184 0.008217657667255964 0.03667454900799252
0.4305464119065036 0.1755644776872143 0.03667454900799252
0.40408103386655003 0.29178868218300835 0.03667454900799252
0.41672095982697904 -0.381863080339615 0.038380341985108445
0.40408956283143566 0.011578069832174393 0.038380341985108445
0.3958335248221945 0.014281751700903086 0.038380341985108445
0.43899008714322757 -0.15239128009309452 0.038380341985108445
0.39678876888937936 -0.42080633400717177 0.038380341985108445
0.4290111982270994 -0.14747859631900057 0.038380341985108445
0.3891979901412135 -0.11244160856903944 0.038380341985108445
0.41387228555519545 0.28227035737070133 0.038380341985108445
0.41335201869717514 0.1399645782548049 0.038380341985108445
0.41331790283763276 0.0015138912671903448 0.038380341985108445
0.42058458092014667 -0.15131663051751143 0.038380341985108445
0.4198852057995291 -0.2690675197278241 0.038380341985108445
0.37425524366167795 -0.17916370086892902 0.039489107420233815
0.4589819808350262 -0.1566984073603122 0.039489107420233815
0.4322180890240772 0.020499367102490645 0.04008613496222439
0.40599152200091987 -0.309895674635094 0.04008613496222439
0.415646310251396 -0.12177229615386354 0.04008613496222439
0.41304497596129425 -0.33145689786583926 0.04008613496222439
0.4406702932256867 -0.147632117686941 0.04008613496222439
0.3843961829106321 0.03427364539270186 0.04119490039734974
0.455698329354078 -0.16793105411462067 0.04119490039734974
0.38370533675490026 -0.10818565509113512 0.04119490039734974
0.41099802438875505 -0.3202157221466453 0.04179192793934032
0.4151516302880324 -0.31925194911457483 0.04179192793934032
0.44025237394629335 -0.11990445284392164 0.04179192793934032
0.43843570442566493 -0.024482393704056454 0.04179192793934032
0.39457123801912874 -0.1734237075009339 0.04290069337446567
0.4458814907707759 -0.044363410852342654 0.04290069337446567
0.38292067198542695 -0.06682870436095935 0.04290069337446567
0.42613693706065897 -0.11247572442858168 0.04290069337446567
0.3894794459824376 -0.2594809631964326 0.04349772091645625
0.3951682655611193 -0.16218253178173994 0.04349772091645625
0.41328378697809043 -0.11882980326833856 0.04349772091645625
0.39163727409848925 -0.015765791590994 0.04349772091645625
0.44960864842577414 -0.1566984073603122 0.04460648635158159
0.42984703678588615 -0.033130764098034185 0.04460648635158159
0.42102808709419676 -9.680375145133072E-4 0.04460648635158159
0.41098949542386953 -0.32061658349626754 0.04520351389357217
0.3946906435275268 -0.16663465145201256 0.04520351389357217
0.4439454157417492 -0.1438111414182014 0.04520351389357217
0.39553501105119926 8.82747865657467E-4 0.04520351389357217
0.40538596549404377 -0.12299193813250144 0.04631227932869752
0.42785125900266047 -0.044363410852342654 0.04631227932869752
0.436039065292817 -0.29102960430819175 0.046909306870688096
0.41820499971707 -0.3198404476916798 0.046909306870688096
0.4395103540012479 -0.16568793634971318 0.046909306870688096
0.43803484307604257 -0.014392628244415666 0.046909306870688096
0.42785125900266047 -0.055596057606651 0.048018072305813474
0.3844729435946023 -0.16793105411462067 0.048018072305813474
0.4097272086208037 0.011799822919199433 0.048018072305813474
0.4372075334821414 -0.287473025950905 0.04861509984780405
0.41059716303913285 -0.3124970089251957 0.04861509984780405
0.4403632504898059 -0.12064647278896698 0.04861509984780405
0.3918675561503999 -0.014264693771131966 0.04861509984780405
0.4496768801448589 -0.1566984073603122 0.049723865282929394
0.38292067198542695 -0.11175929137819296 0.049723865282929394
0.42167628842550087 -0.32678302510854174 0.05032089282491997
0.4066482522971095 -0.3139554619206299 0.05032089282491997
0.38955620666640783 -0.12560180138748878 0.05032089282491997
0.43859775475849083 -0.026776685258277307 0.05032089282491997
0.41433284965901673 -0.3236187791359916 0.0520266858020359
0.39283985814735606 -0.28605721777989884 0.0520266858020359
0.3923792940435347 -0.14895410724420588 0.0520266858020359
0.4336509551248547 0.017608048006279155 0.0520266858020359
0.40371428837647005 -0.17178614624290267 0.052222851994404226
0.4270751231980727 0.023040998638393397 0.052222851994404226
0.42785125900266047 -0.14546576060600386 0.052222851994404226
0.39904041561917236 -0.3043859633190095 0.05373247877915183
0.44058500357683095 -0.16237869797410823 0.05373247877915183
0.43356566547599884 0.015689030907023782 0.05373247877915183
0.43145048218437515 -0.16793105411462067 0.054730367670764654
0.44071293805011463 0.023569794461299316 0.054730367670764654
0.41618363503918754 -0.32790031950855264 0.05543827175626775
0.41368464832771273 -0.3189619643084652 0.05543827175626775
0.44450832742419755 -0.12456979663633369 0.05543827175626775
0.39908306044360037 0.017829801093304194 0.05543827175626775
0.4503165525112773 -0.14546576060600386 0.0571440647333837
0.4224353663003174 5.671761648909675E-4 0.0571440647333837
0.41741180598271105 -0.3244460887298929 0.0571440647333837
0.38922357703587024 -0.16659200662758458 0.0571440647333837
0.4417705296959265 -0.015262582662744823 0.0571440647333837
0.398033997762674 0.019484420281106668 0.0571440647333837
0.39427272424813337 -0.16729138174820218 0.05884985771049963
0.4411905600837071 0.0014541885129912447 0.05884985771049963
0.39644761029395625 0.01864005275743425 0.05884985771049963
0.38686958272745026 0.011799822919199433 0.05972834109371432
0.39972273281001885 -0.14586662195562608 0.05972834109371432
0.3962685020313591 -0.16480945296649852 0.06055565068761555
0.43686637488671815 0.01879357412537469 0.06055565068761555
0.39973126177490437 -0.1754877170032442 0.06226144366473148
0.4285250472286213 0.024593270247568914 0.06226144366473148
0.43530557431265715 -0.1342331138516954 0.06226144366473148
0.43738664174473857 -0.16722315002911745 0.06226144366473148
0.43826512512795324 -0.013829716561967386 0.06226144366473148
0.391662860993146 -0.013812658632196268 0.0639672366418474
0.4367469693783201 -0.15191365805950208 0.0639672366418474
0.39503180212294997 -0.16822956788561594 0.0639672366418474
0.40538596549404377 -0.1342331138516954 0.06473484348154956
0.4503165525112773 0.03427364539270186 0.06473484348154956
0.3979742950084749 0.01984263680630103 0.06567302961896336
0.4406276484012588 -0.11555468075227597 0.06567302961896336
0.4503165525112773 -0.08929399786957615 0.06737882259607929
