0.283115450934274 -0.2410154592837128 -0.017944085697869865
0.17184100891842444 -0.11264135913224603 -0.017944085697869865
0.2906414115828513 -0.40731491232485384 -0.017944085697869865
0.31052768067390235 -0.39368796253900096 -0.017944085697869865
0.7487222534158846 -0.31669727955061105 -0.017944085697869865
0.7027431726512252 -0.354728185885567 -0.017944085697869865
0.7720073434450027 0.30608915829981154 -0.01741631847146192
0.42815644009570336 -0.12487500344038209 -0.01741631847146192
0.6792258650424874 -0.39763566139253226 -0.0165718909092092
0.5989946912839528 0.44779465859034256 -0.0165718909092092
0.4479793771195855 -0.05344698701833188 -0.0165718909092092
0.26800019756995064 2.48050596411715E-4 -0.0165718909092092
0.7091186007462329 -0.3519943516527739 -0.015833016792238086
0.7805149511346988 -0.3196527760184955 -0.015833016792238086
0.3453286515832417 -0.45035960731068525 -0.015833016792238086
0.3850695237317594 -0.45154180589783915 -0.015833016792238086
0.2771727919649206 -0.025306438506260683 -0.015833016792238086
0.1598712482234924 0.17652230421666285 -0.015833016792238086
0.30136564162346047 -0.0785053749281807 -0.015833016792238086
0.20498479073684292 0.2816324250280677 -0.015833016792238086
0.15926959358538734 0.11025585126888217 -0.015833016792238086
0.21565624405481137 0.2700215460470931 -0.015833016792238086
0.17769922513155262 -0.13555701210287874 -0.015833016792238086
0.35267517137484017 -0.13565201020363218 -0.015833016792238086
0.40117697948172965 0.09955273191732923 -0.015833016792238086
0.5747385095582439 0.3750155580686882 -0.015833016792238086
0.2977029370721894 0.4417570015202357 -0.015833016792238086
0.5920703852734805 0.38950804610585005 -0.015305249565830178
0.662843970334785 -0.43519157722372115 -0.015305249565830178
0.8214380218703703 0.3199905470433964 -0.01446082200357746
0.47318553985282863 0.06975499431433702 -0.01446082200357746
0.662843970334785 -0.37912158709014193 -0.01446082200357746
0.5433891363096124 0.4479424334137369 -0.013721947886606344
0.3383937902282413 0.3406368009404751 -0.013721947886606344
0.3873811441834261 -0.11995621289026018 -0.013721947886606344
0.3698381615776264 0.11246191827526737 -0.013721947886606344
0.3062738768290543 -0.07266826940410893 -0.013721947886606344
0.12799410774845305 0.05831300084581304 -0.013721947886606344
0.2133235129140884 0.2846618089076493 -0.013721947886606344
0.24838836743663179 -0.2636672286411415 -0.013721947886606344
0.19681495407204805 0.03140742764353632 -0.013721947886606344
0.24321624861783392 0.2859495609400845 -0.013721947886606344
0.24707950471514 -0.14171077796279527 -0.013721947886606344
0.4022641799681299 -0.35904532179758397 -0.013721947886606344
0.3181803054568174 -0.40266000538793595 -0.013721947886606344
0.6380916874162528 -0.43465325465278504 -0.013721947886606344
0.7432123635721858 -0.31793225486040566 -0.013721947886606344
0.7390218917945066 -0.3445106123823094 -0.013721947886606344
0.7435184685635025 -0.2821707475990038 -0.013721947886606344
0.42815644009570336 0.1114591605450923 -0.0131941806601984
0.7205500388702288 0.3199905470433964 -0.012349753097945717
0.3487591385548933 0.06975499431433702 -0.012349753097945717
0.6737687519214294 -0.3522476799214497 -0.012349753097945717
0.7843993179210611 0.27251260735573846 -0.011610878980974602
0.2532438259195848 0.4071882481905161 -0.011610878980974602
0.5527306162170328 0.4385587321282037 -0.011610878980974602
0.4544814693489313 -0.059516310122023186 -0.011610878980974602
0.2551754539682377 0.04126611943283657 -0.011610878980974602
0.2753783833951336 -0.23122009956158152 -0.011610878980974602
0.14938979110703082 0.10032327206788476 -0.011610878980974602
0.11897984352140548 0.040537800660393586 -0.011610878980974602
0.16976160604637713 -0.0946656074007918 -0.011610878980974602
0.2542149176161753 -0.07429379246144535 -0.011610878980974602
0.23913133028543648 0.27181595461687996 -0.011610878980974602
0.18242801948016768 0.19070868726250814 -0.011610878980974602
0.5567944238603741 -0.3519521302746613 -0.011610878980974602
0.6582629508095642 -0.43757708508708504 -0.011610878980974602
0.39887591437459097 -0.3640591104484593 -0.011610878980974602
0.6501775569009944 -0.4144397698813611 -0.011610878980974602
0.781676039032796 -0.26092283906382013 -0.011610878980974602
0.5918909444165019 0.3756066573622649 -0.011083111754566657
0.8075366331267851 0.3756066573622649 -0.010238684192313975
0.48778358133527217 0.08365638305792215 -0.010238684192313975
0.7119685437688359 -0.416825277744725 -0.010238684192313975
0.556847200583015 0.4418414442764611 -0.00949981007534286
0.4406223019834588 0.4755129933212875 -0.00949981007534286
0.27516727650457046 0.011215053561168671 -0.00949981007534286
0.42031381911128146 0.08644299401335602 -0.00949981007534286
0.31282874578104086 0.07676374308103444 -0.00949981007534286
0.2325975720225062 -0.2181209170021365 -0.00949981007534286
0.13778946747058432 0.06267235813594257 -0.00949981007534286
0.2354052936669965 0.02303703943270652 -0.00949981007534286
0.16852663073658267 0.06093072628879631 -0.00949981007534286
0.24673117834571076 -0.13952582164546648 -0.00949981007534286
0.24839892278115985 -0.22413746338318694 -0.00949981007534286
0.6061617702185725 -0.37035009578724193 -0.00949981007534286
0.37904242200618077 -0.46516875568369204 -0.00949981007534286
0.6531330533688788 -0.43052611494227494 -0.00949981007534286
0.7514560876486776 -0.33959182183218733 -0.00949981007534286
0.3246929530306914 -0.41351089956288306 -0.00949981007534286
0.446079415104517 0.09539392617323464 -0.008972042848934915
0.6407094128592361 0.2921877695562264 -0.008127615286682233
0.45998080384810197 0.10090381601693356 -0.008127615286682233
0.6685121903464064 -0.4585294439754801 -0.008127615286682233
0.7439406823446286 0.3042841943854962 -0.007388741169711117
0.28425542814331517 0.440247587252709 -0.007388741169711117
0.5761740364140735 0.4133525693949605 -0.007388741169711117
0.4906546350469314 0.022203167214981896 -0.007388741169711117
0.2816904794229725 0.031882418147303485 -0.007388741169711117
0.19720550181958998 -0.048770969392357574 -0.007388741169711117
0.15341137737225932 0.06360122845442048 -0.007388741169711117
0.2790094219128203 0.06648283751060792 -0.007388741169711117
0.23741080912734663 -0.14433905875030675 -0.007388741169711117
0.28786535597194546 0.2726814928681889 -0.007388741169711117
0.283843769706717 0.26502886808527387 -0.007388741169711117
0.7491022458188984 -0.31950500119510133 -0.007388741169711117
0.543283582864331 -0.34394062377778883 -0.007388741169711117
0.39932979418930187 -0.45707280643059417 -0.007388741169711117
0.559654922227505 -0.35598427188441784 -0.007388741169711117
0.6882929059921759 -0.39490182715973915 -0.007388741169711117
0.5973480575375599 0.4451136010801904 -0.006860973943303172
0.7428323711691721 0.26142949560117196 -0.006016546381050453
0.27699335110794193 -0.1130107961907317 -0.006016546381050453
0.7797233002950867 -0.22386302442545483 -0.006016546381050453
0.6021718499869284 -0.36706738363898467 -0.005277672264079337
0.4907707438367411 -0.48094899575328925 -0.005277672264079337
0.6529113911337877 -0.4207940872873126 -0.005277672264079337
0.7026165085168873 -0.39446905803408466 -0.005277672264079337
0.6163054563101329 -0.37595498373169434 -0.005277672264079337
0.15596577074807377 0.0691005629535912 -0.005277672264079337
0.13194180660198437 -0.03305406138992915 -0.005277672264079337
0.3213996855379057 -0.0856618985182723 -0.005277672264079337
0.24028186283900588 -0.11967121858799988 -0.005277672264079337
0.183641884100906 0.13832251236925636 -0.005277672264079337
0.256515982723314 0.15826155818294832 -0.005277672264079337
0.4268792434077962 0.08682298641636975 -0.005277672264079337
0.48128148910592633 0.02026098382180071 -0.005277672264079337
0.5520972955453433 0.35062215686411324 -0.005277672264079337
0.30328671432758536 0.4379992988682113 -0.005277672264079337
0.7564487656104968 0.27283982303611143 -0.005277672264079337
0.7455239840238526 0.30758801722281004 -0.005277672264079337
0.6955972044056614 -0.42436179373783034 -0.00474990503767143
0.27337286793478344 -0.11309523894695693 -0.00390547747541871
0.6164743418225836 0.38950804610585005 -0.00390547747541871
0.6955972044056614 -0.44462805523189514 -0.00390547747541871
0.75201552090867 0.3093929811371251 -0.0031666033584475946
0.4743782937845106 0.4846222556490885 -0.0031666033584475946
0.4001425557179701 0.47313804080245186 -0.0031666033584475946
0.2125107513854202 0.24733811065607994 -0.0031666033584475946
0.26565691108469947 0.13745697411794738 -0.0031666033584475946
0.12245255187116964 0.07459989745276191 -0.0031666033584475946
0.21253186207447647 0.1222361673083424 -0.0031666033584475946
0.17285432199312772 0.13325594699574025 -0.0031666033584475946
0.25601988153049055 0.07108496772488507 -0.0031666033584475946
0.4346268662914647 0.08629521918996184 -0.0031666033584475946
0.42349097781425726 -0.08164031225304381 -0.0031666033584475946
0.7159373533114236 -0.3385785087574841 -0.0031666033584475946
0.32259243946958766 -0.38582423086552264 -0.0031666033584475946
0.6536713759398152 -0.3947012756137042 -0.0031666033584475946
0.7297015225761426 -0.34400395584495774 -0.0031666033584475946
0.45855583233680053 -0.46833535904213963 -0.0031666033584475946
0.8108826773422116 0.3617052686186801 -0.0017944085697869678
0.6137299522452622 0.41466143211645246 -0.0017944085697869678
0.2804660594577061 0.10460874194631727 -0.0017944085697869678
0.6651239247528672 -0.3473077786822715 -0.0017944085697869678
0.7645447148635945 0.27126707670141575 -0.0010555344528158524
0.5941286774564715 0.42226128017672676 -0.0010555344528158524
0.26803186360353515 0.3852647976055304 -0.0010555344528158524
0.254721574153527 -0.09887718986752715 -0.0010555344528158524
0.2730984289770514 0.08072199727909397 -0.0010555344528158524
0.15858349619105705 0.08318139255415499 -0.0010555344528158524
0.2486205850162512 0.07071553066639955 -0.0010555344528158524
0.24737505436192853 0.2497236185194438 -0.0010555344528158524
0.48502863641342275 -0.032104080382394824 -0.0010555344528158524
0.48901855664506677 0.05638137279715992 -0.0010555344528158524
0.4299402933209622 -0.4689264583357165 -0.0010555344528158524
0.7719440113778337 -0.23889383503355296 -0.0010555344528158524
0.43662182640728675 -0.46243492145089893 -0.0010555344528158524
0.6436332432935362 -0.444089732660959 -0.0010555344528158524
0.7720073434450027 0.3617052686186801 -5.277672264079075E-4
0.7241177453207467 0.3478038798750949 3.166603358447745E-4
0.7283398831320099 0.2671610476799619 3.166603358447745E-4
0.2803288399788401 0.09251231711704734 3.166603358447745E-4
0.7698329424722021 0.30966742009485737 0.00105553445281589
0.8000634492008488 0.30115981240516126 0.00105553445281589
0.4017786341198347 0.34147067315819973 0.00105553445281589
0.3150559234764823 0.3509177065109016 0.00105553445281589
0.2371469255141426 -0.07625708654368295 0.00105553445281589
0.28333711316936533 0.2022984555544266 0.00105553445281589
0.3093243713976922 0.0660500683849533 0.00105553445281589
0.25062610047660133 0.23651888251471714 0.00105553445281589
0.1894367682468651 0.11638850643974243 0.00105553445281589
0.49462344458951896 -0.019384890225963552 0.00105553445281589
0.43821568343103867 0.09316674847779316 0.00105553445281589
0.6549063512496096 -0.4500429469748405 0.00105553445281589
0.7275165662588136 -0.3036508737138068 0.00105553445281589
0.7242021880769718 -0.3355385695333744 0.00105553445281589
0.46782342483252387 -0.467026496320648 0.00105553445281589
0.4646884875076608 -0.08317083720962694 0.0015833016792238348
0.7068703123617351 -0.295280485502977 0.0024277292414765167
0.33203947282228985 -0.04146667097887164 0.0024277292414765167
0.723146653624156 0.27286093372516784 0.0024277292414765167
0.7658219115515018 0.33390249113150977 0.0024277292414765167
0.8045600259698443 0.3108601740265393 0.0031666033584476323
0.3681281957640646 0.33811407359824514 0.0031666033584476323
0.511976430993812 0.4656859675655719 0.0031666033584476323
0.21725010107856346 -0.131514315148594 0.0031666033584476323
0.2624164203145547 0.2569856955548169 0.0031666033584476323
0.19323669227700224 0.04567825344560699 0.0031666033584476323
0.1915161711189124 0.1408241290224299 0.0031666033584476323
0.229188195739911 0.24727477858891098 0.0031666033584476323
0.46739065570686944 0.06348511966461078 0.0031666033584476323
0.6263435889564122 -0.37108896990421314 0.0031666033584476323
0.6819174778971678 -0.4402686979417655 0.0031666033584476323
0.6449948827376686 -0.3815387609870903 0.0031666033584476323
0.46886840394081164 -0.36706738363898467 0.0031666033584476323
0.6824135790899912 -0.3098679716408923 0.003694370584855577
0.6191870653663205 0.3959784723016114 0.003694370584855577
0.6955972044056614 0.3756066573622649 0.004538798147108296
0.6901400912846034 -0.3056036124515162 0.004538798147108296
0.24383901394499524 -0.0612579419691693 0.004538798147108296
0.7899408737983445 0.32812871767460694 0.005277672264079412
0.7413968443133423 0.28089355091109663 0.005277672264079412
0.47928652899010443 0.3322241913515326 0.005277672264079412
0.27814388366151116 0.37550110391698344 0.005277672264079412
0.20684253137379888 -0.12203561576230733 0.005277672264079412
0.22847043231199624 0.2525102294748775 0.005277672264079412
0.2335369976855123 0.25910731980497675 0.005277672264079412
0.17932474818888902 0.11036140471416381 0.005277672264079412
0.4756449351278895 -0.056814141922814546 0.005277672264079412
0.356591204194787 -0.3878930783930419 0.005277672264079412
0.7991662449159552 -0.25018805367868274 0.005277672264079412
0.6339012156385736 -0.3768944093947004 0.005277672264079412
0.6575029660035367 -0.3873653111666338 0.005277672264079412
0.6154821394369369 0.4312122123366052 0.005805439490487319
0.6963149678335764 -0.2917022237079312 0.005805439490487319
0.6191870653663205 0.3756066573622649 0.006649867052740039
0.7174256568898939 -0.20829389124642075 0.006649867052740039
0.26857018617447126 0.11252525034243634 0.006649867052740039
0.11902206489951817 0.08097532554776979 0.006649867052740039
0.82315854302846 -0.30953020061599124 0.007388741169711154
0.5276300069290715 -0.34172400142687537 0.007388741169711154
0.5369820421810201 -0.35488651605348936 0.007388741169711154
0.7135940668261722 -0.4061538244267564 0.007388741169711154
0.4745788453305455 0.055558055923963505 0.007388741169711154
0.1375783605800212 0.0590096535846714 0.007388741169711154
0.3183914123473805 0.06965999621358358 0.007388741169711154
0.25568211050558937 0.22381024770281394 0.007388741169711154
0.6131071869181008 0.4225462744789869 0.007388741169711154
0.31791642184361335 0.4389492798757456 0.007388741169711154
0.8078216274290453 0.292493874547543 0.007388741169711154
0.7582115081466994 0.2691032310731431 0.007388741169711154
0.7774644565660608 0.3697273304600806 0.007916508396119099
0.7519205228079167 0.3791743638127825 0.00876093595837178
0.8075366331267851 0.273620918531195 0.00876093595837178
0.4427228155445624 0.10090381601693356 0.00876093595837178
0.15358026288470977 0.09755777180150715 0.00876093595837178
0.756607095778419 -0.24841475579795216 0.009499810075342896
0.3582061719075954 -0.4094576472640701 0.009499810075342896
0.7339975477991031 -0.29005558996153835 0.009499810075342896
0.7278543372837147 -0.3167922776513645 0.009499810075342896
0.46693677589215865 0.06904778623095045 0.009499810075342896
0.16789331006489314 0.08062699917834053 0.009499810075342896
0.3232363154858054 0.06840391021473269 0.009499810075342896
0.5830244550128485 0.36803847533557527 0.009499810075342896
0.3345833108535761 0.3480360974547143 0.009499810075342896
0.601675748794105 0.3920413287926083 0.009499810075342896
0.7422518272201233 0.3623174786013132 0.009499810075342896
0.7929069256107573 0.3340397106103759 0.009499810075342896
0.4738821925916871 0.08417359493980185 0.010027577301750842
0.6928105934502278 -0.2292990268574566 0.010872004864003524
0.7241177453207467 0.4173108235930201 0.010872004864003524
0.20984024921979602 -0.06796058574455016 0.010872004864003524
0.0985235858258338 -0.09707222595321194 0.010872004864003524
0.7195367257955255 -0.2856751219823524 0.011610878980974638
0.7305670608274516 -0.3985539763664821 0.011610878980974638
0.5072476366451968 -0.46762815095875293 0.011610878980974638
0.42474706381310817 -0.4382315164478308 0.011610878980974638
0.5045560237905163 0.03191408418088796 0.011610878980974638
0.1551002324967647 0.06844613159284538 0.011610878980974638
0.3098626939686283 0.06825613539133851 0.011610878980974638
0.50040777339095 0.3332375044262359 0.011610878980974638
0.3881411289894536 0.3498832827471422 0.011610878980974638
0.8054466749102097 0.34070013300764407 0.011610878980974638
0.706057550833067 0.3677429256887866 0.011610878980974638
0.7402674224488293 0.26975766243388904 0.011610878980974638
0.7337969962530679 -0.24087823980484668 0.012138646207382585
0.19892602297767983 -0.07305881715165072 0.012983073769635266
0.4663667872876381 0.09250176177251913 0.012983073769635266
0.7913658453096459 0.3720389509117473 0.012983073769635266
0.6163898990663583 -0.45889888103396564 0.013721947886606382
0.6025201763563578 -0.3537359834999201 0.013721947886606382
0.6906467478219551 -0.3290364773040286 0.013721947886606382
0.5010622047516959 -0.3646924311201489 0.013721947886606382
0.7026587298949998 -0.23381671431550852 0.013721947886606382
0.2691296194344636 -0.08494413509035753 0.013721947886606382
0.19251892884908747 0.1001438312109061 0.013721947886606382
0.4565608722209786 0.4756924341782662 0.013721947886606382
0.5768601338084037 0.4183030259786672 0.013721947886606382
0.38829945915737596 0.3509282618554298 0.013721947886606382
0.7959679755239232 0.26430054931283103 0.013721947886606382
0.7800927373535725 0.2671927137135465 0.013721947886606382
0.662843970334785 -0.31950500119510133 0.014249715113014327
0.2274993406154055 -0.11097361469679709 0.015094142675267045
0.6790675348745652 -0.2883561794925048 0.015094142675267045
0.7174256568898939 0.38950804610585005 0.015094142675267045
0.685907398128812 0.36436521543977585 0.015833016792238162
0.7268410242090114 0.36006919021681544 0.015833016792238162
0.3214102408824339 0.44382584904775485 0.015833016792238162
0.34885413665564663 0.44956795647107334 0.015833016792238162
0.32223355775563034 0.06038184837333214 0.015833016792238162
0.16809386161092804 -0.07678485377009085 0.015833016792238162
0.5086726081564984 0.0145927638101794 0.015833016792238162
0.7779500024143563 -0.37248227538193 0.015833016792238162
0.3884155679471857 -0.37946991345957115 0.015833016792238162
0.7113352230971464 -0.31113461298427136 0.015833016792238162
0.4477471595399661 -0.3862781106802335 0.015833016792238162
0.4609096741665801 0.09625946442454374 0.016360784018646067
0.4738821925916871 -0.08620022108920841 0.01720521158089879
0.19000675685138568 0.05585360557075201 0.01720521158089879
0.6737687519214294 0.4034094348494352 0.01720521158089879
0.8005384397046158 0.28308906257295363 0.017944085697869903
0.6904884176540328 0.36261302824810154 0.017944085697869903
0.6014540865590138 0.3757227661520746 0.017944085697869903
0.30230506728646656 0.4078004581731492 0.017944085697869903
0.6002824433163879 0.3792904726025925 0.017944085697869903
0.31245930872255534 -0.08837462206200915 0.017944085697869903
0.5142036086892536 0.01097228063702106 0.017944085697869903
0.46421349700389364 -0.3705928687113896 0.017944085697869903
0.5379847999111952 -0.47531244177525256 0.017944085697869903
0.7018881897444441 -0.31645450662646346 0.017944085697869903
0.5104142400036445 -0.3654840819597608 0.017944085697869903
0.43361355321676137 -0.08317083720962694 0.01847185292427785
0.3487591385548933 -0.08317083720962694 0.01931628048653053
0.4576480727073789 0.10316265974595952 0.01931628048653053
0.6204325960206433 0.4504651607559669 0.01931628048653053
0.7576415195421787 0.24254598424029578 0.020055154603501647
0.7317703701036617 0.34311730690459225 0.020055154603501647
0.5514534195291259 0.34437339290344315 0.020055154603501647
0.3268567986589639 0.3587497721507956 0.020055154603501647
0.13142459472010468 0.05867188255977036 0.020055154603501647
0.30611554666113194 0.06807669453435986 0.020055154603501647
0.5876899172942948 -0.3607447322666175 0.020055154603501647
0.672818770913895 -0.44532470797075346 0.020055154603501647
0.715578471597466 -0.22797960879143675 0.020055154603501647
0.41686222145057356 -0.4234012573857678 0.020055154603501647
0.7119685437688359 0.39408906563107093 0.02058292182990959
0.6609967850423571 0.4008444861290927 0.021427349392162273
0.21150799365524514 0.06975499431433702 0.021427349392162273
0.6557191127782778 -0.3056036124515162 0.021427349392162273
0.7901625360334358 0.247422553412305 0.022166223509133387
0.7014659759633178 0.3747516744554842 0.022166223509133387
0.6021824053314566 0.3674157100084139 0.022166223509133387
0.31449649021648995 0.41958022266657424 0.022166223509133387
0.1593434809970845 0.06945944466754865 0.022166223509133387
0.27752111833434984 0.08460636406545648 0.022166223509133387
0.4961750802351582 0.03427848135519556 0.022166223509133387
0.667752205540379 -0.3307464431175904 0.022166223509133387
0.6417966133456365 -0.45999663686489417 0.022166223509133387
0.6973388362528079 -0.3016664689425129 0.022166223509133387
0.44541442839924295 -0.40789545627390267 0.022166223509133387
0.4510193163436952 -0.10903143130361576 0.022693990735541333
0.33485774981130817 0.06975499431433702 0.023538418297794014
0.6581785080533389 0.4451136010801904 0.023538418297794014
0.718755630300442 0.3854336831179808 0.02427729241476513
0.7173412141336685 0.3777599476460094 0.02427729241476513
0.3777863360073299 0.3464000190528497 0.02427729241476513
0.6307557229691823 0.4143658824696638 0.02427729241476513
0.30977825121240293 0.37735884455393925 0.02427729241476513
0.3084588331463831 -0.05896743220655886 0.02427729241476513
0.45170541373802564 0.09280786676383584 0.02427729241476513
0.6771886835485527 -0.31281291276424866 0.02427729241476513
0.806196104371709 -0.26361445191850075 0.02427729241476513
0.7164651205378314 -0.2477814351262626 0.02427729241476513
0.6901400912846034 -0.26389944622076106 0.024805059641173074
0.626808024115651 0.3648613166325993 0.025649487203425796
0.6546108016028213 -0.31783725675965224 0.025649487203425796
0.7079680681926638 0.38532812967269936 0.02638836132039691
0.3141164978134762 0.42319015049520464 0.02638836132039691
0.6638256173759037 0.3802404536101268 0.02638836132039691
0.33610328046563087 0.37276726968419016 0.02638836132039691
0.609592257190224 0.4383370698931125 0.02638836132039691
0.154255804934512 -0.07980368230514427 0.02638836132039691
0.5031521629682711 -0.0263619729590765 0.02638836132039691
0.46307351979485256 -0.3798815718961694 0.02638836132039691
0.6919556105434467 -0.21716038065007398 0.02638836132039691
0.45459757813874097 -0.3908274641718699 0.02638836132039691
0.7174256568898939 0.4173108235930201 0.026916128546804818
0.626808024115651 0.26438499206905614 0.026916128546804818
0.4247787298466926 0.35453818968406026 0.028499430226028653
0.7321503625066754 0.2580201193185766 0.028499430226028653
0.6576824068605154 0.408444334189367 0.028499430226028653
0.6587590520023876 0.3924846532627909 0.028499430226028653
0.3601166892671921 0.44454361247566976 0.028499430226028653
0.13105515766161915 -0.05470307301718277 0.028499430226028653
0.4977583819143821 -0.032220189172204525 0.028499430226028653
0.5466612931133417 -0.3585386652602323 0.028499430226028653
0.746959510879682 -0.23745830817772326 0.028499430226028653
0.7033870486674426 -0.24181766546785294 0.028499430226028653
0.45399592350063606 -0.41947466922129273 0.028499430226028653
0.7065114306477779 0.4173108235930201 0.02987162501468928
0.7119685437688359 0.2390943865795879 0.02987162501468928
0.1402277520565891 2.48050596411715E-4 0.02987162501468928
0.8249001748756062 -0.3119051531348269 0.030610499131660394
0.4703144861411694 -0.37897381226674776 0.030610499131660394
0.6295840797265567 -0.4441213986945435 0.030610499131660394
0.1271285694971441 -0.06423454912611003 0.030610499131660394
0.5097914746764832 0.003425209299387519 0.030610499131660394
0.7191145120143992 0.27401146627873696 0.030610499131660394
0.6842396536933627 0.40218501488416863 0.030610499131660394
0.6433165829576915 0.4141547755791008 0.030610499131660394
0.7358236224024746 0.3774855086882771 0.030610499131660394
0.6846829781635454 -0.25852677585592826 0.03113826635806834
0.7241177453207467 0.4173108235930201 0.03198269392032102
0.6512647573873949 -0.2950482679233574 0.03198269392032102
0.717689540503098 -0.22466523060959498 0.032721568037292134
0.654663578325462 -0.4530406648208376 0.032721568037292134
0.5468829553484329 -0.4529562220646123 0.032721568037292134
0.6386300099871888 -0.36165249189603915 0.032721568037292134
0.3203863724632026 0.06969166224716805 0.032721568037292134
0.3519574079469254 0.4363737758108749 0.032721568037292134
0.6884829021936827 0.3335963861401932 0.032721568037292134
0.7964112999941059 0.27777972427528963 0.032721568037292134
0.3384043455727695 0.41904190009563824 0.032721568037292134
0.7240649685981057 0.3356863443567687 0.032721568037292134
0.33485774981130817 -0.027554726890758434 0.03324933526370008
0.7076830738904033 0.30592027278736084 0.03324933526370008
0.6952488780362324 -0.2480875401175792 0.03483263694292388
0.8139120612217929 -0.2867517671242246 0.03483263694292388
0.5198929393899311 -0.37918491915731084 0.03483263694292388
0.12743467448846066 -0.06481509307515883 0.03483263694292388
0.7082952838730365 0.228137938959359 0.03483263694292388
0.7159584640004797 0.26914545245125593 0.03483263694292388
0.7027115066176405 0.40592160684713696 0.03483263694292388
0.6065312072770581 0.4417570015202357 0.03483263694292388
0.4739033032807434 0.46694205356442275 0.03483263694292388
0.6702643775380807 0.40496107049507446 0.03483263694292388
0.6955972044056614 0.24574425363232785 0.035360404169331824
0.3289678675645957 0.09001070046387377 0.035360404169331824
0.6919556105434467 -0.21683316496970115 0.03694370584855566
0.5588104946652525 -0.447150782574125 0.03694370584855566
0.6761964811629058 -0.30338699010060294 0.03694370584855566
0.2750195016811763 -0.08587300540883558 0.03694370584855566
0.809183266873178 0.3119579298574676 0.03694370584855566
0.3676848712938819 0.44588414123074605 0.03694370584855566
0.6802497334617189 0.32786483406140293 0.03694370584855566
0.3978731566444159 0.4499057274959745 0.03694370584855566
0.674539292071985 0.3500627236041209 0.03694370584855566
0.11163332372980701 -0.0689950095083097 0.03747147307496357
0.6846829781635454 0.3082530039280839 0.03747147307496357
0.6445726689565423 -0.34580891975927286 0.0390547747541874
0.7868376025070658 -0.3449011601298512 0.0390547747541874
0.5239989684113849 -0.43255274109168146 0.0390547747541874
0.27136735247443333 -0.07402990884824147 0.0390547747541874
0.7861303944236794 0.2568695867650072 0.0390547747541874
0.3225607734360032 0.38773474822511933 0.0390547747541874
0.7026270638614155 0.2953227068810895 0.0390547747541874
0.42073603289240774 0.3671518263952099 0.0390547747541874
0.6319801429344488 0.3761872013113137 0.0390547747541874
0.6901400912846034 0.2484464218315365 0.03958254198059535
0.5125991963209734 -0.43009334581662045 0.041165843659819144
0.604662911295574 -0.3601958543511532 0.041165843659819144
0.7905319730919212 -0.3464000190528497 0.041165843659819144
0.6797114108907826 -0.3168028329958927 0.041165843659819144
0.34533920692776976 0.4208890853880662 0.041165843659819144
0.38947110240000166 0.35625871084214994 0.041165843659819144
0.6611656705548076 0.4207096445310872 0.041165843659819144
0.35917726360418595 0.41685694377830945 0.041165843659819144
0.2803077292897837 0.07617264378745757 0.041165843659819144
0.12187200792212098 0.059379090643157065 0.041165843659819144
0.17427929350442922 -0.08317083720962694 0.04169361088622709
0.7685240797507105 -0.3756911001184903 0.04327691256545089
0.5796467447638378 -0.3732211494989012 0.04327691256545089
0.7027220619621688 -0.24962862041869036 0.04327691256545089
0.7131401870114614 0.2434854099033019 0.04327691256545089
0.8191791781413443 0.33363860751830576 0.04327691256545089
0.6604901285050055 0.4277606146758973 0.04327691256545089
0.4515576389146313 0.4593633161932046 0.04327691256545089
0.7746672902660988 0.2433798564580204 0.04327691256545089
0.13474952824647465 -0.06058239991936721 0.04327691256545089
0.33485774981130817 -0.03878561346871927 0.04380467979185883
0.5145097136805702 -0.3871014275534299 0.045387981471082625
0.5870777073116616 -0.3608819517454835 0.045387981471082625
0.7153462540178466 -0.3969601193427302 0.045387981471082625
0.466567338833673 0.35498151415424295 0.045387981471082625
0.7243182968667815 0.24138489634219848 0.045387981471082625
0.6897812095706461 0.30627915450131843 0.045387981471082625
0.4718133450641679 0.35584705240555187 0.045387981471082625
0.3061683233837727 0.07772427943309697 0.045387981471082625
0.13227957762688555 0.06214459090953466 0.045387981471082625
0.3487591385548933 -0.09707222595321194 0.04676017625974329
0.8126243091893577 -0.2735364757749699 0.04749905037671441
0.6081039536117537 -0.4420103297889117 0.04749905037671441
0.5449302166107235 -0.3996306215083543 0.04749905037671441
0.7906903032598438 0.3609347284681244 0.04749905037671441
0.4933673585906681 0.341565671258953 0.04749905037671441
0.42706923960930304 0.44901907855560913 0.04749905037671441
0.6864984974223887 0.31793225486040555 0.04749905037671441
0.31738865461720545 -0.08118643243833307 0.04749905037671441
0.6901400912846034 0.26093339440834823 0.048026817603122315
0.8095527039316636 -0.28375404927822767 0.04961011928234615
0.8104815742501414 -0.2546951857922066 0.04961011928234615
0.539040334364011 -0.39488071647068285 0.04961011928234615
0.5860432835479019 0.3568075887576141 0.04961011928234615
0.797551277203147 0.2511274793416887 0.04961011928234615
0.6290879785337333 0.36650795037899214 0.04961011928234615
0.5362115020304644 0.3525326742237101 0.04961011928234615
0.2774683416117091 -0.07909647422175756 0.04961011928234615
0.6407094128592361 0.3199905470433964 0.050137886508754094
0.8076316312275384 -0.27118263394519054 0.05172118818797789
0.7869959326749882 -0.23418615137399404 0.05172118818797789
0.6136771755226215 -0.3692312292672572 0.05172118818797789
0.36111944699736714 0.39955673409665715 0.05172118818797789
0.6850418598775028 0.23608611338906269 0.05172118818797789
0.6863823886325789 0.41696249722359097 0.05172118818797789
0.42302654265501816 0.4330382869399767 0.05172118818797789
0.30909215381807265 0.07799871839082906 0.05172118818797789
0.16057845630687914 0.07629930792179548 0.05172118818797789
0.626808024115651 0.26438499206905614 0.05224895541438584
0.786045951667454 -0.23954826639429877 0.053832257093609635
0.5641303883074444 -0.4132047945715665 0.053832257093609635
0.7394441055756332 0.2435065205923583 0.053832257093609635
0.3936087974550398 0.3729889319192816 0.053832257093609635
0.71171521550016 0.2125899164693813 0.053832257093609635
0.38652616127664524 0.4142814397134387 0.053832257093609635
0.3179058664990853 0.07871648181874383 0.053832257093609635
0.1320579153917942 0.062355697800097795 0.053832257093609635
0.11118999925962432 0.0644351006721451 0.05436002432001758
0.6408044109599896 -0.3513715863256125 0.05594332599924138
0.5571110841962189 -0.4056788339229892 0.05594332599924138
0.7996729014533068 0.2901716987513481 0.05594332599924138
0.5843649837679248 0.35189935355202057 0.05594332599924138
0.6351995230155373 0.4431080856198402 0.05594332599924138
0.4395562121861148 0.4315394280169782 0.05594332599924138
0.32429184993862126 0.08703409330693289 0.05594332599924138
0.7302187344580222 0.22868681687482348 0.05647109322564932
0.6584423916665428 -0.32535266206370117 0.05805439490487316
0.5399480939934328 -0.392759092220523 0.05805439490487316
0.598076376310003 -0.43244718764639983 0.05805439490487316
0.6764286987425254 0.4287739277506006 0.05805439490487316
0.685052415222031 0.261102279920799 0.05805439490487316
0.5435580218220629 0.45160513796500806 0.05805439490487316
0.5290971998184854 0.3572931346059096 0.05805439490487316
0.30972547448976223 0.06780225557662777 0.05805439490487316
0.6683116388003714 -0.22219527999000574 0.05858216213128106
0.6542096985107511 -0.33694243035561944 0.0601654638105049
0.5551900114920939 -0.38553923656326244 0.0601654638105049
0.6465992951059486 -0.4256178797366812 0.0601654638105049
0.4116901026317757 0.3827737362968847 0.0601654638105049
0.7994301285291593 0.24732755531155173 0.0601654638105049
0.7611564492700555 0.24067768825881175 0.0601654638105049
0.4468921766331852 0.3872492023768241 0.0601654638105049
0.3247773957869166 -0.06765448075323359 0.0601654638105049
0.673420425552 0.2424720968285986 0.06069323103691284
0.8046339133815414 -0.3296170212530774 0.06227653271613664
0.7719651220668902 -0.22891903445444287 0.06227653271613664
0.7495244596000246 -0.36733126725218856 0.06227653271613664
0.7117468815337443 0.21800480821232682 0.06227653271613664
0.427924222516084 0.3734111457004079 0.06227653271613664
0.6217414587421348 0.3565753711779947 0.06227653271613664
0.5980024888983059 0.4496418438827705 0.06227653271613664
0.16290063210307404 -0.0781148271806389 0.06227653271613664
0.33485774981130817 0.014149439339996715 0.06364872750479726
0.5577338495233802 -0.39738233312385657 0.06438760162176839
0.6873534803291698 -0.2454064826074268 0.06438760162176839
0.7089602705783107 0.2212347436379432 0.06438760162176839
0.40567355625072526 0.4002533868355157 0.06438760162176839
0.6691244003290395 0.3067119236269729 0.06438760162176839
0.5007033230377383 0.3689145689314124 0.06438760162176839
0.32472461906427585 -0.06815058194605703 0.06438760162176839
0.6708343661426013 0.23814440557205357 0.065759796410429
0.735718068957193 -0.37865715193090294 0.06649867052740012
0.7897086562187251 -0.347413332127553 0.06649867052740012
0.6555291165767709 -0.34366618482005656 0.06649867052740012
0.6599729166231257 0.26906100969503055 0.06649867052740012
0.5014210864656533 0.46203381835882895 0.06649867052740012
0.519481280953333 0.3620008182654684 0.06649867052740012
0.5016321933562166 0.37631386544565165 0.06649867052740012
0.13376788120535585 -0.07129607461544835 0.06649867052740012
0.0985235858258338 0.08365638305792215 0.06787086531606079
0.6381444641388936 -0.4274756203736372 0.0686097394330319
0.8145242712044264 -0.2783919342579229 0.0686097394330319
0.6459237530561465 -0.35987919401530843 0.0686097394330319
0.723558312060754 0.23455558843247956 0.0686097394330319
0.5620404300908689 0.3488171929497982 0.0686097394330319
0.4853452967492675 0.44364640819077616 0.0686097394330319
0.2644641571530175 0.07963479679269367 0.0686097394330319
0.1796308531802056 -0.08550356835034992 0.0686097394330319
0.1402277520565891 -0.010307293931747034 0.06998193422169253
0.626808024115651 0.2766186363771923 0.06998193422169253
0.7012232030391703 -0.21480653882029457 0.07072080833866365
0.6106794576766245 -0.3904580271133844 0.07072080833866365
0.46986060632645865 0.43343939003204685 0.07072080833866365
0.701993743189726 0.42169129157220614 0.07072080833866365
0.49965834392945074 0.3747622298000124 0.07072080833866365
0.4744521811962076 0.4053410628980882 0.07072080833866365
0.1256930426413144 -0.061279052658225565 0.07072080833866365
0.1225158839383386 -0.013653338147173285 0.0712485755650716
0.25143886200526955 -0.05536805972245679 0.07209300312732428
0.7928858149217008 -0.265831074269414 0.07283187724429539
0.67181601318372 -0.2227863792835826 0.07283187724429539
0.6663483447181338 -0.32179551095771175 0.07283187724429539
0.7750895040472251 0.3582642263025001 0.07283187724429539
0.7510127631784949 0.36482965059901495 0.07283187724429539
0.47948708053613937 0.385444238462509 0.07283187724429539
0.32736345519631554 0.08555634507299066 0.07283187724429539
0.11834652284971593 0.07565543190557787 0.07283187724429539
0.2550171238003155 -0.09707222595321194 0.07420407203295602
0.11063056599963195 0.06975499431433702 0.07420407203295602
0.8156959144470519 -0.31234847760500956 0.07494294614992714
0.6944677825411485 -0.22768405914464826 0.07494294614992714
0.7996729014533068 0.33159087067984305 0.07494294614992714
0.7160006853785925 0.21814202769119262 0.07494294614992714
0.6543891393677298 0.2898339277264469 0.07494294614992714
0.7909858529066321 0.33483136144998765 0.07494294614992714
0.33097338302494583 -0.05896743220655886 0.07494294614992714
0.24804004106720254 0.09342007674646897 0.07547071337633508
0.2133129575695602 0.09755777180150715 0.07631514093858777
0.1061339892306363 -0.010085631696655693 0.07631514093858777
0.7224605562298256 -0.3845470341776155 0.07705401505555888
0.6760064849613989 -0.331728090158709 0.07705401505555888
0.8043383637347531 -0.2935494090003589 0.07705401505555888
0.7097413660733942 0.2118721530414664 0.07705401505555888
0.5147208205711332 0.4228207134367191 0.07705401505555888
0.25771929199952415 0.07557098914935251 0.07705401505555888
0.11810374992556832 -0.028736925477912158 0.07705401505555888
0.23584861813717917 -0.06485731445327152 0.07758178228196683
0.13600561424532553 0.004871291499745272 0.07842620984421954
0.6637622853087348 -0.24339041180254847 0.07916508396119065
0.7072819707983332 -0.24258820561840846 0.07916508396119065
0.6682588620777306 -0.3436450741310003 0.07916508396119065
0.49955279048416923 0.3745405675649209 0.07916508396119065
0.6484359250538483 0.2722909451206473 0.07916508396119065
0.5348604179308603 0.3732422601879575 0.07916508396119065
0.12547138040622305 -0.06146904885973243 0.07916508396119065
0.19892602297767983 0.09755777180150715 0.07969285118759856
0.20638865155908798 -0.06093072628879646 0.08053727874985128
0.7951341033061985 -0.3275587290700864 0.0812761528668224
0.6407410788928207 -0.373537809834746 0.0812761528668224
0.7025320657606619 -0.24177544408974025 0.0812761528668224
0.6458920870225622 0.31114516832879946 0.0812761528668224
0.6784447695474035 0.22592131660844586 0.0812761528668224
0.783132676577682 0.33714298190165437 0.0812761528668224
0.3314694842177693 -0.05896743220655886 0.0812761528668224
0.2207544754619121 -0.06603951304042524 0.08180392009323034
0.8002745560914118 -0.31477620684648616 0.08338722177245414
0.6972016167739418 -0.21972532937041664 0.08338722177245414
0.6316212612204916 -0.3959362509234988 0.08338722177245414
0.3097571405233467 -0.08131309657267098 0.08338722177245414
0.203063718032718 -0.08718186813032722 0.08338722177245414
0.6871318180940782 0.20502173444269137 0.08338722177245414
0.754865463931273 0.35339821247501907 0.08338722177245414
0.5596338115384486 0.4348643615433482 0.08338722177245414
0.669493837387525 -0.3173622662558851 0.08549829067808593
0.8097532554776986 -0.31325623723443125 0.08549829067808593
0.6759009315161174 -0.34647390646454684 0.08549829067808593
0.13449619997779882 0.06898445416378149 0.08549829067808593
0.3318072552426703 -0.05896743220655886 0.08549829067808593
0.5361270592742393 0.3692945613344261 0.08549829067808593
0.7026481745504716 0.2213297417386968 0.08549829067808593
0.11030335031925896 0.05365809390889501 0.08687048546674651
0.6297740759280637 -0.40471829757092687 0.08760935958371763
0.6365928284932543 -0.3932868594469309 0.08760935958371763
0.7437190201095375 -0.24316874956745713 0.08760935958371763
0.31128766547992964 0.07904369749911681 0.08760935958371763
0.25188218647545224 -0.09001070046387377 0.08760935958371763
0.6448048865361617 0.30988908232994855 0.08760935958371763
0.5560872157769875 0.431792756285654 0.08760935958371763
0.0985235858258338 -0.027554726890758434 0.08898155437237829
0.7111980036182802 -0.3784566003848679 0.0897204284893494
0.7285298793335168 -0.2434959652478301 0.0897204284893494
0.7058358885979754 -0.25372409409561586 0.0897204284893494
0.18508796630126378 -0.07490600244407862 0.0897204284893494
0.779543859438108 0.24687367549684083 0.0897204284893494
0.7603542430859156 0.22008421108437412 0.0897204284893494
0.560784344092018 0.4280139429445731 0.0897204284893494
0.6596773669763374 -0.25762957157103467 0.09183149739498112
0.7524905114124373 -0.34915496397469925 0.09183149739498112
0.6863823886325789 -0.32330492522523846 0.09183149739498112
0.6887995625295275 -0.2518030213914911 0.09183149739498112
0.3282184381030963 0.06297846312725913 0.09183149739498112
0.7104907955348935 0.22259638308207588 0.09183149739498112
0.7915452861666246 0.2727026035572453 0.09183149739498112
0.582053363316258 0.37769661557884043 0.09183149739498112
0.5537755953253207 0.4306527790766128 0.09394256630061289
0.5204101512718109 0.40794823299654354 0.09394256630061289
0.5946670000274077 0.36850291049481404 0.09394256630061289
0.24254070656803184 0.07981423764967233 0.09394256630061289
0.7254899401094073 -0.35480207329726415 0.09394256630061289
0.6961249716320695 -0.29855264230670625 0.09394256630061289
0.7800294052864035 -0.2529852199786448 0.09394256630061289
0.11008168808416761 0.06975499431433702 0.09531476108927356
0.6460609725350126 0.2843451485718045 0.09605363520624467
0.6543785840232016 0.2256257669616572 0.09605363520624467
0.7926852633756657 0.27976412904658365 0.09605363520624467
0.2334525549292871 0.08245307378171202 0.09605363520624467
0.7604809072202535 -0.24365429541575248 0.09605363520624467
0.6795847467564446 -0.379068810367501 0.09605363520624467
0.7934558035262214 -0.2745603441942013 0.09605363520624467
0.11002891136152687 -0.060149630793712584 0.09742582999490526
0.7406896362299559 0.22153029328473187 0.09816470411187637
0.6839018826684619 0.39029969694546185 0.09816470411187637
0.6469687321644341 0.26916656314031207 0.09816470411187637
0.2298320717561286 0.08375138115867559 0.09816470411187637
0.6945416699528456 -0.32241827628487313 0.09816470411187637
0.7977096073710693 -0.28523179751216987 0.09816470411187637
0.11026112894114627 0.07648930412330235 0.09953689890053703
0.6653244762989022 -0.2593289820400682 0.10027577301750815
0.6855168503812701 -0.2596878637540257 0.10027577301750815
0.12499638990245589 0.06113127783483139 0.10027577301750815
0.8057633352460545 0.31325623723443136 0.10027577301750815
0.7820876974693944 0.2615983811136224 0.10027577301750815
0.10991280257171716 0.06975499431433702 0.10164796780616875
0.6839335487020461 -0.2954071496373149 0.10238684192313986
0.7205078174921162 -0.2565107050510499 0.10238684192313986
0.12960907546126138 -0.07217216821128551 0.10238684192313986
0.568827516622475 0.3812854327184144 0.10238684192313986
0.6403927525233913 0.2432637476682107 0.10238684192313986
0.6177304278214346 0.3641541085492129 0.10238684192313986
0.3487591385548933 -0.08317083720962694 0.10375903671180052
0.6722382269648463 -0.27638641879757275 0.10449791082877163
0.7414707317250394 -0.30151869411911875 0.10449791082877163
0.5899698717123771 0.42513233388838584 0.10449791082877163
0.5748440630035254 0.3708673076691218 0.10449791082877163
0.5657453560202527 0.4035783203618857 0.10449791082877163
0.743085699437848 -0.30777801342431693 0.10660897973440342
0.7656741367281075 -0.2998192836500852 0.10660897973440342
0.767172995651106 0.23131509766233493 0.10660897973440342
0.7415446191367366 0.3654313052371199 0.10660897973440342
0.5850721918513114 0.3913130100201651 0.10660897973440342
0.10980724912643552 -0.06897389881925343 0.10699952748194529
0.7727673282510301 -0.3121584814035027 0.10872004864003512
0.33363332984604177 0.048570417846322496 0.10872004864003512
0.7154095860850156 0.22337747857715948 0.10872004864003512
0.6577140728940998 0.30010427795234546 0.10872004864003512
0.6778853362874111 0.23824995901733506 0.10872004864003512
0.1289863101340999 0.06063517664200796 0.11083111754566691
0.6233458711104148 0.41613918035039454 0.11083111754566691
0.6453220984180416 0.3260176487689753 0.11083111754566691
0.7380191340643315 0.3488383036388543 0.11083111754566691
0.1273607870767635 -0.0691005629535912 0.11294218645129861
0.647485944046314 0.3402884745710457 0.11294218645129861
0.648077043339891 0.23613889011170341 0.11294218645129861
0.750474440607559 0.27621753328512216 0.11294218645129861
0.729342640862185 0.2689871222833334 0.11294218645129861
0.7778550043136027 0.24017103172146012 0.11505325535693038
0.6263224782673558 0.36713071570615347 0.11505325535693038
0.6646700449381565 0.3415023391917841 0.11505325535693038
0.7626658635375823 0.2434959652478301 0.11505325535693038
0.11705877081728057 -0.08936682444765601 0.1155810225833383
0.7474872781060902 0.23038622734385705 0.11716432426256217
0.658991269582007 0.26202059489474866 0.11716432426256217
0.7905741944700341 0.29004503461701014 0.11716432426256217
0.12053147916704487 -0.06990276913773134 0.11716432426256217
0.3487591385548933 -0.04146667097887164 0.11769209148897007
0.7569237561142639 0.2535235425495808 0.11927539316819387
0.7514244216150933 0.23695165164037163 0.11927539316819387
0.6839018826684619 0.34367674016458466 0.11927539316819387
0.6884617915046263 0.2590650984268642 0.11927539316819387
0.14174772166864386 0.0706521985992306 0.11927539316819387
0.14980144954362903 0.09045402493405645 0.11980316039460186
0.6683538601784839 0.30977297354013883 0.12138646207382565
0.6056128923031083 0.4104709603387732 0.12138646207382565
0.783850440005597 0.2994498465915995 0.12138646207382565
0.16563446633586718 -0.07605653499764788 0.12138646207382565
0.13052739043521108 0.07578209603991579 0.12138646207382565
0.7615153309840129 0.2762703100077629 0.12349753097945736
0.7548549085867448 0.27136207480216906 0.12349753097945736
0.6795741914119164 0.31140905194200347 0.12349753097945736
0.6880501330680282 0.2662849540841248 0.12349753097945736
0.19908435314560222 0.07945535593571502 0.12349753097945736
0.20271539166328875 0.09752610576792269 0.12486972576811801
0.659445149396718 0.27171040117159845 0.12560859988508913
0.6639733921992981 0.2469581182530662 0.12560859988508913
0.7838293293165406 0.2777691689307614 0.12560859988508913
0.207380853944735 0.07472656158709982 0.12560859988508913
0.11633045204483758 -0.06954388742377388 0.12560859988508913
0.2589648226538468 0.09401117604004583 0.1269807946737498
0.6692721751524335 0.36155749379528573 0.1277196687907209
0.7639430602254896 0.2826985148254117 0.1277196687907209
0.22210555956151642 -0.0815136481187059 0.1277196687907209
0.13184680850123093 0.07298492973995371 0.1277196687907209
0.6661372378275704 0.27332536888440667 0.12983073769635262
0.6710771390667489 0.26235836591964984 0.12983073769635262
0.12988351441899348 -0.06670449974569927 0.12983073769635262
0.257983175612728 0.08747741777711557 0.12983073769635262
0.2589648226538468 0.1114591605450923 0.1303585049227606
0.7511288719683049 0.2860656697298942 0.1319418066019844
0.2749456142694791 0.07919147232251099 0.1319418066019844
0.11571824206220445 -0.06894223278566895 0.1319418066019844
0.7898247650085348 0.28485180510915614 0.1340528755076161
0.10809728331287374 0.07521210743539519 0.1340528755076161
0.3462891879353041 0.1114591605450923 0.1345806427340241
0.28953310040739455 0.08779407811296035 0.1361639444132479
0.12423640509642858 -0.06218681228764735 0.1361639444132479
0.31271263699123114 -0.0826641806722753 0.1361639444132479
0.17498650158781578 -0.0018419076201636464 0.13827501331887967
0.19599163719885163 -0.07639430602254892 0.13827501331887967
0.33485774981130817 -0.11097361469679709 0.13964720810754025
0.10340015499784318 0.04734599788105609 0.14038608222451138
0.27040681612237094 -0.08842739878464989 0.14038608222451138
0.3414970615195201 -0.09312452709968062 0.14249715113014316
0.3233418689310871 0.0832975013439647 0.14249715113014316
0.24330069137405913 -0.03777230039401614 0.14460822003577486
0.3265190276340627 -0.08556690041751887 0.14460822003577486
0.33009728942910865 -0.09086568337065466 0.14671928894140662
0.16683777561207716 0.020862638459905783 0.1488303578470384
0.2502988847962285 0.045942137058810874 0.1488303578470384
0.17346653197576087 -0.022087058425172196 0.1488303578470384
0.12913408495749423 0.08743519639900303 0.1509414267526701
0.2028103897640422 -0.0680555838453036 0.1509414267526701
0.1510364248534235 -0.09137233990800629 0.1530524956583019
