-0.5231709843011084 -0.22713075624878487 -0.2169329130216183
-0.5667172721174727 0.39364340295246436 -0.2169329130216183
0.1814484112213797 -0.2128304853873291 -0.2169329130216183
-0.10598104414842947 -0.12484622232070829 -0.2169329130216183
-0.420540422413611 0.5025690119478898 -0.21660019382986734
-0.5478520939451939 -0.3300474566411881 -0.21606784312306582
0.197032978162994 0.5463881295014897 -0.21606784312306582
-0.5241025980380111 0.38465333039135374 -0.2156020362546145
0.5137217592553817 0.16547789001733407 -0.2156020362546145
-0.4062002252491451 -0.3303868302167741 -0.2156020362546145
-0.5470868398041666 0.4445960199772045 -0.2156020362546145
-0.33451920257832085 -0.373866574194788 -0.21526931706286356
0.14896836372265213 -0.4527476401751028 -0.21473696635606201
0.522246024948041 -0.2424025671501534 -0.21473696635606201
0.17885985590955725 0.4632815297859379 -0.2142711594876107
-0.540525617342838 0.46321498594758753 -0.2142711594876107
-0.5317684482159529 0.3813261384738443 -0.2142711594876107
0.1277342249051066 -0.34999064499474 -0.2142711594876107
-0.10045790556536374 -0.17913934003062806 -0.2142711594876107
-0.14384448816968745 0.30098776243366027 -0.21340608958905824
0.5748356203961957 0.0555873953658309 -0.21340608958905824
-0.1087825397429725 -0.4072383091274081 -0.21340608958905824
0.38660971923884935 -0.24141106395873557 -0.21294028272060686
0.20978277759089034 -0.37787916764730445 -0.21294028272060686
-0.2596840019696975 -0.30699667103668243 -0.21294028272060686
-0.10193517877673801 -0.16254330674609077 -0.21294028272060686
0.1804369448784567 -0.48780293421798265 -0.21207521282205444
0.46966308388372097 -0.34757510366262806 -0.21207521282205444
0.18275267045304341 -0.14094317681761925 -0.2116094059536031
0.2547996842347937 0.5095960412776698 -0.2116094059536031
-0.5594639937373019 0.053797366114210765 -0.2116094059536031
-0.43402220406335945 0.4850413649264498 -0.2116094059536031
-0.27572772139592827 -0.3617555956150535 -0.2116094059536031
-0.32431803215923677 0.03982316006067097 -0.2116094059536031
0.49595455441588104 -0.31251315523591316 -0.21074433605505064
0.17629791813307502 -0.05834896465736381 -0.21074433605505064
-0.5161971900420086 0.011289162176109676 -0.2102785291865993
0.5280286845006724 -0.008115021086805604 -0.2102785291865993
-0.5605686214539151 0.20217016248362868 -0.2102785291865993
0.1015292613628019 0.5019434998673981 -0.2102785291865993
-0.10588122839090419 -0.12676268486519382 -0.2102785291865993
0.09279205538742198 -0.15475767765911858 -0.20941345928804686
0.6361823849712356 -0.08569848221929176 -0.20941345928804686
0.1851815205528252 -0.218766195768166 -0.20894765241959554
0.19472390697224257 -0.40055065337321405 -0.20894765241959554
0.1928806426499422 0.4572593124152457 -0.20894765241959554
0.372462499205599 0.4086490385004321 -0.20894765241959554
-0.10808382944029549 -0.12588430619897129 -0.20894765241959554
0.17167312136773688 0.0555873953658309 -0.20808258252104306
0.30313712841237134 0.6094251075706243 -0.20808258252104306
-0.5234837403413544 0.1340891614675496 -0.2076167756525917
-0.3726621307206496 -0.35908718769721093 -0.2076167756525917
0.27691885610239664 -0.3453658482294018 -0.2076167756525917
0.19425144571995603 0.45927559071725643 -0.2076167756525917
-0.1934462652759188 -0.40174178807968247 -0.20728405646084078
0.1804369448784567 -0.47903911070726274 -0.20675170575403926
0.09755659421329553 -0.3586080720610895 -0.20628589888558793
0.42920443016680576 -0.19702632377915905 -0.20628589888558793
0.1310880343579561 -0.41788532326343847 -0.20628589888558793
-0.2688138165913435 -0.37439227051775453 -0.20628589888558793
-0.3262744210067323 -0.10611413182512992 -0.20628589888558793
0.5573079733747559 -0.2424025671501534 -0.20542082898703548
0.09279205538742198 -0.26869403768231326 -0.20542082898703548
0.18351792459407046 -0.3244843917551123 -0.20495502211858413
0.5106940146104479 0.21129332272143955 -0.20495502211858413
0.4962207297692818 -0.06642738663307683 -0.20495502211858413
-0.2812774775143341 -0.3157205682443923 -0.20495502211858413
-0.15903644646503567 0.5639224309067646 -0.20408995222003168
-0.14384448816968745 0.29222393892294024 -0.20408995222003168
-0.5294660314090364 0.013258859791275238 -0.20362414535158035
0.2075735221576641 0.5478055132583487 -0.20362414535158035
-0.21757506106169758 0.5294127963383563 -0.20362414535158035
-0.524787999573018 -0.26136090669612233 -0.20362414535158035
-0.187550481198092 -0.12235082838257617 -0.20362414535158035
0.4170734884355662 0.5025690119478898 -0.2027590754530279
0.1942714088714612 -0.20656205581474119 -0.20229326858457655
0.48136814504951947 0.2656463298858745 -0.20229326858457655
0.019154643869102105 -0.4220642763118304 -0.20229326858457655
-0.5493293671565681 0.08143967656487962 -0.20229326858457655
-0.1063137633401805 -0.1722453983775484 -0.20229326858457655
-0.12118631121144788 -0.42645616964294286 -0.20142819868602407
-0.5109868074991888 0.018801961525846025 -0.20096239181757275
0.29931085770723553 0.4932262570435232 -0.20096239181757275
-0.4490677659143373 -0.2842187151694125 -0.20096239181757275
-0.28093810393874813 -0.3153811946688063 -0.20096239181757275
-0.10390487639190357 0.31775680969790815 -0.20096239181757275
-0.07989585951515521 -0.42219070960469574 -0.2000973219190203
0.04129377888821019 0.5130030858011995 -0.19963151505056898
0.43170647848877297 -0.20658201896624626 -0.19963151505056898
-0.1565077806077285 -0.3988271679599441 -0.19963151505056898
0.20427960215932967 -0.32840382383393846 -0.19963151505056898
-0.07060633968146873 -0.1129348752560244 -0.19963151505056898
-0.11755301763752748 -0.14599385414839863 -0.1987664451520165
0.05458923779057811 0.515252267537436 -0.19830063828356517
-0.5706832848831439 -0.273505157195032 -0.19830063828356517
-0.3290958797527804 0.5097690552573803 -0.19830063828356517
0.35292522826598344 -0.29744763023343024 -0.19830063828356517
-0.02787188669297687 0.33117870189314136 -0.19830063828356517
0.1882092651977589 -0.2624189537258904 -0.19743556838501272
-0.09710409611251425 0.5768518986982064 -0.19743556838501272
0.06715271447109396 -0.4351534493153127 -0.1969697615165614
-0.10015845829278788 -0.41939586839398774 -0.1969697615165614
0.1593824744244568 0.3551877187698898 -0.1969697615165614
-0.5407119400902184 0.39060900392369563 -0.1969697615165614
-0.003616657614332771 0.40616029894613503 -0.19610469161800892
0.6011270909283557 0.23858295082885253 -0.19610469161800892
-0.5334786248615528 0.007722412440539501 -0.1956388847495576
0.15688042610248965 0.574216762699539 -0.1956388847495576
0.1549772723256742 0.5700577728026521 -0.1956388847495576
-0.3223350257764011 0.5046119077852406 -0.1956388847495576
-0.5068411263699719 0.47529269260814694 -0.1956388847495576
-0.06957491018704079 -0.4344347758611307 -0.19530616555780664
-0.07301522662974556 -0.44398381666438286 -0.19477381485100512
0.19788473929387654 0.35658513937524366 -0.1943080079825538
0.47412817543701885 -0.1557092545475263 -0.1943080079825538
0.187157872551826 0.5615068895746528 -0.1943080079825538
-0.5698248693684264 0.12340887541234423 -0.1943080079825538
-0.32761195215757116 0.5038799255633886 -0.1943080079825538
-0.009000054136863096 0.2893226275708721 -0.1943080079825538
0.6537100319926756 -0.05834896465736381 -0.19344293808400131
0.19838381808150288 0.35299177210433347 -0.19297713121555
0.3621881305643298 -0.30603843976443973 -0.19297713121555
0.17612490415336446 -0.14492249835096058 -0.19297713121555
-0.537384748172709 0.40891521385383284 -0.19297713121555
0.519843792383599 -0.060045832535293615 -0.19297713121555
-0.07553723810321779 0.20638904183503062 -0.19297713121555
0.478426907394441 0.44997941649973483 -0.19211206131699754
0.20324151828106685 -0.21079424393381332 -0.19164625444854622
-0.5655926812493544 0.44042372131264773 -0.19164625444854622
0.5046851060074258 -0.09530741247705915 -0.19164625444854622
0.20091248393881006 -0.3508424061256224 -0.19164625444854622
-0.5697982518330864 0.1753596500123373 -0.19164625444854622
-0.22856810315714893 0.4827522568872033 -0.19164625444854622
0.09279205538742198 -0.2231847066346186 -0.19078118454999374
0.478426907394441 -0.2949855082144732 -0.19078118454999374
-0.5378305918896552 0.006045507714114754 -0.1903153776815424
-0.30041548542384866 -0.07147806396385623 -0.1903153776815424
0.052000682478755764 -0.377007443364917 -0.1903153776815424
-0.3393835571617197 -0.35914042276789104 -0.1903153776815424
0.4270084835012494 0.3648299209468322 -0.1903153776815424
-0.017963509162633697 -0.4549968219113392 -0.18945030778298996
0.09279205538742198 0.29993636978772736 -0.18945030778298996
-0.549668740732154 0.09991890047472728 -0.18898450091453864
0.15374621131619567 -0.4325449308519852 -0.18898450091453864
0.5147465343659745 0.243733443917157 -0.18898450091453864
0.32027216678754533 -0.34378210487666727 -0.18898450091453864
-0.23187533192315335 -0.3551145205477046 -0.18898450091453864
0.40830966492484616 0.5393145194848645 -0.18811943101598616
-0.505130949724372 0.12090017270654202 -0.1876536241475348
0.14048402433300292 0.5185994226064504 -0.1876536241475348
0.1386607231622077 -0.3674317850263247 -0.1876536241475348
0.43812795888956607 -0.2076267572283442 -0.1876536241475348
-0.25654978718340365 -0.33042010213594925 -0.1876536241475348
0.478426907394441 0.4779611005259896 -0.18678855424898236
-0.5578203609300523 0.06735900036997948 -0.18632274738053103
0.12243733537243146 0.5233706158161592 -0.18632274738053103
0.05221362276147635 -0.37549024385053265 -0.18632274738053103
0.1907778573580762 0.006857342541987066 -0.18632274738053103
-0.26089509982767095 -0.3346589446388563 -0.18632274738053103
0.3732543708819662 0.5376243059907697 -0.18545767748197858
-0.5426417114023739 0.024464842169447158 -0.18499187061352723
0.19355273541727913 0.5050377883506817 -0.18499187061352723
-0.2456432520778075 -0.32773838545043654 -0.18499187061352723
0.4009099901003051 -0.2688005078236736 -0.18499187061352723
-0.2150064689013802 0.49745844516259524 -0.18499187061352723
0.3294285989445314 0.5639157765229296 -0.18412680071497478
-0.4993283270202355 0.09886085344495922 -0.18366099384652346
0.0053068711084276205 -0.4441435218764233 -0.18366099384652346
0.5824016548166123 0.05846874356639416 -0.18366099384652346
0.2546865597095984 0.5390949248183089 -0.18366099384652346
0.1721788545391983 -0.21104045613570896 -0.18366099384652346
0.10155587889814191 0.6032631481393969 -0.182795923947971
-0.5385093390408272 0.016991969122720923 -0.18233011707951965
-0.18351792459407046 -0.3427972560690845 -0.18233011707951965
0.5278290529856219 -0.08604451017871279 -0.18233011707951965
0.1749670413660711 -0.4289648723487451 -0.18233011707951965
0.04397549557372287 -0.4702752871965428 -0.18199739788776872
-0.14384448816968745 0.37110500490325515 -0.18146504718096718
-0.5013978403929265 0.03041386131795415 -0.18099924031251585
0.4691174244092495 -0.1848421469772393 -0.18099924031251585
0.1302030013078986 0.5958035838603405 -0.18099924031251585
-0.010730193933968062 0.5917444097209789 -0.18099924031251585
0.061177077787246854 0.6077415484603645 -0.18066652112076492
0.20276905702878031 0.3798688284139752 -0.1801341704139634
-0.538429486434807 0.013438528154820757 -0.17966836354551208
0.511805296710896 -0.11252895784208819 -0.17966836354551208
0.021190885322617894 0.6085001482175566 -0.17966836354551208
0.5255066730272001 0.22149449314052375 -0.17966836354551208
0.08613767155240303 -0.4615114636858228 -0.1788032936469596
0.17167312136773688 0.02053210132295099 -0.1788032936469596
-0.10974742539905022 0.2761802194967095 -0.17833748677850828
0.2161976036078486 0.491808873286664 -0.17833748677850828
0.16354146432134364 0.2931422438921729 -0.17833748677850828
0.22589969523930625 -0.34416805913909837 -0.17833748677850828
0.5748356203961957 -0.2161110966179934 -0.17747241687995582
-0.5014444210797715 0.06716602323876386 -0.1770066100115045
-0.06979450485359642 -0.11751974571835241 -0.1770066100115045
0.40680577417813185 -0.28043902515112173 -0.1770066100115045
0.43419521804307 0.38532542315869067 -0.1770066100115045
-0.10134959299925629 -0.4194557578485029 -0.1770066100115045
0.5573079733747559 0.3798688284139752 -0.17614154011295202
-0.5172951633747868 0.12433383476541185 -0.1756757332445007
-0.09147448738808818 -0.17574560427476835 -0.1756757332445007
0.2168830051428556 -0.21245118550873301 -0.1756757332445007
0.07932358250534359 0.5431208270384954 -0.1756757332445007
0.048161103005949835 0.5961562662035965 -0.1756757332445007
0.6800081569086706 -0.014529847103763972 -0.17481066334594822
-0.5158578164664227 0.01677902884000034 -0.1743448564774969
0.3794961829192141 -0.3100843051361312 -0.1743448564774969
0.0731083880034359 0.6060446805824345 -0.1743448564774969
-0.06909579455091941 0.5185328787681003 -0.1743448564774969
0.15112438408519818 -0.18981297170199848 -0.17347978657894444
0.3995458414141263 -0.40184825822104275 -0.17347978657894444
-0.2991578068790301 -0.07794612505149462 -0.1730139797104931
0.2616736627363682 0.5503142159641508 -0.1730139797104931
0.18407689283621206 0.35687793226398457 -0.1730139797104931
0.11216962111499724 -0.39466817806305726 -0.1730139797104931
0.17167312136773688 0.06435121887655093 -0.17214890981194064
0.10590784592624439 -0.4644859732600763 -0.17214890981194064
-0.10353223089714253 0.31183440808474117 -0.17168310294348932
-0.020738387221836616 -0.4473708980364075 -0.17168310294348932
0.18900113687412617 -0.14539495960324691 -0.17168310294348932
-0.0683105772583871 -0.4286454619246642 -0.17168310294348932
0.3557267238605264 0.5831336370384644 -0.17081803304493687
-0.512131361518812 0.04333667472556103 -0.17035222617648552
-0.3076687638040193 0.1063004545725104 -0.17035222617648552
0.2224660331804365 -0.2133495273264606 -0.17035222617648552
0.06489022396718748 0.6049999423203367 -0.17035222617648552
0.066500584855262 -0.2073472731072735 -0.16948715627793307
0.3907820179034063 -0.3809401842114132 -0.16948715627793307
-0.10363204665466781 -0.13847440041482714 -0.16902134940948174
0.2268712352792191 -0.33088590900440057 -0.16902134940948174
-0.06242810194823043 0.537025411445618 -0.16902134940948174
-0.045572547694127385 0.5722271019328683 -0.16902134940948174
0.46966308388372097 0.48672492403670964 -0.16815627951092926
-0.5298453312876324 0.10999363760094596 -0.16769047264247794
0.22686458089538405 -0.3518804900038853 -0.16769047264247794
0.5986583145255637 0.08826707437960904 -0.16769047264247794
0.15195618206457553 -0.38987702170184363 -0.16769047264247794
0.15191625576156542 0.3360430564765402 -0.16682540274392546
-0.5272235040566351 0.11432564147754329 -0.16635959587547414
-0.3076687638040193 0.20594985250191936 -0.16635959587547414
0.1848554557449094 -0.2111602350447393 -0.16635959587547414
0.09952629182846118 0.6107692931052981 -0.16635959587547414
0.09279205538742198 -0.26869403768231326 -0.16549452597692169
0.434601135457006 -0.373866574194788 -0.16549452597692169
-0.10012518637361281 -0.18291903004891882 -0.16502871910847036
0.3198396318382691 0.5230645141597481 -0.16502871910847036
0.3458449638655231 -0.3491255750961875 -0.16502871910847036
0.1453816508355768 0.6101903617116515 -0.1646959999167194
0.5397736719694808 -0.2161110966179934 -0.16416364920991788
-0.10952783073249459 -0.13866737754604266 -0.16369784234146656
0.3709852259942249 0.4811019696961186 -0.16369784234146656
0.018149831910014267 0.5680814208036515 -0.16369784234146656
0.14460308792687965 0.626174191683367 -0.1633651231497156
0.5134822014373209 -0.2582400006774985 -0.1628327724429141
-0.33070624064085496 0.16261650496827584 -0.16236696557446278
0.155942157981752 -0.21820722752602437 -0.16236696557446278
0.1170872107690762 0.5459622489360484 -0.16236696557446278
0.17167312136773688 -0.04958514114664379 -0.16150189567591028
0.1530275378620136 -0.48780293421798265 -0.16150189567591028
0.47823393026322547 -0.2036141637758278 -0.16103608880745895
-0.007589324763839054 0.5939869370733803 -0.16103608880745895
0.006804107471306944 0.5966686537588929 -0.16103608880745895
0.2593180108587716 0.5989777249496445 -0.1601710189089065
-0.3336341695282633 0.2580403691624478 -0.15970521204045518
0.2783295854754208 -0.4094009838737893 -0.15970521204045518
0.23194187576150357 0.5108204479033132 -0.15970521204045518
0.15407893050794672 -0.48780293421798265 -0.15937249284870422
0.487190730905161 -0.3300474566411881 -0.15884014214190273
0.04148010163559076 -0.4630685895032173 -0.15837433527345138
0.15135063313558894 0.6289224522072299 -0.15837433527345138
0.043802481594012406 0.5484443341065106 -0.15837433527345138
0.30313712841237134 0.5814500779282045 -0.15750926537489893
0.2415574604031059 -0.21408150954831268 -0.1570434585064476
0.23980070307066104 0.35482172765896375 -0.1570434585064476
0.06092421120151616 -0.42201104124115024 -0.1570434585064476
0.3294285989445314 -0.4247659561488481 -0.15617838860789515
-0.14384448816968745 -0.2161110966179934 -0.15617838860789515
0.597014681718314 0.016705830617815064 -0.1557125817394438
0.22102868627207237 0.5815698568372348 -0.1557125817394438
-0.3076687638040193 0.18940039990422722 -0.1557125817394438
0.07526440836598203 0.30098776243366027 -0.15484751184089132
0.21501977766905028 0.5217402917765794 -0.15438170497244
0.14803009560191432 -0.47769492517258894 -0.15438170497244
-0.06978119608592633 -0.11575633400207239 -0.15438170497244
0.3995458414141263 0.5551519530122095 -0.15351663507388755
0.21487338122467994 -0.4448888128659455 -0.15305082820543622
0.06768506517789545 0.5532554536192292 -0.15305082820543622
-0.3227941782610174 -0.13080189585305033 -0.15305082820543622
0.6537100319926756 0.1607599318783056 -0.15218575830688374
0.16241687345322536 0.6252625410979694 -0.15171995143843242
0.1083899310967064 -0.4741215210531838 -0.15171995143843242
-0.14910810578318745 -0.07147806396385623 -0.15171995143843242
0.6800081569086706 -0.014529847103763972 -0.15085488153987997
0.5115125038221554 0.31206731151896683 -0.15038907467142865
0.08931846702554205 -0.4140657069421376 -0.15038907467142865
-0.1487487690560964 -0.07495165232573615 -0.15038907467142865
0.6011270909283557 -0.0846404351895237 -0.14952400477287617
0.5529693151143235 -0.08933177579321215 -0.14905819790442484
0.23775115284947507 -0.3761024471633544 -0.14905819790442484
-0.10720545077407304 0.28377287145246627 -0.14905819790442484
0.6975358039301104 0.06435121887655093 -0.14819312800587237
0.31084290489332345 0.5415304293019257 -0.14772732113742104
0.2346169380631811 -0.37639524005209524 -0.14772732113742104
-0.07451911737645985 0.2654067720678138 -0.14772732113742104
0.6361823849712356 0.2484048213693405 -0.14686225123886856
0.18629945703710843 -0.14691881350146624 -0.14639644437041724
0.0966915243147431 -0.47164609026655663 -0.14639644437041724
-0.10427752188666461 0.324777184643853 -0.14639644437041724
0.3644905473712464 0.5814500779282045 -0.1455313744718648
0.5371917710414934 0.27956730086873427 -0.14506556760341346
0.5563497421025131 -0.07598308182016411 -0.14506556760341346
-0.10410450790695415 -0.13855425302084737 -0.14506556760341346
0.066500584855262 0.3535773578818151 -0.14420049770486099
0.25315605142754394 0.4883219761571141 -0.14373469083640966
0.5369655219911028 -0.10717217885489798 -0.14373469083640966
-0.047888273268713984 -0.18198741631201618 -0.14373469083640966
0.18419001736140736 0.029295924833671015 -0.1428696209378572
0.43964515840395046 -0.2881248384805687 -0.1424038140694059
0.12765437229908638 -0.4437775307654973 -0.1424038140694059
0.434601135457006 -0.382630397705508 -0.1415387441708534
0.066500584855262 -0.1372300306376786 -0.1415387441708534
0.18779669339998767 0.35933339989910656 -0.14107293730240206
0.452122128094611 -0.26192652932209903 -0.14107293730240206
0.5134822014373209 -0.2511663906608733 -0.1402078674038496
0.3256555633100756 -0.3909883038022918 -0.13974206053539828
0.27437688147741957 0.3894045604495573 -0.13974206053539828
-0.15000644760091494 0.21891259221253634 -0.13974206053539828
0.6975358039301104 0.1169341599408707 -0.13887699063684583
0.21141310163047 0.5367592360922173 -0.13841118376839448
0.27739797173851805 -0.34584496386552316 -0.13841118376839448
-0.07297530032673545 -0.11675449157732527 -0.13841118376839448
0.3557267238605264 0.5551519530122095 -0.13754611386984203
0.5919174237006894 0.1757256411232632 -0.1370803070013907
0.15588226852723674 0.6196728586765534 -0.1370803070013907
-0.33451920257832085 0.25012165239877526 -0.1370803070013907
0.5397736719694808 0.3535773578818151 -0.13621523710283825
0.18562736426977153 -0.22017027075735499 -0.1357494302343869
0.3108961399640036 0.1253785730275098 -0.1357494302343869
0.25189837288272543 0.5240094366643208 -0.1357494302343869
-0.0777531479202791 -0.09033658775229998 -0.1357494302343869
0.16290929785701685 0.3711715487416053 -0.13488436033583442
0.14686557843078613 0.5536946429523405 -0.1344185534673831
0.3169782467892109 0.5444250862701591 -0.1344185534673831
0.29799328970790173 0.46712776364257885 -0.1344185534673831
0.45213543686228114 -0.36510275068406806 -0.13355348356883065
-0.11755301763752748 -0.17228532468055852 -0.13355348356883065
0.2374051248900541 0.5236367911695599 -0.13308767670037933
0.2777373453141041 -0.0707793536611792 -0.13308767670037933
-0.07318158622562108 -0.1170872107690762 -0.13308767670037933
0.33819907683908634 0.5989777249496445 -0.13222260680182685
0.1852081380881654 -0.47306347402341575 -0.13175679993337552
0.1867785726732298 0.6079944150460952 -0.13175679993337552
0.31012423143914136 0.3286899623388443 -0.13175679993337552
-0.00880042262181252 0.2756478687899081 -0.13175679993337552
0.07526440836598203 -0.2073472731072735 -0.13089173003482305
0.19260781291270646 -0.46216359330165463 -0.13042592316637172
0.3034565388364523 0.48926689866168693 -0.13042592316637172
0.30319036348305156 -0.02324043554380378 -0.13042592316637172
-0.15036578432800599 -0.0727290881248398 -0.13042592316637172
0.1574460487284663 -0.15475767765911858 -0.12956085326781927
0.6225941331801268 0.04474074971475002 -0.12909504639936795
0.5693723712676452 0.2286413013793342 -0.12909504639936795
0.30008276623209784 0.46560390974435945 -0.12909504639936795
-0.3342663359925901 0.2644285776440661 -0.12909504639936795
-0.11755301763752748 -0.18981297170199848 -0.12822997650081547
0.23939478565672484 0.5929954338819625 -0.12776416963236414
0.33340126609403764 0.3986075732933884 -0.12776416963236414
0.3065974080065813 -0.24323436512953076 -0.12776416963236414
-0.03231036071093453 -0.1928274075792621 -0.12776416963236414
-0.3078085058645547 0.1592826586669315 -0.12776416963236414
0.5134822014373209 -0.2511663906608733 -0.1268990997338117
0.3916803597211338 0.4959079737290358 -0.12643329286536037
0.3371942648799986 -0.3011873939487109 -0.12643329286536037
0.1627762101803164 -0.2186397624753006 -0.12643329286536037
-0.330732858176195 -0.11566317262838215 -0.12643329286536037
-0.1055418548153183 0.2635901252808537 -0.12643329286536037
0.6361823849712356 0.20352765678597262 -0.1255682229668079
0.42777373764227666 -0.31785662545543336 -0.12510241609835657
0.3438752662503576 -0.014376796275558466 -0.12510241609835657
0.1819541443928411 0.12789393011714698 -0.12510241609835657
-0.1055418548153183 0.2786689590510066 -0.12510241609835657
0.17167312136773688 0.4236879459675749 -0.12423734619980407
0.45213543686228114 0.5113328354586099 -0.12423734619980407
0.19239487262998578 -0.4691640050960946 -0.12377153933135275
0.16823280492503193 0.5583793291721939 -0.12377153933135275
-0.3054062733001129 -0.07318824060945613 -0.12377153933135275
-0.29129232518603765 0.2811843161406438 -0.12377153933135275
-0.003616657614332771 0.40616029894613503 -0.12290646943280031
0.1721788545391983 -0.40973370306554024 -0.12244066256434899
0.31035713487336697 0.5563031614156678 -0.12244066256434899
0.33286891538723623 -0.229985486914008 -0.12244066256434899
-0.09801574669791185 0.32691989623872914 -0.12244066256434899
-0.10540876713861785 0.11350049788200096 -0.12244066256434899
0.3123601044077078 0.3198595949897741 -0.1215755926657965
0.33697467021344285 -0.30436153503801494 -0.12110978579734517
0.6102302880146616 0.0013541671104263004 -0.12110978579734517
0.3635655880181787 0.2570754835063702 -0.12110978579734517
-0.09982573910103695 0.32948848839904643 -0.12110978579734517
0.3214832646455187 0.43379595501296875 -0.12024471589879274
0.16517178836092333 0.5558506633148868 -0.11977890903034141
0.17226536152905356 -0.412794719629649 -0.11977890903034141
0.3382589662936016 -0.31805625697048395 -0.11977890903034141
0.066500584855262 -0.2073472731072735 -0.11891383913178893
0.29437330490165153 -0.09341091308407877 -0.11891383913178893
0.16555774262335438 0.6265401827942931 -0.1184480322633376
0.37668803294083614 -0.2472136866628721 -0.1184480322633376
0.2770785613144371 0.36724546227894406 -0.1184480322633376
0.3206647754338114 0.3798688284139752 -0.11758296236478512
0.00515382028022221 -0.2073472731072735 -0.11758296236478512
0.3858977001685023 -0.05574710057787136 -0.11711715549633378
0.3832559097859998 -0.08752843777392201 -0.11711715549633378
-0.0979957835464068 0.3272725785819851 -0.11711715549633378
0.6449462084819556 0.23963434347478543 -0.11625208559778136
0.15875030796013 0.37201665548865276 -0.11625208559778136
0.39245226824599605 0.10888900988433284 -0.11578627872933002
0.36564841015853955 0.2736848255585774 -0.11578627872933002
-0.07630914662807999 0.2659324683907804 -0.11578627872933002
0.45213543686228114 0.4675137179050099 -0.11492120883077754
0.226125944289697 -0.4574522895464612 -0.11445540196232622
0.18044359926229175 0.5630307434728721 -0.11445540196232622
0.3676181077737053 -0.30977820347972035 -0.11445540196232622
-0.03282940265006603 0.33988263594934615 -0.11445540196232622
0.31190095192309136 -0.014529847103763972 -0.11412268277057529
0.3931043978618278 0.5000869267774276 -0.11312452519532244
0.36972754744940617 -0.30449462271471534 -0.11312452519532244
0.5969414834961287 0.19112388531749724 -0.11312452519532244
-0.004149008321134277 -0.12585103427979621 -0.11312452519532244
0.066500584855262 -0.1443036406543038 -0.11279180600357147
0.46530446247178353 0.42292269182654785 -0.11179364842831864
0.34940505921725823 0.4753858539818373 -0.11179364842831864
0.5007523651609296 -0.22042979172692073 -0.11179364842831864
-0.07078600804501416 -0.12486618547221336 -0.11179364842831864
0.46089926037300116 -0.3563389271733481 -0.11146092923656771
0.20867149549044214 -0.4692771296212899 -0.11046277166131482
0.46312182457389733 -0.2772715384456527 -0.11046277166131482
0.3918933000038545 0.38715537871332095 -0.11046277166131482
0.18350461582640054 0.12036116761590547 -0.11046277166131482
0.49595455441588104 0.43140037683236204 -0.10959770176276239
-0.14384448816968745 0.1344684613461457 -0.10959770176276239
0.3883664765712944 -0.3675182920161799 -0.10913189489431106
0.41919623687893715 -0.25024143130780574 -0.10913189489431106
0.19349284596276403 0.19460412806321212 -0.10913189489431106
0.5923632674176358 -0.10048452310070385 -0.10826682499575857
0.3206647754338114 0.20457904943190552 -0.10826682499575857
0.5873325532383615 -0.08547888755273612 -0.10780101812730725
0.4050223993103468 -0.11366020309404143 -0.10780101812730725
0.19327990568004336 0.3581223020411332 -0.10780101812730725
0.09279205538742198 0.3097515859443803 -0.10693594822875481
0.3206647754338114 0.3623411813925351 -0.10693594822875481
0.22077581968634175 -0.46472553107813697 -0.10647014136030349
0.41598216948662314 0.40785716682406487 -0.10647014136030349
0.18293233881658882 0.5610277739385314 -0.10647014136030349
0.18848874931882972 0.2203499391209005 -0.1061374221685525
0.18160811643342017 -0.0846404351895237 -0.105605071461751
0.4459668230472186 0.4508910670851324 -0.10513926459329967
0.3024849987965396 -0.3655153224818392 -0.10513926459329967
0.4449420479366255 0.18415009105839736 -0.10513926459329967
-0.10407789037161404 -0.1385209811016723 -0.10513926459329967
0.3206647754338114 -0.4544311992853627 -0.10427419469474719
0.21412809023515786 -0.4786198845256565 -0.10380838782629585
0.4925541642761862 -0.2394280575758999 -0.10380838782629585
0.4255511734413803 -0.25943778976780185 -0.10380838782629585
-0.10473667437128094 0.33226336645824933 -0.10380838782629585
0.3294285989445314 -0.4213456028576483 -0.10294331792774342
0.34696290034980637 -0.2073472731072735 -0.10294331792774342
0.3349583919114321 -0.4034053840384372 -0.10247751105929209
0.4429923134729651 0.38229767851375696 -0.10247751105929209
-0.013857754336426968 0.3346389814873511 -0.10247751105929209
0.34696290034980637 -0.14599385414839863 -0.10161244116073961
0.3953668883657343 0.43842740616214193 -0.10114663429228828
0.6109090351658335 0.16765387353138525 -0.10114663429228828
0.49828358875813766 0.3841143253007171 -0.10114663429228828
-0.07909733345495291 -0.11354042418501109 -0.10114663429228828
0.34696290034980637 -0.23363874363943338 -0.10028156439373584
0.32409178310884607 -0.3516941672565048 -0.09981575752528452
0.41453816819442396 -0.27774399969793906 -0.09981575752528452
0.6357698131734645 0.11069900228745794 -0.09981575752528452
-0.0468901156934611 -0.18098260435292832 -0.09981575752528452
0.00515382028022221 -0.18981297170199848 -0.09895068762673204
0.48574672961296184 -0.26032282281785946 -0.0984848807582807
0.41611525716332337 0.4219910780896451 -0.0984848807582807
0.6384249123236371 0.050862782842967476 -0.0984848807582807
0.6449462084819556 0.23192856699383355 -0.09761981085972822
0.3099445630755959 -0.4352199931536629 -0.09761981085972822
0.5503075615803158 0.3091260738638886 -0.0971540039912769
0.1926743567510566 -0.4764239378601003 -0.0971540039912769
0.19186252192318437 -0.021922867544469975 -0.0971540039912769
0.1842964875027678 0.1483694691775003 -0.09628893409272446
0.49595455441588104 -0.2774578611930333 -0.09628893409272446
0.4086091121974221 0.4252317630172993 -0.09582312722427312
0.43402220406335945 0.40206119850376326 -0.09582312722427312
0.1686986117934834 0.29216404946842517 -0.09582312722427312
-0.14384448816968745 0.22210669645334538 -0.09495805732572064
0.6624805098872305 0.14323228485686573 -0.09495805732572064
0.5807247500901875 0.26040932980771453 -0.09449225045726932
0.4947966916285877 -0.002498721130049637 -0.09449225045726932
0.19982116498986705 -0.019141335101432098 -0.09449225045726932
0.31190095192309136 0.2308705199640654 -0.09362718055871688
0.31190095192309136 0.2746962919015004 -0.09362718055871688
0.4796446596362494 0.4264628240267778 -0.09316137369026556
0.46474549422964195 -0.2144009199723935 -0.09316137369026556
-0.05094263544898761 -0.18503512410845485 -0.09316137369026556
0.3876877294201224 -0.382630397705508 -0.09229630379171307
0.5797199381310998 0.2591849231820711 -0.09183049692326174
0.5853761643908658 -0.09711740488018425 -0.09183049692326174
0.1900924558230692 -0.21247114866023806 -0.09183049692326174
-0.14384448816968745 0.1607599318783056 -0.09096542702470926
0.6624805098872305 0.011761623428396008 -0.09096542702470926
0.2791680378386332 -0.37865773055600166 -0.09049962015625793
0.5144803590125738 0.2582533094451685 -0.09049962015625793
0.2675029029758449 0.361589236019178 -0.09049962015625793
-0.14384448816968745 -0.1284662071269587 -0.08963455025770549
0.6537100319926756 0.21334287294262555 -0.08963455025770549
0.34128671093853513 -0.4098268644392305 -0.08916874338925417
0.49345916047774896 -0.17553266399204778 -0.08916874338925417
0.18653236047133406 0.3648698472498423 -0.08916874338925417
-0.14384448816968745 -0.1021747365947987 -0.08830367349070169
0.6011270909283557 0.2549128087599889 -0.08830367349070169
0.19391872652820522 -0.09170739082231391 -0.08783786662225035
0.4817008642412703 -0.2808515969488929 -0.08783786662225035
0.5275894951675612 -0.09785604148587139 -0.08783786662225035
0.34696290034980637 -0.04082131763592386 -0.08697279672369791
0.5704237639135781 0.3188747461821912 -0.08697279672369791
0.5820888987763665 0.2733587607506616 -0.08650698985524659
0.5341507176288898 0.02813140766254262 -0.08650698985524659
0.18098260435292823 0.29863876493989855 -0.08650698985524659
0.3206647754338114 0.08187886589799079 -0.08564191995669411
0.531009848458761 0.4236879459675749 -0.08564191995669411
0.22042979172692082 0.6270392615819195 -0.08517611308824277
0.5165631811529346 0.12105322353474743 -0.08517611308824277
-0.03340167965987765 -0.19059153461069572 -0.08517611308824277
0.29437330490165153 0.20457904943190552 -0.0843110431896903
0.4258373119462862 0.5376243059907697 -0.0843110431896903
0.5023693804328393 -0.15679391911263435 -0.08384523632123897
0.5174149422838172 0.2989781385154846 -0.08384523632123897
-0.1024276031805294 0.33429295352793015 -0.08384523632123897
0.29437330490165153 0.09064268940871081 -0.08298016642268653
0.28407231872504213 0.5989777249496445 -0.08298016642268653
0.2920376161755599 -0.3710850417517501 -0.0825143595542352
0.5193513679798076 -0.1430126901903101 -0.0825143595542352
-0.034612777517851114 0.3397628570403158 -0.0825143595542352
0.5601028145854637 0.34481353437109524 -0.08164928965568272
0.17167312136773688 -0.26869403768231326 -0.08164928965568272
0.4621436301501496 0.45395208364924117 -0.08118348278723139
0.5144737046287388 -0.1566209051329239 -0.08118348278723139
0.19614129072910155 -0.21650370526425952 -0.08118348278723139
0.5134822014373209 0.397396475435415 -0.08031841288867896
-0.11648831622392447 0.02053210132295099 -0.08031841288867896
0.556635880607419 -0.17459439587131007 -0.07985260602022762
0.5399999210198716 0.25729507817292574 -0.07985260602022762
0.5578735960007324 -0.06445768901791127 -0.07985260602022762
0.6151545320525756 0.2484048213693405 -0.07951988682847665
0.5397736719694808 -0.2161110966179934 -0.07898753612167514
0.2099824091059409 -0.4790191475557577 -0.07852172925322382
0.38422079544207743 0.45302046991233863 -0.07852172925322382
0.5953643945272293 -0.09169408205464381 -0.07852172925322382
-0.105109319866042 -0.013159044033750044 -0.07852172925322382
0.31190095192309136 -0.03205749412520393 -0.07765665935467132
0.34696290034980637 0.29222393892294024 -0.07765665935467132
0.39980536238369196 -0.37175048013525197 -0.07719085248622
0.5576872732533519 -0.1462666838856344 -0.07719085248622
0.19304034786198268 0.05965987827286247 -0.07719085248622
0.34696290034980637 -0.07587661167880377 -0.07632578258766756
0.5748356203961957 0.3535773578818151 -0.07632578258766756
0.5999426106057223 0.255990818941262 -0.07585997571921624
0.5470202959658165 -0.18212715837255156 -0.07585997571921624
0.2839259222806718 -0.2078197343595598 -0.07585997571921624
0.18160811643342017 0.029295924833671015 -0.07552725652746525
0.3995458414141263 -0.4089218682376679 -0.07499490582066375
0.40252700537221464 -0.3632328688264277 -0.07452909895221242
0.562638134826606 0.2809780302417582 -0.07452909895221242
0.5865140640266541 -0.026853765966219027 -0.07452909895221242
-0.10339914322044218 0.3294019814091913 -0.07452909895221242
0.3206647754338114 -0.09341091308407877 -0.07366402905365999
0.5397736719694808 0.37110500490325515 -0.07366402905365999
0.18848874931882972 0.039284154970034416 -0.07319822218520866
0.6181955854651793 -0.05463581847742318 -0.07319822218520866
0.31884812864685125 0.5099420692370908 -0.07319822218520866
-0.03867195165721268 0.3562258026481526 -0.07233315228665617
0.6206843250194766 -0.11093856010551872 -0.07233315228665617
-0.005739406057703838 0.2746497112146552 -0.07186734541820484
0.2564300082743734 -0.4620571231602943 -0.07186734541820484
0.5944593983256667 -0.08609109086555786 -0.07186734541820484
0.17659071102181573 0.10817033643015077 -0.07100227551965237
0.531009848458761 -0.23092375503474563 -0.07100227551965237
-0.10506273917919692 0.3279779432684973 -0.07053646865120103
0.2990646455053398 -0.37278190962967994 -0.07053646865120103
0.6128654240133292 0.06517636247209324 -0.07053646865120103
0.18739743036988668 0.027785379703121685 -0.0696713987526486
0.5565161016983886 -0.2073472731072735 -0.0696713987526486
0.34696290034980637 0.3097515859443803 -0.0696713987526486
0.28630153730977353 -0.44335165020005607 -0.06920559188419727
0.6072158521373981 0.2352025238406628 -0.06920559188419727
0.5437529935028222 0.3336208607605933 -0.06920559188419727
0.39693066856696385 -0.382630397705508 -0.06834052198564479
0.5660717968854757 0.37110500490325515 -0.06834052198564479
0.5246216399771427 -0.15015284404528548 -0.06787471511719345
0.5955573716584448 -0.07497826986107617 -0.06787471511719345
0.22623241443105727 0.6215094686150188 -0.06787471511719345
0.4174128620111521 -0.36510275068406806 -0.06700964521864103
0.3206647754338114 0.2746962919015004 -0.06700964521864103
0.2618000960292336 -0.4546241764165782 -0.06654383835018969
0.5866205341680144 0.18264620031168308 -0.06654383835018969
0.22456881847230253 0.5569153647284897 -0.06654383835018969
0.3868692402084152 -0.39139422121622797 -0.06567876845163721
0.29465944340655736 0.2669838610367133 -0.06567876845163721
0.23679292157723228 -0.4763573940217501 -0.06521296158318589
0.6182155486166845 0.03864533412187257 -0.06521296158318589
0.3206647754338114 0.29222393892294024 -0.0643478916846334
0.3417924441099967 -0.44398381666438286 -0.0643478916846334
-0.07544407672952745 -0.12314935444277848 -0.06388208481618207
0.546800701299261 -0.20255611674605983 -0.06388208481618207
0.6043012320176597 -0.07929031058616853 -0.06388208481618207
-0.14384448816968745 -0.03205749412520393 -0.06301701491762964
0.6361823849712356 -0.04082131763592386 -0.06301701491762964
0.1917161254788138 -0.21898579043472163 -0.06255120804917831
0.5277824722987767 -0.1540789305079466 -0.06255120804917831
0.2212882072416382 0.5559371703047418 -0.06255120804917831
0.34696290034980637 -0.1985767952127184 -0.061686138150625826
0.33819907683908634 0.5989777249496445 -0.061686138150625826
0.19441780531583155 0.11014668842915137 -0.061220331282174495
0.5886900475407052 0.1861464062089029 -0.061220331282174495
0.18848209493499465 0.18705140241046567 -0.06035526138362206
0.5142541099621832 -0.2590851074245459 -0.06035526138362206
-0.03864533412187257 -0.1956754838606502 -0.05988945451517073
0.22470856053283803 -0.40524199397690247 -0.05988945451517073
0.4965002138903526 0.41709345158707123 -0.05988945451517073
0.31190095192309136 -0.17228532468055852 -0.05902438461661825
0.6049134353304816 0.247533097086953 -0.05902438461661825
0.17342987870018176 -0.14884193042978675 -0.05855857774816692
0.6467029658144007 0.14435022134114886 -0.05855857774816692
0.5313758395696869 0.30878670028830246 -0.05855857774816692
0.3097915122473903 -0.44354462733127165 -0.05769350784961443
-0.10956775703550471 -0.18612644305739795 -0.05722770098116311
0.22943317305570135 -0.47690970788005665 -0.05722770098116311
0.4465723719762052 0.4053551185020977 -0.05722770098116311
0.31190095192309136 -0.14599385414839863 -0.05636263108261067
0.6011270909283557 0.3097515859443803 -0.05636263108261067
0.19214866042809023 0.19994094389889727 -0.05589682421415934
0.5498484090956995 -0.21094729476201873 -0.05589682421415934
0.23195518452917366 0.6256751128957406 -0.05589682421415934
0.3206647754338114 0.17828757889974564 -0.055031754315606855
0.3697674737524163 0.5639157765229296 -0.055031754315606855
0.21981758841409899 0.35944652442430186 -0.05456594744715553
0.2324409545491299 -0.481221748605149 -0.05456594744715553
0.5476524624301432 0.35250600208437705 -0.05456594744715553
0.3206647754338114 -0.2073472731072735 -0.053700877548603095
-0.03348818664973293 -0.19398527036655533 -0.053235070680151764
0.2066152908854213 0.23731196351636388 -0.053235070680151764
0.2789284800205725 -0.45921570126274125 -0.053235070680151764
0.3718170239736023 0.536666074718527 -0.053235070680151764
0.3123601044077078 -0.4578848244957374 -0.052370000781599285
-0.006511314582566036 -0.12966399621726205 -0.051904193913147954
0.25795386217259264 0.04072815626223352 -0.051904193913147954
0.6309986199637558 0.06092421120151616 -0.051904193913147954
0.1804369448784567 0.14323228485686573 -0.05103912401459547
0.5485374954802008 -0.2424025671501534 -0.05103912401459547
-0.08292360416008883 -0.18481552944189922 -0.05057331714614414
0.25824665506133354 0.23300657717510648 -0.05057331714614414
0.6707053283073141 0.0678048440869257 -0.05057331714614414
-0.14384448816968745 0.3360430564765402 -0.04970824724759171
0.5397736719694808 -0.11970238361623865 -0.04970824724759171
0.19415162996243085 0.10064422831274432 -0.04924244037914038
0.3805941562519922 -0.3842474129774176 -0.04924244037914038
0.3502102396612956 -0.42645616964294286 -0.0489097211873894
0.344367690654149 -0.43107431202444607 -0.04837737048058789
-0.03797324135453566 -0.19771172531416598 -0.04791156361213656
0.5473397063898974 -0.2137421359727267 -0.04791156361213656
0.525446783572685 0.29502543451748336 -0.04791156361213656
0.29682877253677353 -0.06711278816808375 -0.04704649371358413
0.09279205538742198 0.41492412245685506 -0.04704649371358413
0.45900941536385564 -0.24779927244035374 -0.0465806868451328
0.36435745969454597 0.5486572743892311 -0.0465806868451328
-0.11782584737476325 -0.0846404351895237 -0.045715616946580315
0.478426907394441 0.4779611005259896 -0.045715616946580315
0.19341964774057868 0.1935593898011141 -0.04524981007812899
0.6543488528408374 0.024564657926972447 -0.04524981007812899
0.3206647754338114 0.17828757889974564 -0.044384740179576505
0.6800081569086706 0.09064268940871081 -0.044384740179576505
0.2444654261390093 0.5501744739036155 -0.043918933311125175
-0.11320770499326006 0.325103249451769 -0.043918933311125175
0.3206647754338114 -0.23194853014533853 -0.04305386341257274
0.5397736719694808 -0.2511663906608733 -0.04305386341257274
-0.07941674387903383 -0.1281667598543828 -0.042588056544121414
0.5164966373145845 -0.18634603772395358 -0.042588056544121414
-0.12462662765415265 0.038059748344390944 -0.042255337352370435
0.18771684079396742 0.08054133474715201 -0.04172298664556893
-0.07351430541737201 -0.12927138757099593 -0.0412571797771176
0.41425868407335315 -0.29177809520599407 -0.0412571797771176
0.24722034104670707 0.621263256413123 -0.0412571797771176
0.3742924547602292 -0.4131806738920801 -0.04092446058536667
0.1804369448784567 0.051907521105065434 -0.04092446058536667
0.5175546843443525 -0.2443656103814839 -0.03992630301011384
0.5262985447035674 0.30598520469375956 -0.03992630301011384
0.6151545320525756 0.25716864488006036 -0.03959358381836286
0.3206647754338114 0.07311504238727086 -0.03959358381836286
0.2609749524336913 -0.13012314870187838 -0.03859542624311002
0.6669522558243632 0.10550858289614314 -0.03859542624311002
0.066500584855262 0.29116589189317227 -0.03826270705135909
0.5748356203961957 -0.2161110966179934 -0.03826270705135909
-0.08156610985774491 0.16259654181677088 -0.03726454947610621
0.26707036802656864 -0.42599701715832666 -0.03726454947610621
0.36042471884804966 0.5526365959225725 -0.03726454947610621
0.5517049821856699 0.373513891851532 -0.036399479577553774
0.2980664879300871 0.09064268940871081 -0.036399479577553774
0.208957633995348 -0.08755505530926203 -0.03593367270910245
0.639828987312826 0.18401034899786184 -0.03593367270910245
0.19141667820623803 -0.0232936706144839 -0.03560095351735147
0.18267281784702316 -0.02856394261181893 -0.035068602810549965
0.09279205538742198 -0.15475767765911858 -0.035068602810549965
0.391048193256807 -0.3864300508753038 -0.034602795942098634
0.6134110834878007 0.2284882505511286 -0.034602795942098634
0.33819907683908634 0.41492412245685506 -0.0337377260435462
0.42935082661117613 -0.35921362099007625 -0.0337377260435462
-0.14384448816968745 -0.23363874363943338 -0.0337377260435462
0.20724080296591324 0.07314831430644592 -0.03327191917509487
0.6365883023851717 0.17444134504310466 -0.03327191917509487
0.5601028145854637 0.31851540945510015 -0.032939199983343895
0.6077814747633746 0.2746962919015004 -0.03240684927654239
0.34696290034980637 0.18705140241046567 -0.03240684927654239
0.25312277950836887 -0.15556285810315584 -0.03194104240809106
0.6183952169802298 0.13279155661972095 -0.03194104240809106
0.3988604398791193 0.5234704315736843 -0.03194104240809106
0.6518667676703752 -0.0232936706144839 -0.031075972509538575
-0.12856602288448388 0.17828757889974564 -0.031075972509538575
-0.08182563082731066 -0.01662597801179493 -0.030610165641087247
0.3052332593204025 -0.43947879880807494 -0.030610165641087247
0.30543954521928796 0.5996431633331464 -0.030610165641087247
0.2988383964549492 -0.04958514114664379 -0.02974509574253481
0.5818027602714606 -0.18104914819127846 -0.02974509574253481
0.34696290034980637 0.388632651924695 -0.02974509574253481
0.3043681894218499 -0.37924331633348335 -0.029279288874083483
0.613504244861491 -0.09844828164718807 -0.029279288874083483
0.5835994439069158 -0.18981297170199848 -0.028946569682332505
0.5727261807204947 0.23298661402360152 -0.028414218975531
0.3206647754338114 0.038059748344390944 -0.028414218975531
0.20113207860536578 0.364404040381391 -0.02794841210707967
0.6688687183688488 0.048274227531145034 -0.02794841210707967
0.529259745510151 0.37305473936691574 -0.02794841210707967
0.5397736719694808 0.39908668892950977 -0.027083342208527234
0.33819907683908634 0.41492412245685506 -0.027083342208527234
-0.007489509006313861 0.27746451557686824 -0.026617535340075906
0.3961387968905966 -0.3151083649315706 -0.026617535340075906
0.47497993656790116 0.4535661293868101 -0.026617535340075906
0.5791010804344429 -0.1866255218450244 -0.025752465441523424
0.3206647754338114 0.28346011541222044 -0.025752465441523424
0.19249468838751116 0.0555873953658309 -0.025752465441523424
0.4814613064232096 -0.224402458876427 -0.025286658573072093
0.609318637429264 0.23906872084880876 -0.025286658573072093
0.5669834474708734 0.22210669645334538 -0.024953939381321164
0.6254754813806902 0.2484048213693405 -0.02442158867451961
-0.12501923630041875 0.19356604418494913 -0.02442158867451961
0.552456927559027 0.31413682489165773 -0.02395578180606828
0.34414144160375826 -0.4280798392986875 -0.02395578180606828
-0.015281792477121017 0.352120047821946 -0.02395578180606828
0.5639623572097748 0.23312635608413682 -0.023090711907515847
0.46719430748092905 0.4788993686467273 -0.023090711907515847
0.09279205538742198 -0.26869403768231326 -0.023090711907515847
0.6715903613573715 0.10242094879669435 -0.022624905039064516
0.2105014510450724 -0.060984100656031326 -0.022624905039064516
-0.08227812892809194 0.06252791770575572 -0.022624905039064516
0.2997766645756868 -0.1635215011698386 -0.021759835140512034
0.6254754813806902 -0.09709744172867919 -0.021759835140512034
0.4512969844990687 0.47549232412319753 -0.021294028272060707
0.43941890935355987 -0.2645417021692615 -0.021294028272060707
-0.10200837699892319 0.3332215977304921 -0.021294028272060707
0.25055418734805157 -0.24071235365605853 -0.02042895837350827
0.1804369448784567 7.486181814396146E-4 -0.02042895837350827
0.42314894087693855 0.5171886932334265 -0.019963151505056943
0.6712576421656207 0.07505146808326135 -0.019963151505056943
0.21603789839580814 -0.06942851374267044 -0.019963151505056943
-0.09529410370938905 0.12909171920745044 -0.019963151505056943
0.582667830170013 0.3281842291673827 -0.019098081606504457
0.30008276623209784 0.2308705199640654 -0.019098081606504457
0.5469737152789713 -0.12712867597611982 -0.01863227473805313
0.6088794480961529 0.2563634644360232 -0.01863227473805313
0.19984778252520705 0.36713899213758383 -0.01863227473805313
0.4878428605209928 0.4479165575108791 -0.0182995555463022
0.33819907683908634 0.41492412245685506 -0.017767204839500648
0.5226719055134821 0.3870888348749706 -0.017301397971049317
0.46923054893444477 -0.3105301488530775 -0.017301397971049317
0.39068885652971597 0.5361803046985705 -0.017301397971049317
-0.03915772167716912 -0.19962153347481645 -0.017301397971049317
0.6537100319926756 0.21334287294262555 -0.016436328072496884
-0.007842191349569847 0.3623411813925351 -0.016436328072496884
0.3769475539104018 0.46746713721816474 -0.015970521204045553
0.4629355018265168 0.46795956162195623 -0.015970521204045553
-0.11167054232737071 -0.1878166565514928 -0.015970521204045553
0.6449462084819556 -0.0846404351895237 -0.01510545130549307
-0.11900367331356164 -0.1372300306376786 -0.01510545130549307
