0.15389716668306214 0.5609916407771297 -0.09687608950864968
-0.3398270527586692 0.25618009384041995 -0.09687608950864968
-0.2583462672704269 0.4590955303037016 -0.09687608950864968
-0.26431184012925596 0.22599979656758323 -0.09627437466698104
0.13328413539275663 0.4973903820127553 -0.09627437466698104
0.0345771135801725 0.48841623494558306 -0.09627437466698104
-0.12026130703378554 0.35766359985098944 -0.09627437466698104
0.08247361497699547 0.35766359985098944 -0.09627437466698104
0.2852085369877766 0.35766359985098944 -0.09627437466698104
-0.06883187992373661 0.3286523485562518 -0.09627437466698104
0.6736240632111877 0.21409443862885394 -0.09627437466698104
-0.025087210934427114 0.3610761825958814 -0.09627437466698104
0.3490246939098897 0.24441227072264343 -0.09627437466698104
-0.1381064500524153 0.24782485346753547 -0.09627437466698104
0.06463706788467542 0.24782485346753547 -0.09627437466698104
0.26737198989545646 0.24782485346753547 -0.09627437466698104
0.6609450719045988 0.18993988569901316 -0.09627437466698104
-0.25601677124053834 0.45210704221403597 -0.09584457835150344
-0.37426233355473404 0.36852025477995337 -0.09515690424673931
-0.2445498055435962 0.21434372049183092 -0.09455518940507067
-0.30436026080545814 0.4087663817612753 -0.09455518940507067
-0.24148105985108617 0.43556847999445814 -0.09455518940507067
-0.23162153237403013 0.35103614066632494 -0.09455518940507067
-0.04785781972843005 0.33206493130114384 -0.09455518940507067
0.15488569820866055 0.33206493130114384 -0.09455518940507067
0.3576206202194416 0.33206493130114384 -0.09455518940507067
0.7730187591285362 0.44165439582162086 -0.09455518940507067
0.037757606314706614 0.18595997181769056 -0.09455518940507067
0.41217036857985784 0.5522066040887674 -0.09455518940507067
0.2566786575663739 0.1623727500242802 -0.09455518940507067
0.49257666327940625 0.19553583372653138 -0.09455518940507067
0.6716384042336814 0.19534672334772132 -0.09455518940507067
-0.23128629124795758 0.24782485346753547 -0.09455518940507067
-0.02855136923717657 0.24782485346753547 -0.09455518940507067
0.17419214869991403 0.24782485346753547 -0.09455518940507067
0.3769270707106952 0.24782485346753547 -0.09455518940507067
-0.3674113802860212 0.2968989967687672 -0.09455518940507067
-0.39243412177312675 0.334557749930914 -0.09412539308959307
0.7760187374105698 0.3173744932381198 -0.0928360041431603
-0.23911718011595937 0.22302560606447835 -0.0928360041431603
-0.32934861858732545 0.27571863434203137 -0.0928360041431603
0.05635919084857689 0.47272007350434136 -0.0928360041431603
0.42055999265798044 0.2459681333846723 -0.0928360041431603
0.2698390207462979 0.27359544054357204 -0.0928360041431603
0.0865394881214135 0.27359544054357204 -0.0928360041431603
-0.09676004450347075 0.27359544054357204 -0.0928360041431603
-0.15307195775734514 0.24441227072264343 -0.0928360041431603
0.4205943763632186 0.3554716386420537 -0.0928360041431603
0.26959833480963036 0.33189301277495287 -0.0928360041431603
0.08629880218474613 0.33189301277495287 -0.0928360041431603
-0.09700073044013813 0.33189301277495287 -0.0928360041431603
-0.2366157655598798 0.21782507064719944 -0.0928360041431603
0.10290613181480038 0.17745000477123424 -0.0928360041431603
0.13433283840252197 0.4908574780174957 -0.0928360041431603
0.5935358177850928 0.18374222282982622 -0.0928360041431603
0.4333765187855224 0.16122949182510984 -0.0928360041431603
0.27322581571226123 0.13871676082039347 -0.0928360041431603
-0.35941716881813796 0.35724239946182135 -0.0928360041431603
-0.336569196687349 0.40415896525935546 -0.0924062078276827
-0.26966710222010676 0.21455861864956977 -0.0924062078276827
0.41616747431379947 0.27337194645952373 -0.0911168188812499
0.4187548481329745 0.33746317302354245 -0.0911168188812499
-0.3375405363603284 0.3973853753274286 -0.0911168188812499
0.603550071935721 0.5691405789185847 -0.0911168188812499
-0.18223793572565453 0.3605432351646892 -0.0911168188812499
-0.1921490387605679 0.329185295987444 -0.0911168188812499
0.03315018981278679 0.329185295987444 -0.0911168188812499
0.258440822459832 0.329185295987444 -0.0911168188812499
0.2683949051262931 0.13530417807550132 -0.0911168188812499
0.5305276779360777 0.1721463182382407 -0.0911168188812499
0.04305269692139057 0.3605432351646892 -0.0911168188812499
0.2683433295684358 0.3605432351646892 -0.0911168188812499
0.3796519793508232 0.27874440040299364 -0.0911168188812499
-0.14220670690207146 0.20211171735333858 -0.0911168188812499
0.06498090493705742 0.1840001006191128 -0.0911168188812499
0.2552603297252978 0.16508046681178914 -0.0911168188812499
0.4924391284584532 0.1984240649665408 -0.0911168188812499
0.7735688984123475 0.2596270602905502 -0.0911168188812499
-0.37304171201877767 0.3157670550182335 -0.0911168188812499
-0.34039438389509963 0.25630043680875364 -0.09068702256577234
-0.3262712769685059 0.42513302545466214 -0.09068702256577234
0.13358499281359104 0.16731540765227257 -0.08939763361933953
-0.3118215248421492 0.4039870467331645 -0.08939763361933953
0.6416128336344167 0.48035325606722346 -0.08939763361933953
0.13019819784762757 0.16148736961439641 -0.08939763361933953
0.311443304084529 0.10934448062065469 -0.08939763361933953
0.5050321605019468 0.11849914214032742 -0.08939763361933953
0.6260284192351989 0.1857536695862613 -0.08939763361933953
0.2694178203571298 0.11275706336554683 -0.08939763361933953
0.25000821875016166 0.12269395417938873 -0.08939763361933953
-0.15258198995770064 0.24512573260633622 -0.08939763361933953
0.05015293205308049 0.24512573260633622 -0.08939763361933953
0.24806553940420295 0.24512573260633622 -0.08939763361933953
0.48857955754546456 0.19769341123022896 -0.08939763361933953
-0.10165972249991527 0.3293658104399446 -0.08939763361933953
0.10107519951086576 0.3293658104399446 -0.08939763361933953
0.3038101215216469 0.3293658104399446 -0.08939763361933953
-0.23162153237403013 0.3676090865911409 -0.08939763361933953
-0.06025314546680392 0.36036272071218867 -0.08939763361933953
0.14248177654397723 0.36036272071218867 -0.08939763361933953
0.277644121835371 0.36036272071218867 -0.08939763361933953
0.1604902421624884 0.5402668624448 -0.08939763361933953
0.2809707453171675 0.5597710192411731 -0.08939763361933953
0.7741190376961589 0.2597044236273362 -0.08939763361933953
0.7464659427583306 0.46114136076537493 -0.08939763361933953
-0.36409335273053417 0.35759483244051304 -0.08939763361933953
-0.277987958887753 0.21001996955812632 -0.08896783730386193
-0.3626406411842199 0.2827329102106257 -0.0882801631990978
-0.2782630285296586 0.4477746953540217 -0.0882801631990978
0.3900874338906192 0.261415012962937 -0.0882801631990978
0.6123265126977733 0.19868194275582737 -0.0882801631990978
0.41747405511285124 0.3324517479850737 -0.08767844835742916
-0.2767501454991775 0.4295599275040814 -0.08767844835742916
0.6799076853434701 0.20131229620655022 -0.08767844835742916
-0.28940334902683784 0.23014303304878722 -0.08767844835742916
-0.16941281367180322 0.3293658104399446 -0.08767844835742916
0.03333070426528739 0.3293658104399446 -0.08767844835742916
0.23606562627606853 0.3293658104399446 -0.08767844835742916
0.3637409197518427 0.27476448652167107 -0.08767844835742916
0.27187625528166165 0.10934448062065469 -0.08767844835742916
0.4746111772924428 0.10934448062065469 -0.08767844835742916
0.5579572787898578 0.13476263471799965 -0.08767844835742916
0.6415870458554879 0.16047305030986933 -0.08767844835742916
-0.23254989241546176 0.3591764828814706 -0.08767844835742916
-0.02739091918538702 0.36036272071218867 -0.08767844835742916
0.20936667915860033 0.4812730201823455 -0.08767844835742916
0.2007449650701198 0.40507013344816806 -0.08767844835742916
0.34911924909929476 0.36036272071218867 -0.08767844835742916
-0.23114875642700483 0.2439480907019276 -0.08767844835742916
-0.0412561483226942 0.24512573260633622 -0.08767844835742916
0.16147877368808683 0.24512573260633622 -0.08767844835742916
0.3400763346216462 0.24512573260633622 -0.08767844835742916
0.7228099535544437 0.4637373305108595 -0.08767844835742916
0.7744542788222315 0.3126381378415567 -0.08767844835742916
0.7112828163733346 0.18189409867327253 -0.08767844835742916
-0.3809671560761845 0.3318844168486433 -0.08767844835742916
-0.3715546167672252 0.28773573932278484 -0.08724865204195156
0.38564333998858086 0.261415012962937 -0.08724865204195156
-0.29230877211946643 0.2186158958676782 -0.08656097793718742
-0.3942048825928944 0.34806195016321995 -0.08656097793718742
0.3703425911575785 0.3447267307551139 -0.08656097793718742
0.32786152333577306 0.25983336252197947 -0.08656097793718742
0.6434437659383512 0.2030486733210797 -0.08656097793718742
0.42310438684560775 0.34936853096227183 -0.0859592630955188
-0.2728046153230932 0.22561297988365336 -0.0859592630955188
0.601418282210952 0.565813955436788 -0.0859592630955188
-0.23578196070785332 0.20529221008787282 -0.0859592630955188
-0.24541799410086093 0.22431499501091107 -0.0859592630955188
0.37711618108950523 0.1507682495063852 -0.0859592630955188
0.5548713412447286 0.17575660728825251 -0.0859592630955188
0.6665839995636649 0.18142991865255684 -0.0859592630955188
0.19172783837139992 0.11699485503615586 -0.0859592630955188
-0.23858423268476717 0.21658725725862393 -0.0859592630955188
-0.038110039293398214 0.1894928975309164 -0.0859592630955188
0.19312897435985685 0.1561578953024742 -0.0859592630955188
0.3708755385887706 0.18114625308434162 -0.0859592630955188
-0.23162153237403013 0.32507644321147827 -0.0859592630955188
-0.03799829225137412 0.3293658104399446 -0.0859592630955188
0.16473662975940703 0.3293658104399446 -0.0859592630955188
0.36216786523719446 0.33004488861839915 -0.0859592630955188
-0.18484250139744884 0.36036272071218867 -0.0859592630955188
-0.0014140298779213173 0.36036272071218867 -0.0859592630955188
0.20132089213285984 0.36036272071218867 -0.0859592630955188
0.1623125785401134 0.544178008915646 -0.0859592630955188
0.17835257703373722 0.5610260244823678 -0.0859592630955188
0.7198701467565768 0.184533048050305 -0.0859592630955188
0.5280606470852363 0.5597710192411731 -0.0859592630955188
0.554518908266037 0.5611205796717729 -0.0859592630955188
-0.3638526667938667 0.36468647164589324 -0.0859592630955188
-0.2810738964328821 0.4477746953540217 -0.0855294667800412
0.37675515218450406 0.25983336252197947 -0.0855294667800412
-0.2974921156841262 0.4364538604043419 -0.08484179267527706
-0.3573283587249168 0.2779535751825149 -0.08484179267527706
0.3274661107255337 0.3456550907965454 -0.08484179267527706
0.6672716736684289 0.2079655431701434 -0.08484179267527706
0.4147405505464139 0.2477560860570591 -0.08424007783360843
-0.26909977108367633 0.22787370850306557 -0.08424007783360843
-0.2848303162301563 0.43058284273491804 -0.08424007783360843
0.13019819784762757 0.16148736961439641 -0.08424007783360843
-0.2682143906737925 0.23499973141368413 -0.08424007783360843
0.7753740429373535 0.3449502248391622 -0.08424007783360843
0.7166982499483522 0.4645797312891957 -0.08424007783360843
0.42513302545466214 0.3373342341288991 -0.08424007783360843
0.4728490123989845 0.5599429377673643 -0.08424007783360843
0.18981954273067933 0.459568306250727 -0.08424007783360843
0.24670738304729375 0.5599429377673643 -0.08424007783360843
-0.013267812258793279 0.4739235031876785 -0.08424007783360843
-0.21350991563980432 0.4519781033193926 -0.08424007783360843
0.24974174503456553 0.27595072435238927 -0.08424007783360843
0.06708690688289767 0.27595072435238927 -0.08424007783360843
-0.11555933534246068 0.27595072435238927 -0.08424007783360843
-0.22489951799996058 0.32752628220970054 -0.08424007783360843
0.41347694937890983 0.10917256209446369 -0.08424007783360843
0.23083070715355136 0.10917256209446369 -0.08424007783360843
0.3278099477779158 0.24529765113252724 -0.08424007783360843
0.08051374377841769 0.17630674657206388 -0.08424007783360843
-0.08408105319688165 0.19435819182212277 -0.08424007783360843
-0.23628912036011684 0.2172147598792213 -0.08424007783360843
-0.36732542102292565 0.2909592116888668 -0.08424007783360843
-0.3032943659430737 0.4364538604043419 -0.08381028151813082
-0.3032943659430737 0.2213408045078061 -0.08312260741336666
-0.36996437039995805 0.3827551087485713 -0.08312260741336666
0.30772986391880247 0.3440734403555879 -0.08312260741336666
-0.28936036939529014 0.42321613388763196 -0.08252089257169802
-0.3623139959844569 0.29940041132484674 -0.08252089257169802
-0.28782169858588036 0.2361515855391641 -0.08252089257169802
0.3653139742664906 0.2558448527143474 -0.08252089257169802
0.36920792888471765 0.3417525402520089 -0.08252089257169802
0.21614886501683678 0.4061961997947193 -0.08252089257169802
0.3195062829628886 0.5177283436611549 -0.08252089257169802
0.2920337024775608 0.4179812147651149 -0.08252089257169802
0.4853131055478349 0.4756083047443507 -0.08252089257169802
0.5931060214696154 0.5060206920275453 -0.08252089257169802
0.7605804537586147 0.31276707673619997 -0.08252089257169802
0.6533376771206455 0.20977068769514937 -0.08252089257169802
-0.3477439008897665 0.2756326750789358 -0.08209109625622045
0.33112797533340277 0.261415012962937 -0.08209109625622045
-0.35682979499896283 0.2765094595625101 -0.08140342215145628
-0.3477439008897665 0.3698440274316244 -0.08140342215145628
0.31738308916442937 0.26058980403722 -0.08140342215145628
-0.2992886642828225 0.40927354141353883 -0.08080170730978765
-0.38921064940704475 0.33331993654233844 -0.08080170730978765
-0.3185521351425283 0.2485812949827761 -0.08080170730978765
0.3995429528311262 0.2607703184897206 -0.08080170730978765
0.34822527276310145 0.342517577693559 -0.08080170730978765
0.2148852638493327 0.5191638633548501 -0.08080170730978765
0.32587586435826665 0.5121581834125654 -0.08080170730978765
0.40347129115459135 0.47528165954458784 -0.08080170730978765
0.3946088911294433 0.47318425352505716 -0.08080170730978765
0.4791412304575765 0.4736914131773207 -0.08080170730978765
0.6025099648522652 0.5093473155093419 -0.08080170730978765
0.7779270330512904 0.3361565922244907 -0.08080170730978765
0.6737701939584501 0.193395448075453 -0.08080170730978765
-0.3299675252816132 0.2823203057477672 -0.08037191099431006
0.3175893913958586 0.34136572356807904 -0.08037191099431006
-0.3206409452357494 0.23266163945748597 -0.07968423688954591
-0.3036296070691462 0.4364538604043419 -0.07968423688954591
0.16340426118142648 0.5513985870156697 -0.07968423688954591
0.5589887899470041 0.4120758133904528 -0.07968423688954591
0.3234174294337348 0.5513985870156697 -0.07968423688954591
0.28341198838908027 0.426860806642882 -0.07968423688954591
0.30473848156307853 0.3458785848805937 -0.07968423688954591
0.3056410538255814 0.26441499124497064 -0.07968423688954591
0.5777193133755176 0.20077075284904855 -0.07968423688954591
-0.2936067569922088 0.4246860372865654 -0.07908252204787729
-0.3612137174168343 0.2887414627010024 -0.07908252204787729
-0.2765782269729865 0.22774476960842227 -0.07908252204787729
0.34740865976369406 0.25945514176435924 -0.07908252204787729
0.3403943838950997 0.26150956815234205 -0.07908252204787729
0.39867476427386145 0.3160679124390679 -0.07908252204787729
0.2241258846321009 0.41079502037032956 -0.07908252204787729
0.32603059103183857 0.416408160250467 -0.07908252204787729
0.3337583287841257 0.4181359414386869 -0.07908252204787729
0.41944252223773876 0.5061668227748076 -0.07908252204787729
0.49329872108940837 0.4822013802237769 -0.07908252204787729
0.5557481257283029 0.48343919361235244 -0.07908252204787729
0.7576320510344382 0.3174088769433579 -0.07908252204787729
0.6258994803405558 0.19957591909202077 -0.07908252204787729
0.601418282210952 0.19998852355487928 -0.07908252204787729
0.3100851477276197 0.26063278366876785 -0.07865272573239969
0.4878746915880811 0.4192791996378572 -0.07865272573239969
-0.3602337818175454 0.266632740232835 -0.07796505162763555
0.3411938050418879 0.39116192467931304 -0.07796505162763555
0.18562473069161803 0.5496708058274498 -0.07796505162763555
0.22150412710768763 0.5043788701024209 -0.07796505162763555
0.33983564868497884 0.39116192467931304 -0.07796505162763555
0.5589887899470041 0.41381219050498225 -0.07796505162763555
-0.3197641607521751 0.3983395231477889 -0.07736333678596691
-0.3724142093981804 0.3543541682218119 -0.07736333678596691
-0.2627989570987748 0.2320599246158173 -0.07736333678596691
-0.29580731412745404 0.22981638784902428 -0.07736333678596691
0.21301135191385037 0.39832233129516986 -0.07736333678596691
0.2997700361561575 0.41106149408592574 -0.07736333678596691
0.39223641546800714 0.5051095238387329 -0.07736333678596691
0.39376649035110733 0.47547076992339793 -0.07736333678596691
0.4919491606588089 0.48592341631581304 -0.07736333678596691
0.5931060214696154 0.5060206920275453 -0.07736333678596691
0.3747351095017595 0.3422768917568915 -0.07736333678596691
0.3403084246320042 0.34134853171546 -0.07736333678596691
0.39772061645350104 0.2664952054118821 -0.07736333678596691
0.6274897267078229 0.19187396911866228 -0.07736333678596691
0.7731906776547272 0.3361909759297288 -0.07736333678596691
-0.31495044201882605 0.23266163945748597 -0.07693354047048931
0.22848401927104373 0.493058035152741 -0.07624586636572518
-0.3732995898080642 0.3679787114224517 -0.07624586636572518
-0.28624864407123235 0.23636648369690283 -0.07564415152405654
-0.3454487885651161 0.3843797388210767 -0.07564415152405654
-0.3068530794352282 0.2404237609150114 -0.07564415152405654
-0.26663274023283495 0.21751561730005556 -0.07564415152405654
0.21230648595646706 0.5152183331787658 -0.07564415152405654
0.3237010950019499 0.4152047305671297 -0.07564415152405654
0.3318414372170955 0.5235134020674833 -0.07564415152405654
0.4022076899870873 0.5077742609946939 -0.07564415152405654
0.46842211034956543 0.48400652474878286 -0.07564415152405654
0.4740438461560123 0.4857257100106934 -0.07564415152405654
0.5422955010538543 0.5252583751083224 -0.07564415152405654
0.3468413286272636 0.34426255073439804 -0.07564415152405654
0.3709099222940087 0.2555439952935131 -0.07564415152405654
0.40279221297613665 0.2558104690091092 -0.07564415152405654
0.6055529227658466 0.2027134321950073 -0.07564415152405654
0.7692451474786428 0.31795901622716927 -0.07564415152405654
-0.3262712769685059 0.42513302545466214 -0.07521435520857894
0.2850881940194429 0.5156997050521007 -0.07452668110381477
-0.37264629940853833 0.2915953102357736 -0.07452668110381477
-0.3475977701425041 0.27850371446632616 -0.07392496626214615
-0.2902371538788644 0.425863679190974 -0.07392496626214615
-0.3497037720883443 0.39010462574323823 -0.07392496626214615
0.20992541436872128 0.5195420841124705 -0.07392496626214615
0.2061260149398993 0.4149640446304622 -0.07392496626214615
0.30370697040593225 0.5223873357209321 -0.07392496626214615
0.4113795433593792 0.4812730201823455 -0.07392496626214615
0.49108956802785375 0.4795022593625777 -0.07392496626214615
0.487152633778079 0.45289786743451466 -0.07392496626214615
0.5699829796969209 0.4260871732750223 -0.07392496626214615
0.3497897313514398 0.34623101785928545 -0.07392496626214615
0.36988700706317207 0.34505337595487684 -0.07392496626214615
0.33273541355328906 0.25305977259005263 -0.07392496626214615
0.6030944878413147 0.1975472804829666 -0.07392496626214615
0.7636835831563629 0.31678137432276066 -0.07392496626214615
-0.3313944490489988 0.25065291322337807 -0.07349516994666858
0.22096258375018585 0.4817372002030613 -0.07280749584190441
-0.39347422885658245 0.3404545553792666 -0.07280749584190441
-0.3511392917820395 0.37539699582759495 -0.07220578100023577
-0.3539157759800247 0.28330024134705617 -0.07220578100023577
-0.35684698685158195 0.27784182814049063 -0.07220578100023577
0.3965085908438543 0.2578648953970921 -0.07220578100023577
0.36669791840232846 0.2554408441777985 -0.07220578100023577
0.37789841038367455 0.3401536979584322 -0.07220578100023577
0.22358434127459922 0.5199031130174717 -0.07220578100023577
0.3259446317687429 0.4125657811900973 -0.07220578100023577
0.30271843888033373 0.5264102292338022 -0.07220578100023577
0.39908736873671996 0.5099920099825582 -0.07220578100023577
0.4935909825839333 0.4826569643181834 -0.07220578100023577
0.5614644167241548 0.4791498263838861 -0.07220578100023577
0.593896846690094 0.5092011847620795 -0.07220578100023577
0.6273092122553222 0.1994297883447584 -0.07220578100023577
0.6309195013053341 0.20942685064276723 -0.07220578100023577
-0.371193587862224 0.2874004981967123 -0.07108831057999404
0.3364144700137772 0.5270205400017804 -0.07108831057999404
0.3524372766547817 0.5066739824270712 -0.07108831057999404
-0.3037155663322417 0.4179812147651149 -0.0704865957383254
-0.2837902091467005 0.4352848144262429 -0.0704865957383254
0.37173513121972573 0.24463576480669175 -0.0704865957383254
0.3665259998761373 0.2600052810481705 -0.0704865957383254
0.37504456284890336 0.3401536979584322 -0.0704865957383254
0.21620903650100368 0.5273385892752339 -0.0704865957383254
0.326116550294934 0.512742706401615 -0.0704865957383254
0.31951487888919816 0.5097599199722004 -0.0704865957383254
0.3761362454902163 0.5223443560893843 -0.0704865957383254
0.48877726385058423 0.4829922054442558 -0.0704865957383254
0.5686248233400115 0.4596714573664416 -0.0704865957383254
0.7670359944170883 0.3129905708202483 -0.0704865957383254
0.6280140782127056 0.20556727972977845 -0.0704865957383254
-0.34329980698772816 0.25530330935684564 -0.06936912531808367
-0.34484707372344753 0.4024827596289929 -0.06936912531808367
0.2903746886998173 0.3959240678548048 -0.06936912531808367
-0.38290123949583366 0.33335432024757666 -0.06876741047641503
-0.3190421029421727 0.24900249537194408 -0.06876741047641503
-0.34337717032451415 0.3737637698287801 -0.06876741047641503
0.34760636606881373 0.2611829229525791 -0.06876741047641503
0.3999813450729132 0.3445977918604706 -0.06876741047641503
0.21622622835362273 0.5203501011855683 -0.06876741047641503
0.32248047346599357 0.4123852667375967 -0.06876741047641503
0.3040250196793857 0.5258343021710624 -0.06876741047641503
0.39700715456980823 0.45065433066772165 -0.06876741047641503
0.4796397941835304 0.5093129318041038 -0.06876741047641503
0.5670689606779827 0.5099920099825582 -0.06876741047641503
0.6258650966353176 0.21017469623169827 -0.06876741047641503
-0.3566320886938431 0.4024827596289929 -0.06833761416093743
-0.36779819696995103 0.37691847478438556 -0.0676499400561733
0.22848401927104373 0.4704163652533815 -0.0676499400561733
-0.33363798581579185 0.2690395995995095 -0.06704822521450467
-0.3857550870306049 0.32408791168587975 -0.06704822521450467
-0.37635973957426466 0.3298557782395891 -0.06704822521450467
0.36819360958019054 0.3364144700137771 -0.06704822521450467
0.1883668311843651 0.5254388895608229 -0.06704822521450467
0.2055844715823975 0.4743447035768466 -0.06704822521450467
0.2959448489484069 0.5160177543255542 -0.06704822521450467
0.3898553438802611 0.4714478764105277 -0.06704822521450467
0.4741641891243459 0.47539340658661183 -0.06704822521450467
0.5680660881298907 0.5053845934806384 -0.06704822521450467
0.7510991470391789 0.3192398092472925 -0.06704822521450467
0.656088373539702 0.20775064501240467 -0.06704822521450467
-0.35527393233693394 0.39116192467931304 -0.06661842889902707
0.2511256891704034 0.40466612491161913 -0.06661842889902707
-0.38194709167547336 0.33674111521354017 -0.06532903995259426
-0.32377845833873586 0.2651456449812825 -0.06532903995259426
0.20807729021216761 0.4149640446304622 -0.06532903995259426
0.20374494335215343 0.4081474750669877 -0.06532903995259426
0.3295549208187548 0.5211753101112853 -0.06532903995259426
0.7548555668364532 0.3165234965334741 -0.06532903995259426
0.17187124859633507 0.5043788701024209 -0.06489924363711669
0.35302179964383135 0.493058035152741 -0.06489924363711669
-0.3268386081049363 0.3975658897799292 -0.06360985469068389
-0.3067241405405849 0.4215313323309598 -0.06360985469068389
0.21735229470017403 0.5241495006143903 -0.06360985469068389
0.32401054834909376 0.41491246907260493 -0.06360985469068389
0.3000279139454441 0.40504434566923936 -0.06360985469068389
-0.4055257175425742 0.3232369149812342 -0.0631800583752063
0.22015456667708802 0.4590955303037016 -0.0631800583752063
-0.32508503913778775 0.39925069133660135 -0.061890669428773526
-0.3524458725810914 0.38423360807381424 -0.061890669428773526
-0.36026816552278357 0.3551879730738385 -0.061890669428773526
0.2169053065320774 0.5313442909354851 -0.061890669428773526
0.3268987795891033 0.4205342048790518 -0.061890669428773526
0.7487180754514331 0.3327010298480508 -0.061890669428773526
0.17187124859633507 0.5270205400017804 -0.06146087311329593
0.35302179964383135 0.5156997050521007 -0.06146087311329593
-0.3619185833742175 0.29680444157936214 -0.06017148416686315
-0.3193429603630071 0.41369184753664856 -0.06017148416686315
0.21936374145660925 0.4009354928932735 -0.06017148416686315
0.3263228525263633 0.41708723842892154 -0.06017148416686315
0.3333457243212672 0.40920477400306243 -0.06017148416686315
0.17187124859633507 0.41381219050498225 -0.059741687851385554
0.33038012974447184 0.3889871553229964 -0.059741687851385554
-0.3365090252031822 0.2684292888315314 -0.058452298904952786
-0.3456464948702358 0.28434034843051187 -0.058452298904952786
0.18761038966912458 0.4055944849530506 -0.058452298904952786
0.20430367856227427 0.5178572825557983 -0.058452298904952786
0.31983292816265163 0.42044824561595634 -0.058452298904952786
0.14922957869697542 0.4704163652533815 -0.05802250258947519
0.33947461977997767 0.4590955303037016 -0.05802250258947519
-0.34856910981548345 0.3805201679080878 -0.056733113643042385
-0.38333963173762087 0.3480447583106009 -0.056733113643042385
0.199034375734519 0.5288514723057152 -0.056733113643042385
0.323778458338736 0.5160263502518636 -0.056733113643042385
-0.3879212604606119 0.30766969243463566 -0.056303317327564814
0.22848401927104373 0.4477746953540217 -0.056303317327564814
-0.3721391397562747 0.3093630899176174 -0.05501392838113201
-0.3833568235902399 0.3425863451040354 -0.05501392838113201
0.20726927313906968 0.41464599535700875 -0.05501392838113201
0.18993988569901316 0.5228085361101001 -0.05501392838113201
0.3194203236997931 0.5149604553894792 -0.05501392838113201
0.17187124859633507 0.4817372002030613 -0.05360419646636552
0.3395605790430731 0.4590955303037016 -0.05360419646636552
-0.35828250654527705 0.3714084860199629 -0.053294743119221645
-0.3411422294840306 0.2831798983787223 -0.053294743119221645
0.19767621937760976 0.5321780957875117 -0.053294743119221645
0.3305864319759011 0.5139031564534043 -0.053294743119221645
-0.36679247359173345 0.3581363757980147 -0.05157555785731128
-0.361007415185405 0.28305955541038863 -0.05157555785731128
0.22549263691531968 0.5242698435827239 -0.05157555785731128
0.3042914933949816 0.40754576022531896 -0.05157555785731128
0.2511256891704034 0.5156997050521007 -0.050896479678856674
-0.3754657632380713 0.35207624774978064 -0.049856372595400905
-0.3559272227364599 0.28327445356812747 -0.049856372595400905
0.2102692514211033 0.41449126868343694 -0.049856372595400905
0.3212168722984895 0.5182870788712758 -0.049856372595400905
0.3259446317687429 0.4053709908690023 -0.049856372595400905
0.30862384025499595 0.39897562169469575 -0.048137187333490504
-0.37827663114129473 0.3150535931345407 -0.048137187333490504
0.19900858795559032 0.4050271538166202 -0.048137187333490504
0.32625408511588677 0.5150206268736461 -0.048137187333490504
0.3045665630368874 0.5263500577496356 -0.048137187333490504
-0.3902077768589528 0.3361136125929428 -0.04641800207158014
0.21806575658386682 0.5294961667789314 -0.04641800207158014
0.32556641101112277 0.5170922451142482 -0.04641800207158014
0.14922957869697542 0.41381219050498225 -0.04549823795645809
0.14922957869697542 0.39116192467931304 -0.04549823795645809
-0.3814227401705907 0.33049187678649594 -0.044698816809669764
0.21490245570195177 0.4127119119373596 -0.044698816809669764
0.32177560750861034 0.4130643449160512 -0.044698816809669764
-0.378904133761892 0.3218271830664677 -0.0429796315477594
0.21306292747170769 0.4142849664520077 -0.0429796315477594
0.30432587710022 0.4108122122229486 -0.0429796315477594
0.17187124859633507 0.5156997050521007 -0.0427991170952588
0.35302179964383135 0.4817372002030613 -0.0427991170952588
0.21792822176291407 0.5302955879257196 -0.041260446285849024
0.3248615450537393 0.5174704658718684 -0.041260446285849024
0.14922957869697542 0.42513302545466214 -0.04009140030774995
0.3069304427720142 0.39607019860206727 -0.04009140030774995
0.21746404174219824 0.40084093770386847 -0.03954126102393862
0.32063234930943985 0.5187942385235393 -0.03954126102393862
0.2931597688241121 0.41692391582904 -0.03954126102393862
0.1884355985948416 0.4133308186316474 -0.03782207576202826
0.323391641654806 0.4182304966280919 -0.03782207576202826
0.2624465241200833 0.5156997050521007 -0.03739227944655066
0.14922957869697542 0.5496708058274498 -0.03739227944655066
0.20315182443679433 0.5165764895356751 -0.03610289050011788
0.3324259602061452 0.4055601012478125 -0.03610289050011788
0.22848401927104373 0.42513302545466214 -0.035673094184640285
0.17187124859633507 0.4590955303037016 -0.035673094184640285
0.21409443862885394 0.41240245859021574 -0.03438370523820752
0.3233744498021868 0.411534270032951 -0.03438370523820752
0.17187124859633507 0.4590955303037016 -0.03395390892272992
0.2178508584261281 0.42513302545466214 -0.03395390892272992
0.21728352728969766 0.3998867898835082 -0.03266451997629715
0.20377073113108207 0.475754435491613 -0.03266451997629715
0.3049791674997459 0.40375495672280654 -0.03266451997629715
0.21772191953148481 0.495782943792869 -0.032234723660819545
0.3399216079480743 0.4704163652533815 -0.032234723660819545
0.2138193689869482 0.41229071154819164 -0.030945334714386746
0.3242684261383803 0.5179862214504415 -0.030945334714386746
0.14922957869697542 0.42513302545466214 -0.03051553839890918
0.22699692401949123 0.4477746953540217 -0.03051553839890918
0.2115672362938456 0.47965698603614965 -0.029226149452476376
0.2148852638493327 0.39636246009659193 -0.029226149452476376
0.3011711721446145 0.5255076569712994 -0.029226149452476376
0.30720551241391997 0.5346623184909721 -0.028796353136998777
0.35302179964383135 0.4024827596289929 -0.028796353136998777
0.2088509235800273 0.518493381102705 -0.027506964190566006
0.20912599322193293 0.45240789963487027 -0.027506964190566006
0.3326494542901934 0.40534520309007366 -0.027506964190566006
0.2237648557270998 0.4642444901631231 -0.026045656717942175
0.20745838351787985 0.4864133841154574 -0.02578777892865564
0.21461019420742697 0.39623352120194866 -0.02578777892865564
0.3222655753082547 0.41259156896902593 -0.02578777892865564
0.21185090186206082 0.5250606688032028 -0.02406859366674527
0.20298850183691292 0.4401329168648301 -0.02406859366674527
0.33099044051244997 0.516593681388294 -0.02406859366674527
0.30930291843345065 0.5321523080085829 -0.0232949602988856
0.1664128353897696 0.5496708058274498 -0.0232949602988856
0.2139311160289724 0.5327110432187038 -0.022349408404834868
0.32507644321147816 0.41388095791545865 -0.022349408404834868
0.17187124859633507 0.5156997050521007 -0.020630223142924498
0.35302179964383135 0.4817372002030613 -0.020630223142924498
0.2164927020692189 0.5308199394306023 -0.020630223142924498
0.18692271556436044 0.520049243764734 -0.020630223142924498
0.3203658755938437 0.5121152037810176 -0.020630223142924498
0.1807336486214831 0.3998867898835082 -0.01891103788101413
0.3276896048095819 0.5158716235782916 -0.01891103788101413
0.3267354569892218 0.4046059534274522 -0.01891103788101413
0.28941194495314754 0.3967492767805218 -0.017793567460772392
0.21557293795409685 0.4047950638062624 -0.01719185261910376
0.20812026984371534 0.4401243209385206 -0.01719185261910376
0.3228586942236139 0.41600415171391797 -0.01719185261910376
0.2850881940194429 0.5256623836448713 -0.016074382198862022
0.34170096469415145 0.5496708058274498 -0.016074382198862022
0.21314029080849364 0.39772061645350115 -0.015472667357193388
0.3252999372955266 0.5167398121355564 -0.015472667357193388
0.14922957869697542 0.41381219050498225 -0.014355196936951623
0.22118607783423416 0.4587602891776292 -0.014355196936951623
0.21048414957884215 0.49420988927822107 -0.013753482095282989
0.22299122235924013 0.5343700569964475 -0.013753482095282989
0.303268578164145 0.409789296992112 -0.013753482095282989
0.22629205806210803 0.5396221679715836 -0.012636011675041253
0.35302179964383135 0.41381219050498225 -0.012636011675041253
0.20799992687538163 0.5008029647576473 -0.012034296833372619
0.1861662740491198 0.5192928022494935 -0.012034296833372619
0.31951487888919816 0.5128286656647104 -0.012034296833372619
0.22102275523435275 0.4508348451202221 -0.010916826413130883
0.21083658255753374 0.5253615262240371 -0.010315111571462249
0.17806031553921242 0.39618194564409137 -0.010315111571462249
0.30537458010998525 0.40653144092079185 -0.010315111571462249
0.3392081460643815 0.5270205400017804 -0.009197641151220513
0.21489385977564218 0.5259632410657056 -0.00859592630955188
0.21035521068419885 0.4255112462122824 -0.00859592630955188
0.32790450296732077 0.41921043222738086 -0.00859592630955188
0.17086552521811746 0.4817372002030613 -0.007478455889310143
0.35302179964383135 0.4477746953540217 -0.007478455889310143
0.2113437422097973 0.5222498008999793 -0.006876741047641509
0.3255234313795748 0.5169547102932952 -0.006876741047641509
0.2949133377912606 0.3999383654413655 -0.006876741047641509
0.2850881940194429 0.41381219050498225 -0.005759270627399743
0.18427517026101842 0.5271580748227334 -0.005157555785731109
0.21124918702039225 0.39783236349552537 -0.005157555785731109
0.3207269044988449 0.5161982687780547 -0.005157555785731109
0.17418355277360456 0.39116192467931304 -0.004040085365489374
0.22722901402984916 0.5383413749514603 -0.004040085365489374
0.20922054841133797 0.49529297599322464 -0.0034383705238207394
0.20224065624798188 0.5008287525365759 -0.0034383705238207394
0.3045321793316493 0.5281122226430935 -0.0034383705238207394
0.35302179964383135 0.5270205400017804 -0.0023209001035790038
0.14922957869697542 0.5496708058274498 -0.0023209001035790038
0.21497981903873775 0.5317397035457244 -0.0017191852619103697
0.20228363587952958 0.5010092669890766 -0.0017191852619103697
0.30431728117391044 0.5301580531047669 -0.0017191852619103697
0.30797054985547007 0.5353843763009745 0.0
0.21840959363624896 0.39885527872636206 0.0
0.211386721841345 0.5191552674285405 0.0
0.3283171074301793 0.4122477319166438 0.0
0.20563604714025482 0.4981038438964481 0.0017191852619103697
0.2116875792621794 0.43571461074172047 0.0017191852619103697
0.3269245673680318 0.5198257496806856 0.0017191852619103697
0.35302179964383135 0.4817372002030613 0.0025873738191751323
0.16997154888192406 0.5270205400017804 0.0025873738191751323
0.20822342095942994 0.4353879655419575 0.00343837052382077
0.21184230593575135 0.3970587301276657 0.00343837052382077
0.3017900788389022 0.5271064992648761 0.00343837052382077
0.322317150866112 0.5321265202296545 0.005157555785731139
0.2119282651988468 0.5262555025602303 0.005157555785731139
0.21025205956848425 0.529659489378813 0.005157555785731139
0.1999025642917837 0.5177369395874645 0.005157555785731139
0.3199618670572948 0.5132584619801879 0.005157555785731139
0.211042884788963 0.49983162508466794 0.006876741047641509
0.1843955132293521 0.517513445503416 0.006876741047641509
0.192991439538904 0.4226573986775111 0.006876741047641509
0.33507350550948706 0.4069870250151981 0.006876741047641509
0.21675057985850546 0.48310395248628 0.0075042436682388
0.20453576857263217 0.45664569130547933 0.00859592630955188
0.20899705432728966 0.42259722719334436 0.00859592630955188
0.20059883432285744 0.46770005253956304 0.00859592630955188
0.32709648589422297 0.5152785046629327 0.00859592630955188
0.3050479349102224 0.4021904981344681 0.00859592630955188
0.21661304503755258 0.4477746953540217 0.00996267859277065
0.20859304579074076 0.4682759796023031 0.010315111571462249
0.21533225201742934 0.4337461436168331 0.010315111571462249
0.19822635866142116 0.4948975633829851 0.010315111571462249
0.3283428952091078 0.5132240782749498 0.010315111571462249
0.3274918985044623 0.40388389561744986 0.010315111571462249
0.21694828616362513 0.522481890910337 0.012034296833372649
0.20200856623762395 0.4325341180071862 0.012034296833372649
0.190842457961516 0.4250642580441856 0.012034296833372649
0.3352024444041302 0.4068580861205548 0.012034296833372649
0.21634657132195656 0.47890054452090913 0.012412517590992905
0.21125778294670172 0.5265219762758264 0.013753482095283018
0.19360175030688226 0.5308027475779835 0.013753482095283018
0.20154438621690815 0.4820810372554434 0.013753482095283018
0.3284890259563704 0.41865169701726 0.013753482095283018
0.16879390697751545 0.5156997050521007 0.014870952515524755
0.2082578046646682 0.3891590738491875 0.014870952515524755
0.33194458833281015 0.5231609690887917 0.015472667357193388
0.21492824348088044 0.4606857766709687 0.015472667357193388
0.20925493211657623 0.4039956426594741 0.015472667357193388
0.1686391803039435 0.4704163652533815 0.016590137777435125
0.31033442959059665 0.3973595875485 0.016590137777435125
0.30590752754117756 0.4093251169713961 0.01719185261910376
0.21085377441015282 0.46426168201574225 0.01719185261910376
0.17745000477123424 0.5315849768721526 0.01719185261910376
0.2850881940194429 0.5156997050521007 0.018309323039345494
0.35302179964383135 0.493058035152741 0.018309323039345494
0.33507350550948706 0.5251638199189174 0.01891103788101413
0.18040700342172003 0.5212096938165235 0.01891103788101413
0.16834691880941882 0.4477746953540217 0.020028508301255896
0.2255012328416293 0.4024827596289929 0.020028508301255896
0.32480137356957267 0.4101675177497323 0.02063022314292453
0.18039840749541056 0.4106574855493767 0.02063022314292453
0.20975349584253017 0.4383535601187529 0.02063022314292453
0.2156674931435019 0.48632742485236197 0.021747693563166266
0.3023831977542613 0.5218973679212877 0.0223494084048349
0.29477580297030787 0.4153938409459398 0.0223494084048349
0.17561907246729963 0.39517622226587384 0.0223494084048349
0.14922957869697542 0.5383413749514603 0.023982634403649734
0.3413313398628409 0.4024827596289929 0.023982634403649734
0.29885886796734495 0.5278113652222592 0.02406859366674527
0.184704966576496 0.5232297364992683 0.02406859366674527
0.21424916530242588 0.4275312888950271 0.02406859366674527
0.29577293042221586 0.5313614827881044 0.025787778928655667
0.21987949703518225 0.5355820826060942 0.025787778928655667
0.1678913347150126 0.4704163652533815 0.026217575244133238
0.33038012974447184 0.3889871553229964 0.026217575244133238
0.3253343210007647 0.5130435638224492 0.027506964190566006
0.21271909041932555 0.5326938513660848 0.027506964190566006
0.21028644327372237 0.4428664214312676 0.027506964190566006
0.2240141375900768 0.5156997050521007 0.02793676050604364
0.32889303449291935 0.5122355467493512 0.029226149452476407
0.3347038806781763 0.5260234125498725 0.029226149452476407
0.1858826084809046 0.41086378778080596 0.029226149452476407
0.35302179964383135 0.4817372002030613 0.029655945767953978
0.3411938050418879 0.5043788701024209 0.029655945767953978
0.3264689832736256 0.4125571852637877 0.030945334714386746
0.2959104652431687 0.3990014094736244 0.030945334714386746
0.20840393541193056 0.39672348900159315 0.030945334714386746
0.35302179964383135 0.42513302545466214 0.031375131029864375
0.17393427091062746 0.5408771732127783 0.031375131029864375
0.3289875896823244 0.4181703251439251 0.03266451997629715
0.1791949778120733 0.4107606366650913 0.03266451997629715
0.2073810201810939 0.4361615989098171 0.03266451997629715
0.2511256891704034 0.5156997050521007 0.033094316291774714
0.1664128353897696 0.5496708058274498 0.033094316291774714
0.32256643272908897 0.5206337667537834 0.034383705238207544
0.3355118977512741 0.5255248488239186 0.034383705238207544
0.18547859994435567 0.4361530029835076 0.034383705238207544
0.17371937275288876 0.5409889202548022 0.034813501553685115
0.3107814177586935 0.396938387159332 0.034813501553685115
0.33749755672878057 0.49984881693728717 0.03610289050011788
0.17898007965433446 0.5217426412477157 0.03610289050011788
0.20711454646549773 0.4556399679272618 0.03610289050011788
0.14922957869697542 0.37984108972963326 0.03722036092035965
0.14922957869697542 0.4364538604043419 0.03722036092035965
0.32848043003006083 0.48319850767568506 0.037822075762028284
0.1788339489070721 0.5212870571533096 0.037822075762028284
0.20697701164454496 0.441190215800905 0.037822075762028284
0.35302179964383135 0.4364538604043419 0.03893954618226999
0.32124266007741803 0.5209088363956892 0.03954126102393862
0.3319961638906675 0.4375713308245836 0.03954126102393862
0.17849870778099958 0.4762615951438768 0.03954126102393862
0.20900565025359913 0.39594125970742394 0.03954126102393862
0.273767359069763 0.42513302545466214 0.04065873144418039
0.16939562181918416 0.5400605602133708 0.04065873144418039
0.3069218468457046 0.5285678067374998 0.041260446285849024
0.3069218468457046 0.4019326203451815 0.041260446285849024
0.17331536421633983 0.4109411511175919 0.041260446285849024
0.33454915400460433 0.39806445350588326 0.04237791670609079
0.3411938050418879 0.4802672968041278 0.04237791670609079
0.16055041364665532 0.4477746953540217 0.04237791670609079
0.17962477412755087 0.4015543995875613 0.042979631547759425
0.32406212390695105 0.4108895755597346 0.042979631547759425
0.3344803865941279 0.5035192774714657 0.042979631547759425
0.35302179964383135 0.5270205400017804 0.04409710196800113
0.2511256891704034 0.40466612491161913 0.04409710196800113
0.33213369871162024 0.5014132755256255 0.044698816809669764
0.32585867250564743 0.41788665957570986 0.044698816809669764
0.1784299403705232 0.4070042168678172 0.044698816809669764
0.2032979551840568 0.4475426053436639 0.044698816809669764
0.31943751555241207 0.44463718225103543 0.04581628722991153
0.32808501741982127 0.5162412484096024 0.046418002071580165
0.32935721451363514 0.417826488091543 0.046418002071580165
0.17796576034980738 0.40740822540436605 0.046418002071580165
0.2179626054681522 0.39974925506255543 0.046418002071580165
0.33019101936566153 0.48799503455641496 0.04753547249182187
0.3255320273058844 0.5209776038061656 0.048137187333490504
0.3354603221934168 0.4304796916192034 0.048137187333490504
0.2085500661591929 0.4028953640918514 0.048137187333490504
0.2123494655880149 0.45599240090595344 0.048137187333490504
0.31905069886848236 0.4704163652533815 0.04925465775373227
0.3296408800818503 0.5102326959192258 0.049856372595400905
0.306131021625226 0.4011675829036314 0.049856372595400905
0.18093995085291237 0.5165163180515082 0.049856372595400905
0.16055041364665532 0.4817372002030613 0.05097384301564267
0.35302179964383135 0.4364538604043419 0.05097384301564267
0.16790852656763167 0.5214847634584292 0.051575557857311306
0.3215607093508715 0.4092993291924675 0.051575557857311306
0.3222827671608739 0.5138601768218567 0.051575557857311306
0.16777099174667878 0.5117713667286357 0.053294743119221645
0.30686167536153774 0.40843114063520275 0.053294743119221645
0.3227469471815897 0.51283726159102 0.053294743119221645
0.14922957869697542 0.5496708058274498 0.053655772024222836
0.21357008712397121 0.5237884717093891 0.055013928381132046
0.17021223481859157 0.4073996294780566 0.055013928381132046
0.3283171074301793 0.5164475506410316 0.055013928381132046
0.33038012974447184 0.37984108972963326 0.0563462969591126
0.16055041364665532 0.4477746953540217 0.0563462969591126
0.17710616771885213 0.4073996294780566 0.056733113643042385
0.33568381627746524 0.42516740915990026 0.056733113643042385
0.30584735605701063 0.5316107646510813 0.056733113643042385
0.17821504221278436 0.4056718482898366 0.058452298904952786
0.2997614402298479 0.4018294692294669 0.058452298904952786
0.32245468568706476 0.5140320953480475 0.058452298904952786
0.2850881940194429 0.5270205400017804 0.05902822596769276
0.1729113556797908 0.5216480860583105 0.06017148416686319
0.21717178024767345 0.3938610455405124 0.06017148416686319
0.32962368822923105 0.5148057287159072 0.06017148416686319
0.35302179964383135 0.41381219050498225 0.06171875090258252
0.14922957869697542 0.4477746953540217 0.06171875090258252
0.17667637140337455 0.4073996294780566 0.061890669428773526
0.3261251462212436 0.41613309060856124 0.061890669428773526
0.3074633902032063 0.5290835623160729 0.061890669428773526
0.17682250215063688 0.4069784290888885 0.06360985469068392
0.326116550294934 0.4159181924508225 0.06360985469068392
0.2967614619478143 0.5323070346821549 0.06360985469068392
0.14922957869697542 0.5496708058274498 0.06440067991116269
0.2127534741245638 0.5241065209828424 0.06532903995259426
0.16881109883013465 0.4086460387929416 0.06532903995259426
0.3273887473887477 0.5187856425972297 0.06532903995259426
0.16897442143001606 0.3888668123546627 0.06704822521450467
0.16055041364665532 0.5156997050521007 0.06704822521450467
0.16668790503167533 0.5214847634584292 0.06704822521450467
0.3219647178874204 0.4089125125085378 0.06704822521450467
0.3231079760865909 0.5131725027170925 0.06704822521450467
0.16655896613703206 0.5214847634584292 0.06876741047641506
0.32200769751896813 0.4088695328769899 0.06876741047641506
0.3231595516444482 0.5132154823486401 0.06876741047641506
0.35302179964383135 0.493058035152741 0.06977313385463262
0.18471356250280557 0.5292812686211926 0.0704865957383254
0.17186265267002548 0.4094712477186586 0.0704865957383254
0.3227555431078993 0.41613309060856124 0.0704865957383254
0.20668475015002016 0.528335716727142 0.07220578100023581
0.172197893796098 0.3969899627171893 0.07220578100023581
0.32171543602444347 0.41559154725105957 0.07220578100023581
0.22135799636042527 0.4024827596289929 0.07246365878952236
0.340445959452957 0.5302783960731008 0.07246365878952236
0.18236687462029794 0.5209776038061656 0.07392496626214615
0.18236687462029794 0.40950563142389673 0.07392496626214615
0.32661511402088794 0.5133444212432835 0.07392496626214615
0.3427496677039169 0.4313049005449203 0.07514558779810254
0.14922957869697542 0.4364538604043419 0.07514558779810254
0.1752924272675367 0.4004455250936292 0.07564415152405654
0.3219905056663492 0.412187560432477 0.07564415152405654
0.3064146871934411 0.5300806897679811 0.07564415152405654
0.328454642251132 0.4123852667375967 0.07736333678596695
0.16920651144037396 0.4150070242620099 0.07736333678596695
0.21591677500647885 0.5281466063483317 0.07736333678596695
0.35302179964383135 0.4364538604043419 0.07783611273299229
0.3044548159948632 0.5231867568677203 0.07908252204787729
0.30331155779569297 0.40150282402970394 0.07908252204787729
0.21569328092243054 0.40950563142389673 0.07908252204787729
0.21929497404613274 0.5156997050521007 0.08051804174157245
0.2211001185711387 0.5423298847590924 0.08051804174157245
0.3370591644869935 0.5158544317256727 0.08080170730978768
0.1764098976877785 0.4053280112374546 0.08080170730978768
0.18003737859040939 0.5247770032349874 0.08080170730978768
0.21678496356374358 0.5281637982009509 0.08252089257169802
0.3264345995683875 0.408637442866632 0.08252089257169802
0.3343428517731751 0.5133444212432835 0.08252089257169802
0.14922957869697542 0.37984108972963326 0.08320856667646222
0.14922957869697542 0.3925286769625318 0.08320856667646222
0.20714893017073596 0.40190683256625287 0.08424007783360843
0.33396463101555496 0.4023022451764923 0.08424007783360843
0.14922957869697542 0.5496708058274498 0.08595926309551882
0.3430075454932035 0.4969090101394203 0.08595926309551882
0.2106216843997949 0.5343356732912093 0.08595926309551882
0.2084383191171688 0.3927091914150324 0.08595926309551882
0.33053485641804375 0.5135937031062605 0.08595926309551882
0.1709600804075226 0.5339832403125174 0.08767844835742916
0.21775630323672296 0.4094024803081821 0.08767844835742916
0.30437745265807736 0.5232727161308159 0.08767844835742916
0.22630924991472712 0.5400691561396802 0.08858102061993214
0.2624465241200833 0.5256623836448713 0.08858102061993214
0.21161021592539345 0.4015887832927995 0.08939763361933956
0.30546053937308093 0.40057446398827246 0.08939763361933956
0.14922957869697542 0.3925286769625318 0.0911168188812499
0.20504292822489573 0.3879728360184693 0.0911168188812499
