0.4407888145831 0.36891718317691513 -0.2811224649159073
0.5919309447236246 0.26347038866796674 -0.2811224649159073
0.5459251671062516 0.4511325690820764 -0.2811224649159073
0.014612331803681053 0.31938443966535157 -0.28069129549118965
0.38715996153671883 0.30381922343304435 -0.28069129549118965
0.6396355298743854 0.40603224725661025 -0.28069129549118965
-0.011206093348411782 0.35371414926137074 -0.2793977872170368
0.07665761202055085 0.23763471673888523 -0.2793977872170368
-0.027659518595637166 0.4459844061509477 -0.2793977872170368
0.4726436116812398 0.3467981916888996 -0.2793977872170368
0.5625769302888471 0.2491469403788464 -0.2793977872170368
0.551237174418773 0.4492181768363301 -0.2793977872170368
0.6396355298743854 0.2971533441269095 -0.27896661779231907
0.04642401195934928 0.29246222078598155 -0.27827674671277086
0.40399281587769587 0.3492472340212959 -0.27827674671277086
0.6512167406223014 0.39176053929845617 -0.27827674671277086
0.021554159541635268 0.36727873936298794 -0.27767310951816615
-0.04610494658505829 0.2673509134904256 -0.27767310951816615
0.05063222554459353 0.24840532896833206 -0.27767310951816615
0.4390900070497124 0.3346478373003563 -0.27767310951816615
0.5089739474079491 0.2436365951309549 -0.27767310951816615
0.651130506737358 0.3200484405794167 -0.27767310951816615
0.6107471784183031 0.4209075924093692 -0.27767310951816615
0.5779438085857842 0.45146888123335616 -0.27724194009344855
0.4780159827132219 0.3378902313742331 -0.2765520690139002
0.6824592771373424 0.3492472340212959 -0.2765520690139002
0.027711258926603286 0.349885364769878 -0.2759484318192955
-0.030444873079313244 0.4381543693980752 -0.2759484318192955
0.09376641479334712 0.24270526917356475 -0.2759484318192955
0.4390900070497124 0.3346478373003563 -0.2759484318192955
0.513251148101148 0.23453892026941245 -0.2759484318192955
0.6427916900633188 0.3082257749536587 -0.2759484318192955
0.5791252128095106 0.4418969200046244 -0.2759484318192955
-0.021718003923028018 0.3606042366683587 -0.27482739131502965
0.590689176780438 0.2524496981721837 -0.27482739131502965
0.6211987252734588 0.38502567288436645 -0.27482739131502965
0.6393164645000944 0.37739397406686404 -0.27422375412042493
0.5178991544996044 0.2330298272829007 -0.27422375412042493
0.4592342425725211 0.3366657102080349 -0.27422375412042493
-0.059764393960113446 0.2741461436239757 -0.27422375412042493
-0.07701117094881942 0.40792076933687366 -0.27422375412042493
0.0016772490621515762 0.33322497819878805 -0.27422375412042493
0.5975620174104374 0.4385596686573098 -0.2737925846957073
0.4780159827132219 0.3378902313742331 -0.27310271361615907
0.6218972197415015 0.42288234837457606 -0.27310271361615907
0.6202329057620912 0.4033072564923948 -0.27249907642155435
0.528980208714848 0.24947462914163193 -0.27249907642155435
0.45629366709594665 0.36350169520246145 -0.27249907642155435
0.04003408108503372 0.45638421267513746 -0.27249907642155435
0.08798874450213061 0.23260728124667746 -0.27249907642155435
-0.010248897225538563 0.3569479199467531 -0.27249907642155435
-0.010361001275965199 0.29109110201537935 -0.2713780359172885
0.38715996153671883 0.3606042366683587 -0.2713780359172885
0.012663446003957288 0.3670890248161123 -0.2707743987226838
-0.06120449983867028 0.3436075379459891 -0.2707743987226838
0.06624918210786672 0.45813476053949115 -0.2707743987226838
0.4614677001925584 0.3599919760852597 -0.2707743987226838
0.6335646643743609 0.30865694437837643 -0.2707743987226838
0.6349702766989406 0.3031552225189792 -0.2707743987226838
0.608427486913322 0.2660315350507895 -0.2703432292979661
0.4423841414545553 0.3753502309937024 -0.26965335821841785
0.6590209072096909 0.3833182419624845 -0.26965335821841785
0.03305775979310217 0.3403220269296406 -0.26904972102381314
0.0803484222961339 0.4649472374500299 -0.26904972102381314
-0.07181989107521888 0.28694325214959565 -0.26904972102381314
0.5690875886020836 0.25721843200956085 -0.26904972102381314
0.6159815752343752 0.2861757705735982 -0.26904972102381314
0.5417514470749847 0.44166408851527683 -0.26904972102381314
0.010602456153807008 0.462825883880419 -0.26792868051954727
0.6636257966656756 0.3719612393154217 -0.26792868051954727
-0.013387810637483089 0.35815519433596255 -0.26732504332494256
-0.006083800582766037 0.250086889724731 -0.26732504332494256
-0.04394909946147004 0.4270819385713259 -0.26732504332494256
0.430647709713741 0.35821555805542304 -0.26732504332494256
0.6562355527260151 0.35481794298864794 -0.26732504332494256
0.6070304979772367 0.4285824081693434 -0.26732504332494256
0.0577810146064121 0.4722943644472187 -0.2662040028206767
0.6824592771373424 0.3492472340212959 -0.2662040028206767
0.03417017690887363 0.35438677356393034 -0.265600365626072
-0.057781014606412225 0.4188293557822302 -0.265600365626072
0.03210056367022896 0.23797965227865928 -0.265600365626072
0.4329415310532388 0.336277657725789 -0.265600365626072
0.6639707322054496 0.34277106926203676 -0.265600365626072
0.6262606543196441 0.2829678700536988 -0.2651691962013543
0.38715996153671883 0.3719612393154217 -0.26447932512180605
0.64844000952712 0.39467524460954745 -0.26447932512180605
0.01995020928168555 0.32651598195018144 -0.26387568792720134
0.06198060480316208 0.23529777845691557 -0.26387568792720134
-0.07094892883728925 0.4096540704242385 -0.26387568792720134
0.5720885277981186 0.26277189419992414 -0.26387568792720134
0.6307793098906851 0.30014565993444997 -0.26387568792720134
-0.010361001275965199 0.29109110201537935 -0.2634445185024837
0.46959093215423897 0.3295082977577219 -0.2634445185024837
-0.0066701910003820215 0.34189148363561284 -0.26215101022833076
0.03165214746852267 0.45528904233635453 -0.26215101022833076
0.060997538514805806 0.233866295966853 -0.26215101022833076
0.4337090126292362 0.34162415859228784 -0.26215101022833076
0.5943454935020435 0.42834957667999585 -0.26215101022833076
0.603494908694552 0.2681960055628722 -0.26215101022833076
-0.03307500657009084 0.24702558680923561 -0.2610299697240649
0.45925148934950966 0.3753502309937024 -0.2610299697240649
0.016311139337068615 0.36610595852775596 -0.2604263325294602
0.06076470702545826 0.2383073410414448 -0.2604263325294602
0.056901428979988185 0.46724968217802215 -0.2604263325294602
0.4423151543466004 0.33255235389622845 -0.2604263325294602
0.6263468882045875 0.3980383661223451 -0.2604263325294602
0.6312191027038969 0.315512538231387 -0.2604263325294602
0.04212956448916145 0.2282697168340179 -0.25930529202519426
0.5234526166899678 0.39467524460954745 -0.25930529202519426
0.653010405429127 0.3866554933097991 -0.25930529202519426
-0.059298730981418364 0.42813399196763696 -0.25870165483058954
-0.023770370384684027 0.2615818665877035 -0.25870165483058954
0.4656500436123197 0.3525413684261388 -0.25870165483058954
0.6609008059014599 0.35454199455682867 -0.25870165483058954
0.589050732966511 0.260667787407302 -0.25870165483058954
-0.029979210100618166 0.24702558680923561 -0.2575806143263237
0.4721693253140506 0.33200045703258996 -0.2575806143263237
0.0033933033725279263 0.3660197246428124 -0.25697697713171896
-0.05587524574916018 0.268799642757477 -0.25697697713171896
0.04164665473347771 0.4636192356218996 -0.25697697713171896
0.45468971683599696 0.3309139100823014 -0.25697697713171896
0.6056248856526574 0.41818260164515364 -0.25697697713171896
0.632857546517824 0.317245839318752 -0.25697697713171896
-0.030263781920931824 0.24702558680923561 -0.2558559366274531
0.4780159827132219 0.3378902313742331 -0.2558559366274531
0.008929518785902507 0.33126746901056997 -0.2552522994328484
0.02490865766593854 0.2456889615926109 -0.2552522994328484
-0.08034842229613402 0.28924569687758783 -0.2552522994328484
0.4670642793253935 0.3585432468182084 -0.2552522994328484
0.6156970034140615 0.4114132416770866 -0.2552522994328484
0.6197931129488794 0.41641480700381134 -0.2552522994328484
0.04642401195934928 0.3024481046624422 -0.2541312589285825
0.38715996153671883 0.3492472340212959 -0.2541312589285825
0.031203731266816255 0.34811757012853567 -0.2535276217339778
-0.06899141964907107 0.4303674495876744 -0.2535276217339778
-8.58027155188175E-4 0.4415519844648502 -0.2535276217339778
0.430647709713741 0.35821555805542304 -0.2535276217339778
0.6622029375641071 0.35289492735440725 -0.2535276217339778
0.6708521962239433 0.3265332287271701 -0.25309645230926014
0.5007299880073476 0.3378902313742331 -0.2524065812297119
0.021605899872601385 0.3672528691975049 -0.25180294403510717
-0.01807031058991669 0.4438026888618764 -0.25180294403510717
0.012568588730519442 0.2421533723099262 -0.25180294403510717
0.44627328966550844 0.327654269231436 -0.25180294403510717
0.6559768510711844 0.3638380073537411 -0.25180294403510717
0.6797687799271043 0.3265332287271701 -0.25137177461038956
0.4661846936989695 0.3719612393154217 -0.2506819035308413
-0.0021860289833185035 0.33152617066540047 -0.2500782663362366
0.018294518690769836 0.4535126243065178 -0.2500782663362366
-0.004850656028073554 0.44064652867294324 -0.2500782663362366
0.4329415310532388 0.36219956353981403 -0.2500782663362366
0.6326247150284766 0.2992402041425429 -0.2500782663362366
0.4780159827132219 0.35280869346946364 -0.2489572258319707
-0.024451618075737855 0.23566858416217268 -0.2489572258319707
-0.07445864795449088 0.4142244663262456 -0.24835358863736598
0.04599284253463165 0.4622567402397917 -0.24835358863736598
0.4357096387599261 0.35087705444672856 -0.24835358863736598
0.6419983383218382 0.31753903452755994 -0.24835358863736598
0.46730573420323535 0.3711678875739412 -0.24792241921264832
-0.020295144821459724 0.24396428389374028 -0.24792241921264832
-0.06148044827048967 0.42984142288951893 -0.2466289109384954
0.0062217747986756085 0.2562957294406651 -0.2466289109384954
0.46944433454983503 0.35119611982101967 -0.2466289109384954
0.6643760314646842 0.3419777175205563 -0.2466289109384954
0.4695995555427334 0.36895167673089246 -0.2452319220024102
0.02771988231509768 0.35159279569175994 -0.2449042332396248
-0.03830077999766883 0.2620130360124211 -0.2449042332396248
0.06590424656809267 0.45363335174543884 -0.2449042332396248
0.4398143716832381 0.36438990421737977 -0.2449042332396248
0.6690757781941067 0.3440387073707067 -0.2449042332396248
0.018751558280970523 0.3724527724595998 -0.2431795555407542
0.047907234780377964 0.45534078266732064 -0.2431795555407542
0.4370117704225735 0.34266758860010454 -0.2431795555407542
0.6639621088169552 0.3426934587655876 -0.2431795555407542
0.014612331803681053 0.31938443966535157 -0.24254142479217208
0.020812548131120923 0.36354481214493317 -0.24145487784188358
-0.06120449983867028 0.3892856268005768 -0.24145487784188358
0.05762579361351374 0.4663873433285869 -0.24145487784188358
0.43459722164415465 0.3586036105376688 -0.24145487784188358
0.06913801725347504 0.3151762260801073 -0.239730200143013
0.0018669636090273898 0.3330956273713727 -0.239730200143013
-0.06120449983867028 0.37474659379909764 -0.239730200143013
-0.08121938453406367 0.27014489136259595 -0.239730200143013
0.4724107801918924 0.35385212347728046 -0.239730200143013
-0.0021860289833185035 0.33152617066540047 -0.23800552244414241
-0.05680657170655034 0.27295611601175507 -0.23800552244414241
0.4396246571363624 0.33895953154753283 -0.23800552244414241
-0.010361001275965199 0.2811052181389186 -0.23716043037169582
0.38715996153671883 0.3265332287271701 -0.23716043037169582
-0.06120449983867028 0.42398614210185326 -0.2362808447452718
0.024701696342074062 0.44589817226600414 -0.2362808447452718
0.4728678197820931 0.34805720640907517 -0.2362808447452718
0.5234526166899678 0.3606042366683587 -0.23455616704640123
0.010783547312188429 0.32439462838057054 -0.23455616704640123
0.001780729724083816 0.24559410431917306 -0.23455616704640123
0.464684224100952 0.3366657102080349 -0.23455616704640123
0.4724107801918924 0.35385212347728046 -0.2328314893475306
9.011440976599007E-4 0.32602444880600334 -0.2328314893475306
-0.06219618951552096 0.2649191179350181 -0.2328314893475306
0.03941319711344028 0.3554819439027131 -0.23177943595121953
0.4675299423040886 0.34079631329682997 -0.23110681164866
0.02247686211053103 0.3318366126511972 -0.23110681164866
-0.038412884048095335 0.2569252368007528 -0.23110681164866
0.4382880319197377 0.3353204616029159 -0.22938213394978943
0.02247686211053103 0.3318366126511972 -0.22938213394978943
-0.009283077714171075 0.4409138537162681 -0.22938213394978943
-0.021718003923028018 0.3378902313742331 -0.22908893874098143
0.45305127302206993 0.3642691767784588 -0.22765745625091882
0.008705310685049362 0.37071947137223477 -0.22765745625091882
-0.03327334450546105 0.4428541161274976 -0.22765745625091882
-0.04443200921715378 0.3151762260801073 -0.2263984415307433
0.5234526166899678 0.30381922343304435 -0.2263984415307433
0.01718210157499826 0.3327248216661156 -0.22593277855204824
-0.033816617980605305 0.4385424218803211 -0.22593277855204824
0.45612982271455393 0.3634844484254727 -0.2242081008531776
-0.010248897225538563 0.3569479199467531 -0.2242081008531776
-0.07739060004257092 0.2857101075949032 -0.2242081008531776
-0.010093676232640205 0.3719612393154217 -0.22370794432050514
0.4386070972940286 0.3401840527137309 -0.22248342315430703
-0.011568275665174498 0.34966978005751925 -0.22248342315430703
-0.07268222992465413 0.2700586574776524 -0.22248342315430703
0.06913801725347504 0.3606042366683587 -0.22101744711026702
0.4584322674425461 0.33212980786000523 -0.22075874545543644
0.014267396263907004 0.3281802959295916 -0.22075874545543644
-0.04882993734927385 0.2707743987226838 -0.22075874545543644
0.44320336336151883 0.3663474134055979 -0.21903406775656584
-0.013387810637483089 0.35815519433596255 -0.21903406775656584
-0.04908001561561006 0.2588051354925218 -0.21903406775656584
0.4780159827132219 0.3456685277961394 -0.2183269499000289
0.4288885384608929 0.3479968426896147 -0.21730939005769526
-0.06120449983867028 0.2866155633868101 -0.21730939005769526
0.04642401195934928 0.30162888275547867 -0.21558471235882462
0.5234526166899678 0.3151762260801073 -0.21558471235882462
-0.002255016091273289 0.3358119947470939 -0.21558471235882462
-0.07291506141400167 0.28089825681505415 -0.21558471235882462
0.47049638794614596 0.33923547997935205 -0.21386003465995404
0.03454960600262526 0.34824692095595094 -0.21386003465995404
0.06913801725347504 0.37333235808602383 -0.21294595547955264
0.4659691089866106 0.360242054351596 -0.21213535696108346
0.03448061889467035 0.34696203607029236 -0.21213535696108346
-0.07112139660717627 0.30842411288902893 -0.21213535696108346
0.4212309694779074 0.3492472340212959 -0.21041067926221285
0.435735508925409 0.3466257239190126 -0.21041067926221285
0.027193855616942087 0.34458198084585095 -0.20868600156334227
0.46911664578704954 0.3531967459517096 -0.20868600156334227
0.06913801725347504 0.3833182419624845 -0.20756496105907635
0.031203731266816255 0.34811757012853567 -0.20696132386447164
0.4378223689410426 0.3313881964494909 -0.20696132386447164
0.01995020928168555 0.32651598195018144 -0.20523664616560106
-0.04443200921715378 0.30381922343304435 -0.20492620417980437
0.45925148934950966 0.3231269902719007 -0.20492620417980437
0.45521574353415256 0.3346823308543338 -0.20351196846673048
-0.005316319006768633 0.3753933479361741 -0.20228744730053236
0.002073924932891869 0.33295765315546316 -0.20178729076785987
0.4618212591208269 0.3340873170482234 -0.20178729076785987
0.03417017690887363 0.35438677356393034 -0.2000626130689893
0.441814997813928 0.36940009293259884 -0.2000626130689893
0.4780159827132219 0.3606042366683587 -0.19964869042126032
0.030686327957155056 0.33567402053118434 -0.19833793537011865
0.4212309694779074 0.35841389599079315 -0.1970099335419883
-0.006911645878223955 0.3744016582593236 -0.1970099335419883
0.02634014015600111 0.3565857376299903 -0.19661325767124807
0.4441691828728863 0.33174175537775935 -0.19661325767124807
0.031083003827895347 0.3458754891200038 -0.1948885799723775
0.46560692666984776 0.36563167216056663 -0.1948885799723775
0.051054771580816886 0.3151762260801073 -0.19437117666271628
-0.024451618075737855 0.38605185611519444 -0.19437117666271628
-0.014500227753254543 0.3440818243131784 -0.19316390227350685
-0.04443200921715378 0.3265332287271701 -0.19273273284878922
0.06913801725347504 0.3606042366683587 -0.19181003027989346
0.40316497058223794 0.3492472340212959 -0.19181003027989346
0.435735508925409 0.3466257239190126 -0.1914392245746363
-0.008067179936467259 0.31803919106023243 -0.18971454687576567
0.035636152952913655 0.37013308095461883 -0.18971454687576567
0.46890106107469065 0.3443922662989751 -0.18971454687576567
0.00987809152028133 0.3010942326688288 -0.18925750728556498
0.044087073677379615 0.36871022185305063 -0.1879898691768951
-0.022718316988372962 0.34192597718959017 -0.1879898691768951
0.0048161624740961 0.3821972014582186 -0.1879898691768951
-0.010361001275965199 0.2811052181389186 -0.1866963609027421
0.42583585893389186 0.3378902313742331 -0.1866963609027421
-0.005523280330633112 0.3891821461386446 -0.1862651914780245
-0.009834974577809606 0.34046000114555014 -0.1862651914780245
0.4693494772763972 0.3502216769211578 -0.1862651914780245
-0.027685388761120224 0.33704513930178637 -0.18454051377915387
0.008144790432916315 0.32118672786067126 -0.18454051377915387
0.47049638794614596 0.33923547997935205 -0.18454051377915387
0.47579977187017314 0.3378902313742331 -0.1841352145199193
0.010757677146705369 0.30981247843661974 -0.18281583608028332
0.013646512292313565 0.37910140498874595 -0.18281583608028332
0.45012794432248426 0.364493384879312 -0.18281583608028332
0.04642401195934928 0.39686558528711313 -0.18158269152559084
-0.02130408127529906 0.3311381181831547 -0.18109115838141268
0.052339656466475364 0.34479756555820973 -0.18109115838141268
0.024917281054432937 0.3335699137385622 -0.18109115838141268
0.4294835522670032 0.3435471742265286 -0.18109115838141268
-0.03266970731085628 0.35365378554191024 -0.17936648068254213
-0.004652318092703469 0.35042001485652785 -0.17936648068254213
0.43566652181745436 0.360242054351596 -0.17936648068254213
0.4354423137166011 0.3719612393154217 -0.17902154514276797
-0.01788921943153527 0.37713527241203343 -0.17764180298367152
-0.022718316988372962 0.3564391400255863 -0.17764180298367152
0.43556304115552213 0.3485487395532533 -0.17764180298367152
0.06913801725347504 0.3833182419624845 -0.17646039875994515
0.035455061794532235 0.3744965155327614 -0.17591712528480088
-0.011576899053668892 0.31219253366106114 -0.17591712528480088
0.46607258964854287 0.34992848171234975 -0.17591712528480088
0.4632958585533614 0.3352859680489384 -0.17419244758593033
0.014284643040895668 0.3701675745085963 -0.17419244758593033
0.5007299880073476 0.3378902313742331 -0.17390787576561667
0.45873408603984844 0.36985713252279956 -0.1724677698870597
0.018527350180117377 0.3687878323494998 -0.1724677698870597
0.015379813379678581 0.3940198670839765 -0.17134672938279386
0.4286470835830511 0.36540746405971336 -0.17134672938279386
0.02440850113326613 0.3492386106328015 -0.17074309218818914
0.43219129625423 0.34961803972655314 -0.16901841448931854
0.025908970731283485 0.3410463915631663 -0.16901841448931854
-0.029211728524620763 0.3242911477186383 -0.16863036200707263
0.4212309694779074 0.3492472340212959 -0.16863036200707263
0.015664385199992116 0.362613486187543 -0.1672937367904479
0.47632579856832874 0.3593452219481833 -0.16590537124285712
0.4459887178451949 0.36372590330331456 -0.16556905909157735
0.0016427555081742447 0.3331646144793276 -0.16556905909157735
0.4714363372920305 0.3413223399949855 -0.1638443813927067
0.5234526166899678 0.29246222078598155 -0.1631890038671359
0.06913801725347504 0.3606042366683587 -0.1631890038671359
-0.001513404680758945 0.3400460784978213 -0.16211970369383616
0.47579977187017314 0.3378902313742331 -0.16039502599496555
0.439762631352272 0.33413043399069514 -0.16039502599496555
0.031229601432299314 0.3492386106328015 -0.16039502599496555
0.4397798781292608 0.3683652863132765 -0.15867034829609492
0.38715996153671883 0.3378902313742331 -0.15774764572719915
0.4360373275227116 0.3453925793643201 -0.15694567059722436
0.027866479919501645 0.3492386106328015 -0.15694567059722436
0.4449711580028613 0.36702003770815744 -0.15522099289835373
1.1641574467370844E-4 0.33017229867178705 -0.15522099289835373
0.0577810146064121 0.30381922343304435 -0.15503127835147798
0.42887991507239853 0.3502647938636295 -0.15349631519948317
0.38715996153671883 0.3606042366683587 -0.15230628758726242
0.4513265953231994 0.33397521299779676 -0.15177163750061257
0.021235094167344152 0.3632171233821478 -0.15177163750061257
0.43374350618321356 0.3569134263927757 -0.15004695980174193
0.01853597356861177 0.32968938891610333 -0.15004695980174193
-0.03307500657009084 0.29246222078598155 -0.14958992021154124
0.4344075070972787 0.3344667461419749 -0.14832228210287138
0.43258797212497035 0.3707022245952461 -0.14687355283582007
0.4636839110356072 0.3410118980091888 -0.14659760440400074
0.006083800582766037 0.36689068688074217 -0.14659760440400074
0.42876781102197187 0.3480830765745582 -0.1448729267051302
0.030496613410279365 0.34367652505394386 -0.1448729267051302
-0.010361001275965199 0.29027188010841587 -0.1441485620716045
0.024158422866929805 0.3511185093245705 -0.14314824900625955
0.4109863839466162 0.3606042366683587 -0.14142357130738895
0.4603897766307643 0.3609491722081329 -0.14142357130738895
-0.006239021575664396 0.3410463915631663 -0.14142357130738895
0.45766478586654874 0.32824928303754636 -0.1396988936085184
0.023321954182977615 0.36585588026141974 -0.1396988936085184
0.06913801725347504 0.3492472340212959 -0.13870720393166777
-0.002341249976216863 0.35714625788212323 -0.13797421590964776
0.45160254375501857 0.33053448098854993 -0.1362495382107772
0.02646949098341641 0.36270834346098096 -0.1362495382107772
-0.05578901186421661 0.3606042366683587 -0.1359908365559466
0.4727384689546779 0.34793647897015423 -0.13452486051190657
0.38715996153671883 0.30381922343304435 -0.13327446918022537
0.023951461543065447 0.3719612393154217 -0.13327446918022537
-0.001513404680758945 0.3400460784978213 -0.13280018281303596
0.4665554994042267 0.3390975057634424 -0.1310755051141654
0.009834974577809606 0.3706418608757856 -0.1310755051141654
-0.014388123702828031 0.3378902313742331 -0.13054947841600986
0.4672367470952807 0.36399322834663944 -0.12935082741529477
0.46621918725294703 0.3265332287271701 -0.12783311104028863
-0.004281512387446236 0.3719612393154217 -0.12783311104028863
0.012844537162338706 0.3349496558976586 -0.12762614971642422
0.4695133216577897 0.350152689813203 -0.12590147201755358
-0.006799541827797321 0.36270834346098096 -0.12590147201755358
0.0028672766743723333 0.32340293870372 -0.12510812027607313
0.4496881515092724 0.3712886150128621 -0.12417679431868298
0.4354164435511182 0.3265332287271701 -0.12245211661981241
-0.03854223487551064 0.3719612393154217 -0.12245211661981241
0.023899721212099326 0.3453580858103428 -0.12245211661981241
0.4609589202713916 0.36497629463499576 -0.12072743892094179
-0.010826664254660154 0.34367652505394386 -0.12072743892094179
0.06913801725347504 0.3265332287271701 -0.11967538552463074
0.4329501544417332 0.36221681031680286 -0.11900276122207123
0.4646411071584803 0.35555093101066787 -0.11727808352320061
-0.008196530763882558 0.3492386106328015 -0.11727808352320061
0.38715996153671883 0.39467524460954745 -0.11695039476041523
0.4382880319197377 0.3631567596626873 -0.11555340582432999
0.01024027383704417 0.3278526071668062 -0.11555340582432999
0.04642401195934928 0.30162888275547867 -0.114234027384694
0.4294835522670032 0.3435471742265286 -0.11382872812545942
0.4420047123608037 0.3616217965106925 -0.1121040504265888
0.005083487517421093 0.33184523603969157 -0.1121040504265888
0.0577810146064121 0.39467524460954745 -0.11151766000897283
0.42876781102197187 0.3480830765745582 -0.11037937272771825
-0.00418665511400839 0.3378816079857387 -0.11037937272771825
0.06913801725347504 0.3833182419624845 -0.10865469502884763
0.4346403385866264 0.33982187039696804 -0.10865469502884763
-0.006239021575664396 0.3574308297024369 -0.10865469502884763
0.4378223689410426 0.3313881964494909 -0.106930017329977
0.01030063755650456 0.33121572867960386 -0.106930017329977
0.04642401195934928 0.39686558528711313 -0.10607630186903609
0.4294835522670032 0.3435471742265286 -0.10520533963110644
-0.007480789518851273 0.3539469807507183 -0.10520533963110644
0.38715996153671883 0.39467524460954745 -0.10348066193223582
-0.00418665511400839 0.3378816079857387 -0.10348066193223582
0.00400556395562697 0.362613486187543 -0.10175598423336527
0.44835152629264763 0.3605093793949209 -0.10175598423336527
0.47373878202002273 0.3325092369537567 -0.10063494372909935
0.016802672481246755 0.32340293870372 -0.10063494372909935
-0.009231337383204955 0.3589571694659374 -0.10003130653449464
0.009834974577809606 0.36727873936298794 -0.09830662883562402
0.4508178154020326 0.36413120256254916 -0.09830662883562402
0.5234526166899678 0.3719612393154217 -0.09788408279940072
0.027236972559413937 0.35397285091620134 -0.09658195113675346
0.437218731746438 0.3431849919097657 -0.09658195113675346
-0.004738551977647043 0.3492386106328015 -0.09485727343788283
0.46222655838006144 0.3504372616335167 -0.09485727343788283
-0.009231337383204955 0.3395200517996657 -0.09313259573901228
0.4780159827132219 0.3606042366683587 -0.09239098432849788
-0.00418665511400839 0.3378816079857387 -0.09140791804014166
0.4613642195306262 0.35975052120741785 -0.09140791804014166
0.034049449469952725 0.3606042366683587 -0.08968324034127104
0.4429015447642165 0.3509201713892004 -0.08968324034127104
0.01851872679162298 0.3687964557379941 -0.08795856264240047
0.41452197322930084 0.3378902313742331 -0.08689788585759502
0.00400556395562697 0.362613486187543 -0.08623388494352985
0.448506747285546 0.3345271098614354 -0.08623388494352985
0.01851872679162298 0.3687964557379941 -0.0845092072446593
0.38715996153671883 0.3719612393154217 -0.08414702492789645
-0.001565145011725065 0.3632171233821478 -0.08278452954578867
0.5234526166899678 0.30381922343304435 -0.08140478738669223
0.019622520518900163 0.33860597261926434 -0.08105985184691805
0.4415218026051201 0.35607695770882347 -0.08105985184691805
0.022390628225587454 0.33191422314764635 -0.07933517414804749
0.46665898006615897 0.33663121665405754 -0.0786539264569936
0.025908970731283485 0.3410463915631663 -0.07761049644917686
0.43614080818464385 0.3512996004829519 -0.07761049644917686
-0.05578901186421661 0.3619753554389609 -0.07588581875030631
0.4589324239752188 0.34102914478617746 -0.07588581875030631
-0.010145416563606324 0.3568875562272926 -0.07416114105143569
0.41452197322930084 0.3606042366683587 -0.07316082798609075
-0.007601516957772179 0.34463372117681706 -0.07243646335256507
0.4655465629503875 0.347686400703818 -0.07243646335256507
0.4443244038657847 0.3443836429104809 -0.0707117856536945
0.38715996153671883 0.39467524460954745 -0.07040996705639212
-0.007437672576379425 0.3542401759595262 -0.06898710795482388
0.38715996153671883 0.30381922343304435 -0.06766772951518789
0.022882161369765595 0.3427107055425764 -0.06726243025595333
0.4410992565688967 0.3553525930752978 -0.06726243025595333
0.01853597356861177 0.32968938891610333 -0.0655377525570827
0.46665898006615897 0.33663121665405754 -0.06491686858548926
0.025934840896766544 0.3411067552826267 -0.06381307485821208
0.43952979986292456 0.3588795589694882 -0.06381307485821208
0.0028672766743723333 0.37507428256188313 -0.062088397159341516
0.4429015447642165 0.34934209129473376 -0.062088397159341516
0.016466360329966977 0.3695811840909803 -0.060363719460470894
0.4212309694779074 0.35841389599079315 -0.059423770114586404
0.003367433207044866 0.3622426804822859 -0.058639041761600334
0.448506747285546 0.3345271098614354 -0.058639041761600334
0.027150738674470362 0.36182013444606254 -0.05691436406272971
0.5234526166899678 0.3606042366683587 -0.05667290918488784
0.013594771961347445 0.3668044529957986 -0.05518968636385909
0.448506747285546 0.3345271098614354 -0.05518968636385909
0.0011684691409847717 0.3375021788919872 -0.05346500866498853
0.4613555961421318 0.3539297339737296 -0.05346500866498853
-0.008688063908060697 0.3385197387343208 -0.05174033096611791
0.4700910886869114 0.35544745034873565 -0.05117981071398499
7.545464932558126E-4 0.33365614762350565 -0.05001565326724735
0.4579062407443908 0.36228579742475764 -0.05001565326724735
0.06913801725347504 0.3606042366683587 -0.04829097556837673
0.4490241505952072 0.35713763449362895 -0.04829097556837673
0.029375572906013392 0.3579654797890867 -0.046566297869506106
0.38715996153671883 0.3378902313742331 -0.04568671224308213
0.020588340030267778 0.35899166301991475 -0.044841620170635546
0.43592522347228496 0.3492386106328015 -0.044841620170635546
0.031203731266816255 0.35035965113706746 -0.043116942471764924
0.5007299880073476 0.3492472340212959 -0.042935851313383504
0.01717347818650399 0.3657179060455101 -0.041392264772894365
0.4484981238970516 0.3345271098614354 -0.041392264772894365
0.0011684691409847717 0.3375021788919872 -0.03966758707402374
0.4570439018949553 0.3589571694659374 -0.03966758707402374
0.006497723230494996 0.3281026854331424 -0.03794290937515312
0.46758168263505473 0.3378902313742331 -0.03744275284248065
0.01885503894290276 0.33361303068103393 -0.03621823167628256
0.43952979986292456 0.3588795589694882 -0.03621823167628256
0.0028672766743723333 0.37507428256188313 -0.03470051530127642
0.44260834955540856 0.34112400205961546 -0.03449355397741194
1.1641574467370844E-4 0.3683049225938159 -0.03276887627854138
0.43258797212497035 0.3606042366683587 -0.0319496543715778
-0.007541153238311665 0.3537313960383594 -0.031044198579670758
0.4647704579858957 0.3442456686945712 -0.031044198579670758
0.03405807285844712 0.3378902313742331 -0.029319520880800136
0.4573026035497859 0.3540935783551223 -0.029319520880800136
0.02775437586907501 0.34834177822938883 -0.027594843181929576
0.5234526166899678 0.3265332287271701 -0.026456555900675003
0.023960084931559718 0.35290355074290164 -0.025870165483058954
0.43608906785367774 0.35078219717329073 -0.025870165483058954
0.03106575705090656 0.3477381410347842 -0.024145487784188395
0.5007299880073476 0.3378902313742331 -0.023705694970976375
0.02542606097559974 0.35831041532886093 -0.022420810085317773
0.43952979986292456 0.33959766229611493 -0.022420810085317773
-0.004281512387446236 0.3455736705227015 -0.02069613238644715
0.46222655838006144 0.3504372616335167 -0.02069613238644715
-0.006066553805777372 0.3349151623436812 -0.01897145468757659
0.4710655315867733 0.3492472340212959 -0.018212596500073522
0.0070237499286504666 0.33141406661497397 -0.01724677698870597
0.45391361187150514 0.3638035137997638 -0.01724677698870597
0.06913801725347504 0.3719612393154217 -0.01552209928983541
0.4429015447642165 0.34934209129473376 -0.01552209928983541
0.01856184373409483 0.3687792089610054 -0.013797421590964788
0.4212309694779074 0.35841389599079315 -0.012719498029170665
7.372997162671469E-4 0.36064735361083056 -0.012072743892094166
0.4524821293814426 0.33450986308444663 -0.012072743892094166
0.017466673395311917 0.36913276788927385 -0.010348066193223607
0.38715996153671883 0.3833182419624845 -0.00996863709947204
0.001927327328487904 0.3654419576136908 -0.008623388494352985
0.5234526166899678 0.29246222078598155 -0.00722639955826781
0.01590584007783405 0.33604482623644144 -0.006898710795482425
0.4513265953231994 0.36071634071878533 -0.006898710795482425
0.020536599699301657 0.3307069487584369 -0.005174033096611803
0.46665898006615897 0.33663121665405754 -0.004475538628569185
0.02589172395429482 0.3412188593330533 -0.003449355397741182
0.4366582114943048 0.35384350008878607 -0.003449355397741182
-0.05578901186421661 0.3619753554389609 -0.0017246776988706215
0.45114550416481786 0.3377091402158517 -0.0017246776988706215
-0.011300950621849628 0.35258448536861053 0.0
0.4780159827132219 0.36977089863785595 0.0010175598423336704
-0.005756111819980652 0.34016680593674226 0.0017246776988705604
0.4652016274106132 0.3530932652897773 0.0017246776988705604
0.45682831718259664 0.34382312265834786 0.003449355397741182
-0.04443200921715378 0.3833182419624845 0.003768420772032234
-0.010835287643154548 0.3437196419964156 0.005174033096611803
0.43258797212497035 0.3378902313742331 0.006519281701730859
0.01841524612969074 0.36105265287006516 0.006898710795482364
0.4364340033934518 0.34538395597582583 0.006898710795482364
0.028358013063679785 0.35995748253128235 0.008623388494352985
0.5007299880073476 0.3606042366683587 0.00926151924293509
0.013646512292313565 0.3668648167152591 0.010348066193223546
0.4525338697124087 0.33450986308444663 0.010348066193223546
0.019519039856967926 0.33832140079895073 0.012072743892094166
0.45224929789209517 0.3606818471648079 0.012072743892094166
0.01647498371846137 0.32889603717462285 0.013797421590964788
0.46665898006615897 0.32872356940473585 0.014754617713837945
0.025003514939376508 0.3394683114686996 0.01552209928983535
0.43664958810581067 0.3538348767002917 0.01552209928983535
0.44307401253410345 0.35163591263423166 0.01724677698870597
0.023710006665223514 0.4173892499036732 0.01750547864353657
0.02779749281154686 0.3376056595539194 0.01897145468757653
0.41452197322930084 0.3606042366683587 0.020256339573235135
-0.008187907375388163 0.34829003789842267 0.02069613238644715
0.4656586670008139 0.3488505581505556 0.02069613238644715
0.45411194980687525 0.341848366693141 0.022420810085317773
-0.04443200921715378 0.3833182419624845 0.022998577114439426
-0.010835287643154548 0.3437196419964156 0.024145487784188333
0.43258797212497035 0.32872356940473585 0.025870165483058954
-1.2935082741591242E-5 0.36000059947375407 0.025870165483058954
0.44085780169105493 0.3381748031945466 0.025870165483058954
0.02573650296139646 0.36355343553342756 0.027594843181929517
0.5234526166899678 0.3606042366683587 0.028491675585342283
0.013646512292313565 0.3668648167152591 0.029319520880800136
0.45268909070530705 0.3345357332499297 0.029319520880800136
0.4575957987585941 0.33990810428191165 0.031044198579670758
-0.05578901186421661 0.3378902313742331 0.031242536515040845
0.014301889817884458 0.3701675745085963 0.03276887627854132
0.03321298078600054 0.3622426804822859 0.03399339744473947
0.02644362081793335 0.3010856092803345 0.03399339744473947
1.1641574467370844E-4 0.3683049225938159 0.03449355397741194
0.008912272008913842 0.3347426945737942 0.0362182316762825
0.43815868109232226 0.3414775609878839 0.0362182316762825
0.049157626112059115 0.3151762260801073 0.0367356349859437
0.5052486435783885 0.29246222078598155 0.0367356349859437
0.45411194980687525 0.3382437903025015 0.03794290937515312
-0.006911645878223955 0.3833182419624845 0.038374078799870745
0.023710006665223514 0.408222587934176 0.03918467731833994
0.01856184373409483 0.3687792089610054 0.03966758707402374
0.020407248871886358 0.32548979871935346 0.0413922647728943
0.012697939557934742 0.36372590330331456 0.0413922647728943
-0.03307500657009084 0.3606042366683587 0.04163371965073618
0.00972287052738297 0.3752467503317702 0.043116942471764924
-0.005575020661599233 0.36663198522591156 0.043116942471764924
0.43938320225852034 0.3497560139424627 0.043116942471764924
0.46758168263505473 0.3378902313742331 0.04407413859463808
-0.020114053663078304 0.3358809818550488 0.044841620170635484
0.44272907699432934 0.34889367509302743 0.044841620170635484
0.03506700931228633 0.3833182419624845 0.046566297869506106
0.0336182800452351 0.3665974916719341 0.046566297869506106
4.268577304704277E-4 0.3575946740838296 0.046566297869506106
0.005799228762452377 0.3235581596966184 0.04829097556837673
-0.005825098927935438 0.3399425978358891 0.04829097556837673
0.43815868109232226 0.3414775609878839 0.04829097556837673
0.4780159827132219 0.29246222078598155 0.04897222325943062
-0.013870720393166832 0.3464101392066538 0.05001565326724729
0.46408058690634735 0.3559993472123743 0.05001565326724729
0.4212309694779074 0.35841389599079315 0.05142126559182686
0.042586604079362135 0.35095466494317773 0.05174033096611791
0.46370978120109013 0.3417966263621749 0.05174033096611791
0.4405646064822467 0.34393522670877447 0.05346500866498847
-0.03307500657009084 0.39686558528711313 0.053861684535728704
0.025443307752588407 0.3525586152031275 0.05518968636385909
0.03333370822492144 0.32438600499207626 0.056310726868125
0.018794675223442248 0.35810345400499644 0.05691436406272971
0.4362184186810929 0.3512909770944575 0.05691436406272971
0.40316497058223794 0.3492472340212959 0.05838034010676968
0.4610968944873012 0.3544730074488738 0.05863904176160027
0.4427894407137899 0.34922998724430726 0.060363719460470894
0.5007299880073476 0.3606042366683587 0.060449953345414406
-0.006118294136743491 0.3492386106328015 0.06208839715934146
-0.05578901186421661 0.3378902313742331 0.06251956658405915
0.41452197322930084 0.3378902313742331 0.06251956658405915
0.45208545351070245 0.36070771733029094 0.06381307485821208
0.41086565650769513 0.38656063603636126 0.0642442442829297
0.00851559613817355 0.35831041532886093 0.0655377525570827
0.43614080818464385 0.3472552312791004 0.0655377525570827
0.42114473559296395 0.30381922343304435 0.06596892198180032
6.769359968066328E-4 0.3492386106328015 0.06726243025595326
0.45682831718259664 0.34382312265834786 0.06726243025595326
0.3899366926319004 0.3108041681134703 0.06769359968067094
0.023710006665223514 0.4173892499036732 0.06769359968067094
-0.006118294136743491 0.3492386106328015 0.06898710795482388
0.46158842763147945 0.3594573259986098 0.06898710795482388
0.45681969379410226 0.3719612393154217 0.06941827737954151
0.5234526166899678 0.3833182419624845 0.06941827737954151
0.4290610062307798 0.3815504473211421 0.07071178565369445
0.38715996153671883 0.30794982652183944 0.07114295507841213
0.4807495968659316 0.39467524460954745 0.07114295507841213
-0.03854223487551064 0.3719612393154217 0.07114295507841213
0.3974562873989762 0.31319284672640607 0.07243646335256507
0.4423151543466004 0.35678407556536035 0.07243646335256507
0.5007299880073476 0.39467524460954745 0.07286763277728268
0.40938243368666644 0.3242480307761666 0.07286763277728268
0.016328386114057403 0.33466508407734497 0.07416114105143569
0.4526028568203636 0.3781614556428614 0.07416114105143569
0.023710006665223514 0.3060009407221157 0.0745923104761533
0.46665898006615897 0.33663121665405754 0.0745923104761533
0.009834974577809606 0.34007194866330437 0.07588581875030624
0.4044671022448853 0.3157626164977233 0.07588581875030624
0.4387536948984328 0.340503118088022 0.07588581875030624
0.4300613192961249 0.3378902313742331 0.07631698817502393
0.4880277367551657 0.39467524460954745 0.07631698817502393
0.44492804106038936 0.381007173845998 0.07761049644917686
0.40391520538124664 0.34606520366687965 0.07761049644917686
0.06913801725347504 0.3833182419624845 0.0780416658738945
0.4924860286067462 0.3719612393154217 0.0780416658738945
0.3969475074778094 0.3275939055119756 0.07933517414804743
0.46959093215423897 0.37835117018973724 0.07933517414804743
0.4371152510845057 0.3437023952194269 0.07933517414804743
0.4746528612004241 0.39467524460954745 0.07976634357276512
0.46009658142195636 0.3424951208302175 0.08105985184691805
0.4645203797195595 0.31289102812910374 0.08105985184691805
0.44064221697869604 0.3072858256077743 0.08105985184691805
0.5234526166899678 0.3378902313742331 0.08149102127163567
0.45682831718259664 0.34382312265834786 0.08278452954578867
0.408761549715073 0.3710040431925484 0.08278452954578867
0.4876914246038858 0.31198557233719665 0.08278452954578867
-0.04443200921715378 0.3833182419624845 0.08321569897050629
0.5032307706707101 0.3829301894802387 0.0845092072446593
0.018837792165914094 0.34876432426561216 0.0845092072446593
0.06913801725347504 0.3833182419624845 0.08494037666937691
0.5123888092517128 0.3076480079245371 0.08623388494352979
0.40225951479033084 0.32471369375486164 0.08623388494352979
0.021347198217770785 0.3543609033984473 0.08623388494352979
0.06913801725347504 0.3378902313742331 0.08735492544779576
0.4247320652066148 0.3527224595845202 0.08795856264240041
0.4487395787748934 0.34139132710294035 0.08795856264240041
0.5025495229796562 0.3754019713246685 0.08795856264240041
0.03506700931228633 0.3265332287271701 0.08968324034127104
0.4085028480602424 0.35449887761435683 0.08968324034127104
0.409813603111384 0.36606284158528424 0.08968324034127104
0.510508910559944 0.38143834327071563 0.08968324034127104
0.02229577095214961 0.34806582979756956 0.08968324034127104
0.3961024154053628 0.33721760707167353 0.09140791804014166
0.5064904115215754 0.3805070173133255 0.09140791804014166
-0.03307500657009084 0.29246222078598155 0.09218402300463345
0.4286815771370284 0.3506011060149093 0.09313259573901228
0.4109432670041442 0.370797081868684 0.09313259573901228
0.012309887075688843 0.3650021648004788 0.09313259573901228
0.40634700093665416 0.36463998248371593 0.09485727343788278
0.5195807152560032 0.3838873856031118 0.09485727343788278
0.42988022813774357 0.3736686702373035 0.09485727343788278
0.43565789842895997 0.33917511625989155 0.0965819511367534
0.3944294780374583 0.3845255163516939 0.0965819511367534
0.014819293127545534 0.3569134263927757 0.0965819511367534
0.023710006665223514 0.4173892499036732 0.09701312056147102
0.4040876731511337 0.36186325138853426 0.09830662883562402
0.42946630549001463 0.3718577586534894 0.09830662883562402
0.0011425989755017116 0.3358551116895657 0.09830662883562402
0.40814066574347957 0.3660111012543181 0.10003130653449464
0.405294947540343 0.3250758760716245 0.10003130653449464
0.4379086028259861 0.3357947479701052 0.10003130653449464
0.025788243292362577 0.3492386106328015 0.10003130653449464
0.43215680270025264 0.3524465111527008 0.10175598423336527
0.42320572544311436 0.3191602315644983 0.10175598423336527
0.45287880525218277 0.37559168587154435 0.10175598423336527
0.008748427627521089 0.3333801991916864 0.10175598423336527
0.4033115681866419 0.3883456774546924 0.1028770247376311
0.4010177468471441 0.3775836886137398 0.10348066193223576
0.4645721200505256 0.37263386361798123 0.10348066193223576
0.0577810146064121 0.39467524460954745 0.10460170243650173
0.018880909108385822 0.34824692095595094 0.10520533963110638
0.5156139565486008 0.3854999592515558 0.10520533963110638
0.4570525252834497 0.31984147925555223 0.10520533963110638
0.41090877345016685 0.3880179886919069 0.10632638013537235
0.025650269076452886 0.3478933620276825 0.106930017329977
0.48459562813441326 0.3317245086007707 0.106930017329977
0.04642401195934928 0.29246222078598155 0.10805105783424285
0.5234526166899678 0.39467524460954745 0.10805105783424285
0.4090202513699036 0.3248947849132431 0.10865469502884763
0.4899248822239234 0.33620004722933977 0.10865469502884763
0.45236140194252183 0.3895701986208905 0.10977573553311347
0.011033625578524634 0.33675194409297843 0.11037937272771825
0.48806223030914303 0.37873059928348873 0.11037937272771825
0.5001608443667203 0.37685070059171977 0.11037937272771825
0.4283366415972544 0.385577569748005 0.11150041323198409
-0.005773358596969318 0.3525586152031275 0.11210405042658875
0.5145619031522899 0.3864054150434629 0.11210405042658875
0.04642401195934928 0.30162888275547867 0.11322509093085471
0.4696254257082163 0.37304778626571017 0.11322509093085471
0.4038375948847975 0.3247223171433561 0.11382872812545937
0.506214463089756 0.3839477493225723 0.11382872812545937
0.4682456835491199 0.35247238131818387 0.11494976862972534
0.004850656028073554 0.3569134263927757 0.11555340582432999
0.471522571176974 0.33582924152408267 0.11555340582432999
0.04642401195934928 0.40603224725661025 0.11667444632859583
0.4924860286067462 0.30287065069866553 0.11667444632859583
0.4087098093841069 0.3246792002008842 0.11727808352320061
0.023710006665223514 0.2811052181389186 0.11839912402746645
0.49695294384682104 0.311261207703671 0.11839912402746645
0.39975873212696855 0.320764181824448 0.11900276122207123
0.04642401195934928 0.32872356940473585 0.12012380172633708
0.5027306141380374 0.38752645554772874 0.12012380172633708
0.42448198694027856 0.3189618936291282 0.12072743892094173
0.023710006665223514 0.3151762260801073 0.1218484794252077
0.009834974577809606 0.35841389599079315 0.12245211661981235
0.4841989522636729 0.378101091923401 0.12245211661981235
0.023710006665223514 0.39467524460954745 0.12409056043373941
0.01819966141733199 0.352963914462362 0.12417679431868298
0.4738940030129211 0.33439775903402014 0.12417679431868298
0.02440850113326613 0.3557320221690493 0.12590147201755358
0.48247427456480235 0.32145405290399626 0.12590147201755358
0.38715996153671883 0.3492472340212959 0.12633264144227122
0.008696687296554968 0.36510564546241103 0.12762614971642422
0.4773002414681906 0.32130745529959226 0.12762614971642422
0.5124405495826789 0.3151762260801073 0.12829015063048937
-0.0024878475806208284 0.3518601207350848 0.12935082741529472
0.4767224744390689 0.33064658503897654 0.12935082741529472
0.4160396896043069 0.3129341450715755 0.13023903643021315
0.02229577095214961 0.34792785558165984 0.13107550511416535
0.48171541637729937 0.31701300782940445 0.13107550511416535
0.39638698722567645 0.3827490983218573 0.1321965456184313
0.018699817950004402 0.34027890998716875 0.13280018281303596
0.4083390036788497 0.37826493630479363 0.13280018281303596
0.03506700931228633 0.3719612393154217 0.1339212233173018
0.4147634281071427 0.3843616719703013 0.1339212233173018
0.4022336446248478 0.3596642873224743 0.13452486051190657
0.49943647973319455 0.37654888199441744 0.13452486051190657
0.46665898006615897 0.3378902313742331 0.1349560299366242
0.40158689048777124 0.3371658667407074 0.1362495382107772
0.4996175708915761 0.3219024691057025 0.1362495382107772
0.3960420516859023 0.38269735799089116 0.13668070763549484
0.004117668006053482 0.36413120256254916 0.1379742159096477
0.3983703665793777 0.36465722926070476 0.1379742159096477
9.960013710977463E-4 0.3060009407221157 0.1387503208741395
0.4944262910179755 0.3265332287271701 0.1387503208741395
0.3984738472413099 0.3667613360533269 0.13969889360851834
0.5077494262417508 0.382619747494442 0.13969889360851834
0.39344641174910217 0.37963605507539583 0.1408199341127843
0.004117668006053482 0.33434601870305397 0.14142357130738895
0.5039810054697187 0.3744016582593236 0.14142357130738895
0.39885327633506146 0.3535675516569668 0.1425446118116548
0.018889532496880215 0.34829003789842267 0.14314824900625955
0.4065798324260016 0.32601582541750895 0.14314824900625955
-0.010361001275965199 0.29027188010841587 0.14426928951052542
0.4296560200368903 0.31653872146221496 0.14426928951052542
0.025650269076452886 0.3478933620276825 0.1448729267051302
0.49983315560393493 0.32113498752970515 0.1448729267051302
0.4294921756554976 0.3151762260801073 0.14599396720939603
0.02229577095214961 0.3505493656839432 0.1465976044040007
0.39885327633506146 0.3200743107448998 0.1465976044040007
0.03506700931228633 0.3833182419624845 0.14771864490826667
0.43031139756246106 0.3265332287271701 0.14771864490826667
0.41752291242533557 0.319470673550295 0.14832228210287132
9.960013710977463E-4 0.3151762260801073 0.14944332260713727
0.5141652272815495 0.3853274914816688 0.14944332260713727
0.4236024013138545 0.37803210481544613 0.15004695980174193
0.5092326490627798 0.3774025974553584 0.15004695980174193
0.5120956140429048 0.33121572867960386 0.15116800030600777
0.023666889722751785 0.3412792230525137 0.15177163750061257
0.5054124879597812 0.37713527241203343 0.15177163750061257
0.38715996153671883 0.3278957241092779 0.1528926780048784
0.016681945042325848 0.3635965524758993 0.15349631519948317
0.511345379243896 0.3254035648344099 0.15349631519948317
0.3956453758151621 0.3151762260801073 0.15522099289835367
-0.0018583402205331182 0.3447458252272436 0.15522099289835367
0.48029255727573095 0.32047098661563994 0.15522099289835367
0.02568476263043034 0.3484107653373437 0.1569456705972243
0.5057315533340724 0.37898067754982495 0.1569456705972243
0.4092444594707569 0.33419079771015564 0.15783387961214274
0.024831047169489362 0.35455061794532294 0.15867034829609492
0.5107848589917631 0.32208356026408397 0.15867034829609492
0.49666837202650727 0.3265332287271701 0.16039502599496555
