-0.3479491221515149 0.31829456187372523 -0.2455527639851598
0.4557784421691098 0.37101568144433694 -0.2455527639851598
0.5502264199263285 0.3381697908192836 -0.2455527639851598
0.5900196570446204 0.32440343551433165 -0.2455527639851598
0.49658126904873423 0.3853124991662603 -0.2455527639851598
0.5019800075182338 0.38577451481975156 -0.2455527639851598
0.42803183542333006 0.3643078986232789 -0.2455527639851598
0.5910206909605181 0.34619517383733517 -0.2455527639851598
0.612170740875895 0.5620933775447053 -0.2438415948981552
-0.28425940873320377 0.30261169719132813 -0.2438415948981552
-0.32778299446116577 0.3549991387899738 -0.2438415948981552
-0.21353679036730375 0.2999337175701659 -0.2438415948981552
-0.2525685572418786 0.3115439998254921 -0.2438415948981552
-0.2048183838690153 0.2885373314507153 -0.2438415948981552
-0.3437824254246587 0.2694406844397439 -0.2438415948981552
-0.3318641327336717 0.37905817615325854 -0.2438415948981552
-0.2181569469022161 0.38132547519353965 -0.2438415948981552
0.43995868395975213 0.35615417792370196 -0.2438415948981552
0.5779901383629781 0.36321275040759593 -0.2438415948981552
0.4354754209518001 0.3325400445230384 -0.2438415948981552
0.5014666567921323 0.3530740735670937 -0.2438415948981552
0.5067113900438014 0.3846622549131986 -0.2438415948981552
0.5906356779159422 0.31138999460766165 -0.2438415948981552
0.4896767017826708 0.3988307349535966 -0.2438415948981552
0.5955210656593403 0.34787211954259967 -0.2438415948981552
0.4946219804441141 0.3180721098924147 -0.2438415948981552
0.3728380765219968 0.2504039283468178 -0.24341380262640405
-0.2131346656318577 0.44196930763698256 -0.24341380262640405
0.5596378499048537 0.28740795985329226 -0.24213042581115057
0.47322381101112154 0.3113472153804866 -0.24213042581115057
0.5378204440455452 0.4043749227954915 -0.24213042581115057
0.4513379583883328 0.321537227293599 -0.24213042581115057
-0.20813805189780424 0.2444319482331718 -0.24213042581115057
-0.2838829515340628 0.2740522851292213 -0.24213042581115057
-0.29872734336382767 0.3660618469374586 -0.24213042581115057
-0.26565044491202877 0.2675840659803439 -0.24213042581115057
0.5869395526880121 0.5004912904125397 -0.24170263353939944
0.6996285929126999 0.419433210761132 -0.24170263353939944
0.5143089807901019 0.2706983937186923 -0.240419256724146
0.4009269170851774 0.27984459248873195 -0.240419256724146
0.5380172284905508 0.4066593335266427 -0.240419256724146
-0.3369890841492505 0.2988043459727428 -0.240419256724146
-0.32161422990251415 0.3417375783656882 -0.240419256724146
0.38739156960697085 0.3856290654473562 -0.23999146445239483
0.38739156960697085 0.3405568716956551 -0.23999146445239483
0.481180747265693 0.4228042138625311 -0.23870808763714138
0.44606755760035854 0.38615097201889254 -0.23870808763714138
0.45525653559757334 0.32806533736052146 -0.23870808763714138
0.5840904561581495 0.31949238023462845 -0.23870808763714138
0.4020220653008602 0.38481626013102904 -0.23870808763714138
-0.2825054604190241 0.3585498146455084 -0.23870808763714138
-0.36739655882532213 0.2879127547339586 -0.23870808763714138
-0.21414425539319037 0.32916904142163944 -0.23870808763714138
0.38739156960697085 0.27294002522266836 -0.23828029536539025
-0.1995137596993011 0.37436101700943086 -0.23828029536539025
0.39941253244317815 0.2680460816338352 -0.2369969185501368
0.5194852672782909 0.39082246362641515 -0.2369969185501368
0.4930049256568948 0.37046810733649543 -0.2369969185501368
0.4471798175069115 0.3630501893443304 -0.2369969185501368
0.5848947056290416 0.37016009690083457 -0.2369969185501368
0.543022398070039 0.32945994016643015 -0.2369969185501368
-0.3694756292660328 0.38597129926475704 -0.2369969185501368
-0.2372792614494926 0.34200280957417395 -0.2369969185501368
-0.23251365554218478 0.3169855175221667 -0.2369969185501368
-0.28410540351537333 0.2938162880841244 -0.2369969185501368
-0.34782934031542456 0.25989236093425827 -0.2369969185501368
0.744709342509836 0.2820434447655329 -0.23588465864358382
-0.427244697643308 0.2504039283468178 -0.23588465864358382
0.6039057941856627 0.31991161666094453 -0.23528574946313222
0.5840990120035845 0.310038171028928 -0.23528574946313222
-0.20813805189780424 0.2398545709254344 -0.23528574946313222
0.6996285929126999 0.419433210761132 -0.2341734895565792
0.3953741733978475 0.44196930763698256 -0.2341734895565792
-0.3540408841012513 0.3222131390829657 -0.2341734895565792
0.5677744589135605 0.40252686018152656 -0.23357458037612758
0.5813269180826369 0.3053581235759705 -0.23357458037612758
-0.3766796511223221 0.25421127956540307 -0.23357458037612758
0.744709342509836 0.41033834706370254 -0.2324623204695746
0.3892995231389811 0.4352273014341844 -0.2324623204695746
-0.3902663336731386 0.30675272638187917 -0.2324623204695746
0.5830466430150768 0.28959825628465813 -0.231863411289123
0.4486770904580406 0.4229154398531863 -0.231863411289123
-0.36948418511146774 0.24569821335755518 -0.231863411289123
0.7221646897885505 0.28638125840108947 -0.23075115138257002
0.6545563991609987 0.4870500572341186 -0.23075115138257002
0.5715732542867109 0.2876389676800379 -0.2301522422021184
0.3927047496221202 0.2566496955143846 -0.2301522422021184
0.5897544258361347 0.30520411835814004 -0.2301522422021184
-0.2048183838690153 0.2594474569716371 -0.2301522422021184
0.6432883507230736 0.22786783147096723 -0.22972444993036725
-0.1995137596993011 0.32928882325772973 -0.22972444993036725
0.5991487441237898 0.3776977967290898 -0.2284410731151138
0.4020220653008602 0.37603796271469536 -0.2284410731151138
-0.21943176787203453 0.3988906258716418 -0.2284410731151138
-0.3529029566583932 0.3829339741353239 -0.2284410731151138
0.38410612495992213 0.21659978303304203 -0.22801328084336264
-0.41597664920538274 0.3518249201335803 -0.22801328084336264
0.5831920923874722 0.39869384142663633 -0.22672990402810922
0.5313436690512328 0.26777229457991447 -0.22672990402810922
-0.32499378884934826 0.30508433652204975 -0.22672990402810922
0.7108966413506251 0.419433210761132 -0.22630211175635806
0.5869395526880121 0.5095861541099692 -0.22630211175635806
-0.37173437246087887 0.3232911756077787 -0.22630211175635806
0.6163459934481862 0.3731717544939627 -0.2250187349411046
0.5790510631969209 0.29217356576060005 -0.2250187349411046
-0.2053317345951167 0.22968167070319215 -0.2250187349411046
0.7108966413506251 0.2842080736605937 -0.22459094266935348
0.38739156960697085 0.2954761220985189 -0.22459094266935348
0.39941253244317815 0.25842075551943433 -0.2233075658541
0.4020220653008602 0.36912483960319686 -0.2233075658541
-0.24822218776088698 0.3996093168881838 -0.2233075658541
-0.37572139643359953 0.2960493637426655 -0.2233075658541
0.6996285929126999 0.2525771130873137 -0.22287977358234884
-0.33709175429447075 0.4532459119203428 -0.22287977358234884
0.5582518029443799 0.4153092932614509 -0.22159639676709542
0.6290343122283253 0.34338030068921266 -0.22159639676709542
-0.38153081548398016 0.25325302487668044 -0.22159639676709542
-0.3795800827247949 0.29912091225383874 -0.22159639676709542
0.6770924960368494 0.24130906464938834 -0.22116860449534426
-0.427244697643308 0.40816516232320676 -0.22116860449534426
0.48103529789329763 0.4395736709151761 -0.21988522768009083
0.5956408474954304 0.38778513849698193 -0.21988522768009083
-0.3583016951278927 0.3128017091044405 -0.21988522768009083
-0.371443473716088 0.38971875956529717 -0.21988522768009083
0.6770924960368494 0.22569464673047135 -0.21945743540833967
-0.2131346656318577 0.44196930763698256 -0.21945743540833967
0.6362041107028745 0.33562014887964686 -0.21817405859308622
0.6005091235479587 0.3043656455055078 -0.21817405859308622
-0.3287155816135832 0.23834018628343542 -0.21817405859308622
-0.3198175023611593 0.3088916877406349 -0.21817405859308622
0.4674657270333511 0.18279563771926613 -0.21774626632133506
-0.41597664920538274 0.3405568716956551 -0.21774626632133506
0.43675024192161854 0.24439772485143169 -0.2164628895060816
0.5998503234494619 0.2983337744738166 -0.2164628895060816
-0.3833959897888152 0.24008557875218003 -0.2164628895060816
0.665824447598924 0.3405568716956551 -0.21603509723433048
0.38739156960697085 0.44196930763698256 -0.21603509723433048
-0.20186661719393237 0.1715275892813409 -0.21603509723433048
0.545264029574015 0.43398670384610616 -0.214751720419077
0.4699640339003778 0.2502841465107275 -0.214751720419077
-0.21414425539319037 0.28754485338025265 -0.214751720419077
0.7108966413506251 0.32928882325772973 -0.21432392814732587
0.4404463671495486 0.4757820087961935 -0.21432392814732587
0.39941253244317815 0.25184986622533667 -0.21304055133207242
0.4657887813280866 0.4474878279425723 -0.21304055133207242
0.6356822041313381 0.3443727787596753 -0.21304055133207242
-0.3792977398254392 0.3919860586055782 -0.21304055133207242
0.6838772814668227 0.3518249201335803 -0.21261275906032126
0.5869395526880121 0.5095861541099692 -0.21261275906032126
0.5503462017624189 0.2592848959083716 -0.21132938224506784
0.39957509350644366 0.4429703415528803 -0.21132938224506784
0.416798010367145 0.25577699928001224 -0.21132938224506784
-0.3832762079527248 0.38894873347614506 -0.21132938224506784
0.014947061974985161 0.3518249201335803 -0.21090158997331668
-0.026660014375531633 0.37436101700943086 -0.21090158997331668
0.15914728093686262 0.37436101700943086 -0.21090158997331668
0.38739156960697085 0.37436101700943086 -0.21090158997331668
0.744709342509836 0.27294002522266836 -0.21090158997331668
0.605522848972882 0.3942619134912944 -0.20961821315806323
0.6331240063462662 0.3371259776762108 -0.20961821315806323
-0.3862707538549829 0.39215717551427864 -0.20961821315806323
-0.26953479873952924 0.40372467854242977 -0.20961821315806323
0.3272610878896293 0.3180207748198045 -0.2091904208863121
0.16728388994556956 0.32073297782270677 -0.2091904208863121
-0.0974425236594768 0.32928882325772973 -0.2091904208863121
-0.05763217485031489 0.37436101700943086 -0.2091904208863121
0.18127269723183206 0.3518249201335803 -0.2091904208863121
0.4404463671495486 0.4757820087961935 -0.2091904208863121
0.6469331408783933 0.3398809599062882 -0.20790704407105862
0.5368621893568225 0.25505830826347026 -0.20790704407105862
-0.375901069187735 0.3985740595905459 -0.20790704407105862
0.6770924960368494 0.32928882325772973 -0.20747925179930748
0.3670799925442263 0.2954761220985189 -0.20747925179930748
0.2038087941076826 0.3405568716956551 -0.20747925179930748
0.26974869487540487 0.35143135124356933 -0.20747925179930748
0.26286123930021127 0.32073297782270677 -0.20747925179930748
0.144747793069719 0.32073297782270677 -0.20747925179930748
-0.09188977997214687 0.3658051715744079 -0.20747925179930748
-0.021569286341692962 0.33784466869275276 -0.20747925179930748
0.01315889027906533 0.36309296857150564 -0.20747925179930748
-0.19477382132829835 0.37436101700943086 -0.20747925179930748
0.43590321322355136 0.24071871131437172 -0.20619587498405403
0.40174827824693937 0.312254134996599 -0.20619587498405403
0.609578319709083 0.2979829848109807 -0.20619587498405403
-0.20526328783163653 0.3590802770624798 -0.20619587498405403
-0.21448648921059135 0.22790205485270737 -0.20619587498405403
-0.1707746748830588 0.34729887789845315 -0.20576808271230287
0.012234858972082933 0.3320010262606321 -0.20576808271230287
-0.03555809362795547 0.2954761220985189 -0.20576808271230287
0.10510000532382245 0.34729887789845315 -0.20576808271230287
0.1925407456697574 0.3279284438335612 -0.20576808271230287
0.24763183442587036 0.36309296857150564 -0.20576808271230287
0.5756715042500867 0.19406368615719147 -0.20576808271230287
0.339033931208221 0.3320010262606321 -0.20576808271230287
0.6262622183073778 0.30124276192172444 -0.20448470589704942
0.4074293596157948 0.434705394862648 -0.20448470589704942
0.33516668907159064 0.3566931961861084 -0.20448470589704942
-0.21153472253550842 0.3509950031263831 -0.20448470589704942
-0.21414425539319037 0.32950271939360537 -0.20448470589704942
0.5869395526880121 0.5037510675232835 -0.2040569136252983
0.7672454393856867 0.32018540371486537 -0.2040569136252983
0.32505367976739336 0.3405568716956551 -0.2040569136252983
0.17684076929649015 0.37436101700943086 -0.2040569136252983
0.10510000532382245 0.2954761220985189 -0.2040569136252983
-0.06954191169586686 0.37436101700943086 -0.2040569136252983
-0.05266122865256651 0.2954761220985189 -0.2040569136252983
-0.14281417200140367 0.3320010262606321 -0.2040569136252983
0.39941253244317815 0.24524475354949898 -0.20277353681004484
0.3226922664273271 0.3151716782899419 -0.20277353681004484
0.4811123005022127 0.4448954067757604 -0.20277353681004484
0.2428148934459524 0.35371576197472043 -0.20277353681004484
0.09840933419363451 0.3135118442755474 -0.20277353681004484
-0.21153472253550842 0.2225118722286428 -0.20277353681004484
-0.37051088656367054 0.30213256984696685 -0.20277353681004484
0.7672454393856867 0.3405568716956551 -0.20234574453829368
0.31732775133956764 0.3073430797168958 -0.20234574453829368
0.3025090270461078 0.3180207748198045 -0.20234574453829368
0.15247372149754468 0.3148123327816709 -0.20234574453829368
0.11365585075884545 0.30674417053644426 -0.20234574453829368
0.03477951169336843 0.3405568716956551 -0.20234574453829368
-0.09188977997214687 0.37436101700943086 -0.20234574453829368
-0.41597664920538274 0.37436101700943086 -0.20234574453829368
0.32919470895794456 0.3094221501576063 -0.20106236772304026
0.6393013267503528 0.33094865727212425 -0.20106236772304026
0.2557085525165321 0.35895193938095443 -0.20106236772304026
0.18107591278682655 0.30212401400153177 -0.20106236772304026
0.08531033483261426 0.3129129350950957 -0.20106236772304026
0.015751311445877395 0.356556302659148 -0.20106236772304026
-0.15876226789228656 0.35861826140898856 -0.20106236772304026
-0.36084278122209457 0.30611103797425243 -0.20106236772304026
0.7108966413506251 0.3405568716956551 -0.2006345754512891
0.339033931208221 0.33145345215279054 -0.2006345754512891
0.26549643969419845 0.30262025303676304 -0.2006345754512891
0.14965884834942217 0.32063030767748646 -0.2006345754512891
0.003679013537059944 0.3268931865359233 -0.2006345754512891
-0.15254216826102482 0.32928882325772973 -0.2006345754512891
-0.427244697643308 0.26167197678474313 -0.2006345754512891
0.5884539373300111 0.4219144059372887 -0.19935119863603562
0.551877698095288 0.432848776403248 -0.19935119863603562
0.34066809768631046 0.3507982186813775 -0.19935119863603562
0.1592157277003429 0.3683462576686097 -0.19935119863603562
0.012320417426433085 0.34811168321478037 -0.19935119863603562
-0.39190905599666304 0.24597200041147588 -0.19935119863603562
-0.3082072201058331 0.23544831052639756 -0.19935119863603562
-0.2694834636669191 0.19622831505225227 -0.19892340636428452
0.0573926111781342 0.3518249201335803 -0.19892340636428452
-0.04878543067050107 0.32928882325772973 -0.19892340636428452
0.021286943442337194 0.36795268877859866 -0.19892340636428452
0.23551675728987784 0.34237071092787985 -0.19892340636428452
0.38739156960697085 0.36309296857150564 -0.19892340636428452
0.6094842054092976 0.19189050141669559 -0.19892340636428452
0.46502731108436957 0.2323339827880493 -0.19764002954903104
0.40084991447626206 0.30388651816114653 -0.19764002954903104
0.26027737397883444 0.3609112279855747 -0.19764002954903104
0.09771631071339762 0.3609112279855747 -0.19764002954903104
-0.07990304051767969 0.3574803339661305 -0.19764002954903104
-0.3924908534862446 0.3246772225682523 -0.19764002954903104
-0.20813805189780424 0.42276143463535587 -0.19764002954903104
-0.3678671303242484 0.23984601507999948 -0.19764002954903104
0.10490322087881683 0.33051230915493807 -0.19721223727727988
-0.1328380562241669 0.3429952876446366 -0.19721223727727988
0.15872804451054656 0.3405568716956551 -0.19721223727727988
0.33047808577319804 0.32928882325772973 -0.19721223727727988
0.7221646897885505 0.3856290654473562 -0.19721223727727988
0.5193398179058953 0.44810384881389403 -0.19592886046202646
0.5796157489956325 0.4338155869374056 -0.19592886046202646
0.5863748668893005 0.2685936557416767 -0.19592886046202646
0.17513815605492059 0.3144615431188349 -0.19592886046202646
0.0765320374162807 0.31352040012098237 -0.19592886046202646
-0.07380272272250822 0.3151802341353768 -0.19592886046202646
-0.1485465884428691 0.35345053076623467 -0.19592886046202646
-0.39065990256314964 0.24375603644380492 -0.19592886046202646
0.4472397084249567 0.2053317345951167 -0.1955010681902753
0.38739156960697085 0.4320616386232259 -0.1955010681902753
0.2299297902208079 0.32928882325772973 -0.1955010681902753
0.0573926111781342 0.3518249201335803 -0.1955010681902753
-0.10629782368472555 0.3405568716956551 -0.1955010681902753
-0.41597664920538274 0.26167197678474313 -0.1955010681902753
0.6670650451870025 0.34525403083948264 -0.19421769137502184
0.6067292231792204 0.40571819052879016 -0.19421769137502184
0.254579180919109 0.3603037629596881 -0.19421769137502184
0.18093901925986614 0.300002164333646 -0.19421769137502184
0.08174254728620965 0.30374106878875107 -0.19421769137502184
-0.057589395623139694 0.31438454050991965 -0.19421769137502184
-0.15029198091161386 0.35852414710920333 -0.19421769137502184
-0.39085668700815523 0.24087271653220216 -0.19421769137502184
-0.41597664920538274 0.3180207748198045 -0.19319098992281908
0.0262151104129105 0.33309617447631507 -0.19319098992281908
0.2700567053110657 0.33666396202271964 -0.19319098992281908
0.6772636129455499 0.3518249201335803 -0.19319098992281908
0.6551125291142752 0.3250365680765233 -0.19250652228801726
0.47999148475022474 0.2254465272128557 -0.19250652228801726
0.5380172284905508 0.44259388435373925 -0.19250652228801726
0.26221955089258453 0.3690478369942816 -0.19250652228801726
0.2112780471724577 0.30951626445739167 -0.19250652228801726
0.09211223195345755 0.3208955388859722 -0.19250652228801726
-0.06431429013506777 0.3577797885563563 -0.19250652228801726
-0.3917464949333976 0.31896191781765704 -0.19250652228801726
-0.15629818440699997 0.3500880835102706 -0.19250652228801726
-0.21414425539319037 0.26544510462158816 -0.19250652228801726
-0.1342583265663807 0.32928882325772973 -0.19079535320101265
0.19221562354322655 0.37436101700943086 -0.19079535320101265
0.6813019719908806 0.3405568716956551 -0.19079535320101265
0.6675527283767987 0.34452678397750575 -0.19079535320101265
0.46036437532228214 0.22504440247740967 -0.19079535320101265
0.6416028491723741 0.3760294068692604 -0.19079535320101265
0.3554782661343352 0.3460155010831997 -0.19079535320101265
0.27721794794017984 0.32676484885439794 -0.19079535320101265
0.17200671662570216 0.34650318427299603 -0.19079535320101265
0.0018737301502701057 0.31431609374643954 -0.19079535320101265
-0.16022531746167556 0.3101493970195834 -0.19079535320101265
-0.38112869074853406 0.33114544171712973 -0.19079535320101265
-0.20813805189780424 0.21149194330833324 -0.19079535320101265
-0.31253647789595473 0.23111049689084098 -0.19079535320101265
0.3936886718471479 0.3046993234774737 -0.18908418411400804
0.3064361601007834 0.31767854100240356 -0.18908418411400804
0.6635657044040781 0.3438252046518338 -0.18908418411400804
0.17065489304696854 0.31456421326405515 -0.18908418411400804
0.17896261896437587 0.36212615803734804 -0.18908418411400804
0.09677516771554509 0.3279198879881261 -0.18908418411400804
-0.06885744406106503 0.31592459268822387 -0.18908418411400804
-0.37466902744509173 0.3298962882836164 -0.18908418411400804
-0.20813805189780424 0.21046524185613055 -0.18908418411400804
-0.21351112283099868 0.36529182084830647 -0.18908418411400804
0.7108966413506251 0.2842080736605937 -0.18857083338790667
0.7334327382264758 0.43070125919905733 -0.18857083338790667
0.11365585075884545 0.3445011164412007 -0.18857083338790667
-0.14427722157079267 0.3253788018939243 -0.18857083338790667
0.6102970107256248 0.27288013430462316 -0.18737301502700346
0.4604841571583723 0.22283699435517376 -0.18737301502700346
0.6333721258638818 0.38949630758398657 -0.18737301502700346
0.3405825392319603 0.36151869301146133 -0.18737301502700346
0.16824214463429207 0.3220249104833952 -0.18737301502700346
0.08414673985345117 0.3132551689124967 -0.18737301502700346
0.01184129008207182 0.3543317828460421 -0.18737301502700346
-0.04969235028661346 0.32777443861573075 -0.18737301502700346
-0.1512673472912064 0.35839580942767796 -0.18737301502700346
-0.1537314307764931 0.3481031273693453 -0.18737301502700346
-0.24670780311888785 0.3862194187823727 -0.18737301502700346
0.7108966413506251 0.2482307436063219 -0.18626075512045048
0.31708818766738706 0.3405568716956551 -0.18626075512045048
0.12251970662952927 0.3180207748198045 -0.18626075512045048
-0.12079998169708958 0.3405568716956551 -0.18626075512045048
-0.2694834636669191 0.19622831505225227 -0.18626075512045048
0.3420969238739593 0.3139824157744736 -0.18566184593999888
0.5395145014416796 0.4569591488391428 -0.18566184593999888
0.6581755217800135 0.3610652332034051 -0.18566184593999888
0.2543738406286686 0.35778834440179136 -0.18566184593999888
0.09769064317709254 0.3590973887533499 -0.18566184593999888
0.15693987281462674 0.31530001597146723 -0.18566184593999888
0.240787158077852 0.31713096689456216 -0.18566184593999888
0.016820792125255266 0.35140568370726427 -0.18566184593999888
0.11007950736700578 0.32223880661927085 -0.18566184593999888
-0.07476953325666594 0.3125707012776949 -0.18566184593999888
-0.3699034215377839 0.3240697575423657 -0.18566184593999888
-0.15646930131570042 0.35747177812069547 -0.18566184593999888
-0.1272425333096619 0.33786178038362286 -0.18566184593999888
-0.25901966469988597 0.2697315831845347 -0.18566184593999888
-0.2821546707561881 0.4165071116223541 -0.18566184593999888
0.35215004226011115 0.365873618337888 -0.18454958603344587
0.343115069480727 0.2975380808483594 -0.18454958603344587
0.04258244273010945 0.3405568716956551 -0.18454958603344587
-0.1995137596993011 0.3180207748198045 -0.18454958603344587
0.6226602073792332 0.4077972609695007 -0.18395067685299427
0.5305223078894705 0.2264732286650585 -0.18395067685299427
0.6238409140492663 0.4024584134180464 -0.18395067685299427
0.2582496386107339 0.35455423482735265 -0.18395067685299427
0.1482300221617733 0.3378703362290578 -0.18395067685299427
-0.013689352696036734 0.3337891979565518 -0.18395067685299427
0.011019928920309582 0.3518249201335803 -0.18395067685299427
-0.08436919183476173 0.3087120149864995 -0.18395067685299427
-0.3996093168881837 0.3683377018231747 -0.18395067685299427
-0.13308617574178253 0.3462892881371205 -0.18395067685299427
-0.16466580124245242 0.35660763773175813 -0.18395067685299427
-0.2178489364665554 0.2734020408761596 -0.18395067685299427
0.6770924960368494 0.24130906464938834 -0.18283841694644126
0.35030197964614634 0.32475422517716757 -0.18283841694644126
0.18127269723183206 0.29660549369594197 -0.18283841694644126
-0.0761555802171396 0.3405568716956551 -0.18283841694644126
-0.427244697643308 0.3518249201335803 -0.18283841694644126
0.5787173852249551 0.44138751014740096 -0.18223950776598966
0.49981537862317305 0.22986989930276258 -0.18223950776598966
0.3219051286473049 0.3185512372367759 -0.18223950776598966
0.2440383793431607 0.36242561262757383 -0.18223950776598966
0.09289081388804458 0.3225125936731915 -0.18223950776598966
0.0039613564364157135 0.31384552224751333 -0.18223950776598966
-0.14726321162761571 0.35883215754486414 -0.18223950776598966
-0.39333788218431187 0.31365729364794276 -0.18223950776598966
-0.4035450057882943 0.2725379004872223 -0.18223950776598966
-0.4059491983555357 0.3499768575196154 -0.18223950776598966
-0.21414425539319037 0.34949773017525415 -0.18223950776598966
0.6770924960368494 0.2504039283468178 -0.18112724785943668
0.24524475354949898 0.30171333342065065 -0.18112724785943668
0.38613386032802255 0.3206559752137915 -0.18112724785943668
0.2731453655131089 0.3667120911905204 -0.18112724785943668
0.11253503500685742 0.30675272638187917 -0.18112724785943668
-0.01202096283620731 0.3667120911905204 -0.18112724785943668
-0.04435350273515916 0.3500966393557057 -0.18112724785943668
-0.06647891903012859 0.3691333954486318 -0.18112724785943668
-0.19170227281712504 0.32585792923828555 -0.18112724785943668
0.4556928837147594 0.2224348696197276 -0.18052833867898505
0.6511511726778596 0.308172996724093 -0.18052833867898505
0.3557263856519508 0.3323004808508579 -0.18052833867898505
0.24758049935326024 0.3570439858489443 -0.18052833867898505
0.09155610200018108 0.3130926078492312 -0.18052833867898505
0.001283376815253497 0.32373607957039985 -0.18052833867898505
-0.1290734842327568 0.3545114556001776 -0.18052833867898505
-0.4009098053943072 0.3077452044523419 -0.18052833867898505
-0.4076261440608003 0.3285273530140127 -0.18052833867898505
-0.3971709009392022 0.40107236645757266 -0.18052833867898505
0.7108966413506251 0.32928882325772973 -0.17941607877243207
0.3728380765219968 0.300703743659318 -0.17941607877243207
0.344954576249257 0.3140080833107787 -0.17941607877243207
0.6770924960368494 0.4532459119203428 -0.17941607877243207
0.23878509024605665 0.30483621700443403 -0.17941607877243207
0.17241739720658328 0.36760189911576274 -0.17941607877243207
0.10605826001254498 0.349104161285243 -0.17941607877243207
0.01315889027906533 0.31816622419219986 -0.17941607877243207
-0.05763217485031489 0.35322807878492407 -0.17941607877243207
-0.08417240738975612 0.30471643516834374 -0.17941607877243207
-0.1431906292005448 0.32578092662937036 -0.17941607877243207
-0.41597664920538274 0.3405568716956551 -0.17941607877243207
0.5897715375270048 0.43801650704600187 -0.17881716959198046
0.5495932873641367 0.4484803060130351 -0.17881716959198046
0.3180806657378496 0.319329819171363 -0.17881716959198046
0.19595452799833157 0.354340338691477 -0.17881716959198046
0.022142527985839565 0.35045598486397667 -0.17881716959198046
-0.09949592656388226 0.354340338691477 -0.17881716959198046
-0.3711097957441222 0.3288781426768486 -0.17881716959198046
-0.4008755820125671 0.29805143157446085 -0.17881716959198046
-0.2095497663945831 0.27696982842256423 -0.17881716959198046
-0.21414425539319037 0.26544510462158816 -0.17881716959198046
0.7221646897885505 0.2504039283468178 -0.17770490968542746
0.2299297902208079 0.31653205771411047 -0.17770490968542746
0.3272610878896293 0.36638696906398943 -0.17770490968542746
0.4742590683087594 0.5004912904125397 -0.17770490968542746
0.17106557362784966 0.3454422594390532 -0.17770490968542746
0.08594346739480595 0.32511357068543856 -0.17770490968542746
0.0074179179921649695 0.3059998119835972 -0.17770490968542746
-0.07532566320994241 0.366960210708136 -0.17770490968542746
-0.14168480040398074 0.3142904262101344 -0.17770490968542746
-0.18034011007941458 0.30675272638187917 -0.17770490968542746
0.5179024358728117 0.46033870778597696 -0.17710600050497588
0.6586803166606798 0.31340917413032715 -0.17710600050497588
0.3464005141277757 0.3454679269753583 -0.17710600050497588
0.24099249836829256 0.34464656581359604 -0.17710600050497588
0.12080853754252464 0.3285102413231427 -0.17710600050497588
-0.05193398179058949 0.335346361825726 -0.17710600050497588
-0.17355532464944132 0.3381355674375436 -0.17710600050497588
-0.3928758665308206 0.3273038671168044 -0.17710600050497588
-0.2088738546052162 0.33438810713700345 -0.17710600050497588
-0.4089180767214887 0.35946529010705586 -0.17710600050497588
-0.29774342113880004 0.3099697242654479 -0.17710600050497588
0.3728380765219968 0.3180207748198045 -0.1759937405984229
0.24981357501180132 0.3253959135847943 -0.1759937405984229
0.3311026624899548 0.34436422291424024 -0.1759937405984229
0.16799402511667644 0.36182670344712214 -0.1759937405984229
0.0043035902538165645 0.3531339644851389 -0.1759937405984229
-0.07553955934581792 0.31844856709155567 -0.1759937405984229
-0.04410538321754352 0.36309296857150564 -0.1759937405984229
-0.23016935389298848 0.33100854819016945 -0.1759937405984229
0.6771694986457645 0.3566760844952384 -0.17539483141797127
0.45597522661411527 0.22566897919416629 -0.17539483141797127
0.3476753350975942 0.3311112183353897 -0.17539483141797127
0.22432571146086783 0.3509180005174679 -0.17539483141797127
0.10429575585293022 0.3421653706374393 -0.17539483141797127
-0.022938221611296612 0.34188302773808366 -0.17539483141797127
-0.12216891696669323 0.3390767104353961 -0.17539483141797127
-0.3772528927664686 0.3328309432678293 -0.17539483141797127
-0.3742840144005157 0.33503835139006516 -0.17539483141797127
-0.21158605760811855 0.364359233695889 -0.17539483141797127
-0.27659337122342315 0.26705360356337254 -0.17539483141797127
0.5869395526880121 0.2053317345951167 -0.17428257151141827
0.33424265776460815 0.3557092739610808 -0.17428257151141827
0.16685609767381843 0.3563766299050125 -0.17428257151141827
0.13211936520762507 0.32928882325772973 -0.17428257151141827
0.0843349684530216 0.34604116861950474 -0.17428257151141827
-0.08417240738975612 0.3609540072127499 -0.17428257151141827
-0.15938684460904318 0.31253647789595473 -0.17428257151141827
-0.3980521530190096 0.44196930763698256 -0.17428257151141827
0.6839457282303026 0.32548147203914457 -0.17368366233096666
0.6476603877403703 0.30195289709283135 -0.17368366233096666
0.27053583265542697 0.31600159529713906 -0.17368366233096666
0.13668818666992727 0.33239459515064307 -0.17368366233096666
0.026694237757271765 0.3537585412018955 -0.17368366233096666
-0.10144665932306758 0.34920683143046327 -0.17368366233096666
-0.2553663186991311 0.3537585412018955 -0.17368366233096666
-0.2925500229597411 0.36644685998203463 -0.17368366233096666
-0.40598342173727586 0.24933444766743992 -0.17368366233096666
-0.2751645450357743 0.37132369187999764 -0.17368366233096666
0.7672454393856867 0.2954761220985189 -0.17257140242441368
0.38739156960697085 0.43070125919905733 -0.17257140242441368
0.2840711801336333 0.3180207748198045 -0.17257140242441368
0.1579922418031346 0.30987560996566266 -0.17257140242441368
0.027318814474028386 0.36309296857150564 -0.17257140242441368
-0.060900507806493594 0.3105771892913345 -0.17257140242441368
-0.33709175429447075 0.4532459119203428 -0.17257140242441368
0.5979680374537568 0.24783717471631092 -0.17197249324396208
0.6715654198858244 0.3639399972695728 -0.17197249324396208
0.319706276370504 0.3354918111981215 -0.17197249324396208
0.20425369807030386 0.33565437226138684 -0.17197249324396208
0.03824462909455275 0.3351752449170256 -0.17197249324396208
-0.08700439222874876 0.34777800524281444 -0.17197249324396208
-0.21345123191295348 0.36147591378428623 -0.17197249324396208
-0.21453782428320148 0.26962891303931447 -0.17197249324396208
-0.2095497663945831 0.27696982842256423 -0.17197249324396208
-0.28283058254555493 0.42028879530463426 -0.17197249324396208
0.6432883507230736 0.19406368615719147 -0.1708602333374091
0.32399275493345053 0.31628393819649486 -0.1708602333374091
-0.1749755949916551 0.3589091601537794 -0.1708602333374091
-0.01781327019571781 0.35606006362391673 -0.1708602333374091
0.17000464879390684 0.34432999953250015 -0.1708602333374091
0.2515931908622861 0.32928882325772973 -0.1708602333374091
0.07067128329328994 0.30674417053644426 -0.1708602333374091
-0.09301915156956994 0.3074628615529861 -0.1708602333374091
-0.4166867843764896 0.32928882325772973 -0.1708602333374091
0.5831664248511669 0.4478300617599732 -0.17026132415695747
0.5126405909302725 0.4625461159082127 -0.17026132415695747
0.30904569295846546 0.3348415669450597 -0.17026132415695747
0.19380701079414075 0.33492712539940994 -0.17026132415695747
0.06603401506750746 0.33809278821036837 -0.17026132415695747
-0.050085919176624576 0.33520091245333067 -0.17026132415695747
-0.17739689924976662 0.3351752449170256 -0.17026132415695747
-0.3949207135897911 0.3272439761987592 -0.17026132415695747
-0.40698445565317354 0.37641441991383634 -0.17026132415695747
-0.40039645466820584 0.21781471308481526 -0.17026132415695747
-0.16381021669895016 0.3527232839042578 -0.16983353188520633
0.09111975388299488 0.32928882325772973 -0.16983353188520633
0.3493865041845989 0.31186912195202293 -0.16983353188520633
-0.2329585595048059 0.3040319675335419 -0.16914906425040446
0.03477951169336843 0.3132722806033667 -0.16914906425040446
-0.14797334679872262 0.3535018658388448 -0.16914906425040446
0.11048163210245183 0.36309296857150564 -0.16914906425040446
0.27412928773813666 0.3617325891473369 -0.16914906425040446
0.23435316231071474 0.30675272638187917 -0.16914906425040446
0.541867358936311 0.19406368615719147 -0.16914906425040446
0.5795815256138924 0.23987168261630454 -0.16855015506995288
0.6944351947336409 0.3527746189768679 -0.16855015506995288
0.354340338691477 0.33990662744259326 -0.16855015506995288
0.2321543100339138 0.3304010831642827 -0.16855015506995288
0.10484332996077175 0.34711064929888263 -0.16855015506995288
-0.0061003177951713386 0.3333015147667556 -0.16855015506995288
-0.13566148521772448 0.3164892784869354 -0.16855015506995288
-0.38797336709655245 0.3310941066445196 -0.16855015506995288
-0.408652845513003 0.2799558184793873 -0.16855015506995288
-0.4029289849169726 0.36896227853993135 -0.16855015506995288
-0.36511214809417103 0.31743042148478795 -0.16855015506995288
-0.10044562540716985 0.3130412727766211 -0.16812236279820172
0.14900860409636035 0.3595679602522761 -0.16812236279820172
0.7108966413506251 0.419433210761132 -0.1674378951633999
0.3228377157997225 0.3596877420883664 -0.1674378951633999
0.6545563991609987 0.46451396035826814 -0.1674378951633999
0.35030197964614634 0.2954761220985189 -0.1674378951633999
0.017582262368972302 0.30999539180175295 -0.1674378951633999
0.06884888821562997 0.36032087465055823 -0.1674378951633999
-0.06664148009339407 0.3180207748198045 -0.1674378951633999
-0.2567095864324297 0.30904569295846535 -0.1674378951633999
0.5566261923117256 0.45687359038479264 -0.1668389859829483
0.5341414305084853 0.43512463128896417 -0.1668389859829483
0.44230298560894843 0.22661012219201893 -0.1668389859829483
0.5942719122258268 0.4332509011386941 -0.1668389859829483
0.28442196979646933 0.3385975830910348 -0.1668389859829483
0.15914728093686262 0.35095222389920794 -0.1668389859829483
0.02227942151279986 0.3381697908192836 -0.1668389859829483
-0.09583402471769245 0.31660906032302566 -0.1668389859829483
-0.4012777067480132 0.32507079145826345 -0.1668389859829483
-0.4001568909960252 0.3059484769109871 -0.1668389859829483
-0.4114762745065606 0.24817085268827682 -0.1668389859829483
-0.21433248399276092 0.21395602679361983 -0.1668389859829483
-0.38432002109579766 0.22339312430845024 -0.1668389859829483
-0.07090229112003545 0.30674417053644426 -0.16641119371119714
0.11365585075884545 0.36309296857150564 -0.16641119371119714
0.3303326364008027 0.3180207748198045 -0.16641119371119714
0.38739156960697085 0.30675272638187917 -0.16572672607639527
0.2696716922664896 0.31126165692613633 -0.16572672607639527
0.10510000532382245 0.36309296857150564 -0.16572672607639527
0.07262201605247513 0.30674417053644426 -0.16572672607639527
-0.11097787113768323 0.3405568716956551 -0.16572672607639527
-0.1793305203180818 0.36309296857150564 -0.16572672607639527
0.6608107221740007 0.2956557948526544 -0.16512781689594366
0.5765185329481541 0.4572329358930636 -0.16512781689594366
0.4034508914885091 0.3959046358148188 -0.16512781689594366
0.564951029920003 0.4521079844774847 -0.16512781689594366
0.5458543829090318 0.23221420095195888 -0.16512781689594366
0.2837717255434075 0.34030875217803935 -0.16512781689594366
0.1542447815025945 0.3288268076042385 -0.16512781689594366
0.03970767866394174 0.328989368667504 -0.16512781689594366
-0.08405262555366583 0.3288096959133685 -0.16512781689594366
-0.2462885666925718 0.32182812603838973 -0.16512781689594366
-0.40207340037347034 0.33084598712690394 -0.16512781689594366
-0.4026637537084869 0.39723079185724736 -0.16512781689594366
-0.37246161932285576 0.3347132292635343 -0.16512781689594366
-0.2994545902258046 0.4250629570573771 -0.16512781689594366
-0.07090229112003545 0.30674417053644426 -0.16470002462419256
0.17047522029283305 0.3144700989642699 -0.16470002462419256
0.7559773909477613 0.2933114932034581 -0.1640155569893907
0.3272610878896293 0.3180207748198045 -0.1640155569893907
0.26532532278549786 0.36793557708772856 -0.1640155569893907
0.2204670251696724 0.3518249201335803 -0.1640155569893907
0.08278636042928246 0.3059998119835972 -0.1640155569893907
0.017582262368972302 0.3518249201335803 -0.1640155569893907
-0.023528574946313222 0.3180207748198045 -0.1640155569893907
-0.1707746748830588 0.3081045499606128 -0.1640155569893907
-0.4184578443815394 0.36309296857150564 -0.1640155569893907
0.4579772944459105 0.47379705265526817 -0.16341664780893908
0.40191939515563996 0.3956565162972031 -0.16341664780893908
0.5352280228787333 0.4107746951808887 -0.16341664780893908
0.5658750612269856 0.23801506415690457 -0.16341664780893908
0.2756094489983956 0.35481091019040334 -0.16341664780893908
0.11635094207087766 0.333446964139151 -0.16341664780893908
-0.008282058381102284 0.33057220007298327 -0.16341664780893908
-0.18328332090906246 0.3414295679300273 -0.16341664780893908
-0.3764229757592714 0.3237018561886598 -0.16341664780893908
-0.20813805189780424 0.43959933845148114 -0.16341664780893908
-0.4032541070435035 0.2597469115618629 -0.16341664780893908
-0.23261632568740506 0.2670279360270674 -0.16341664780893908
0.008726962343723416 0.37436101700943086 -0.16298885553718792
0.08394139956301061 0.2954761220985189 -0.16298885553718792
0.3272610878896293 0.37436101700943086 -0.16298885553718792
-0.23901609807280216 0.2954761220985189 -0.1623043879023861
-0.1549549166737014 0.34417599431466983 -0.1623043879023861
-0.08080996013379207 0.37436101700943086 -0.1623043879023861
0.017796158504847802 0.3489244885311075 -0.1623043879023861
0.2958611351430951 0.3265423968730874 -0.1623043879023861
0.7785134878236117 0.3180207748198045 -0.1623043879023861
0.3316844599795362 0.3429353967265914 -0.1623043879023861
0.24094971914111749 0.3559060584060863 -0.1623043879023861
0.15914728093686262 0.3082842227147483 -0.1623043879023861
0.0043035902538165645 0.36529182084830647 -0.1623043879023861
0.5621447126173155 0.2214509473947 -0.1617054787219345
0.4082164973958168 0.2965627144687668 -0.1617054787219345
0.45296356902098717 0.4680304128320626 -0.1617054787219345
0.5651478143650086 0.45038825954504513 -0.1617054787219345
0.22469361281457376 0.3356115930342118 -0.1617054787219345
0.09897401999234592 0.34219959401917943 -0.1617054787219345
-0.05900111011991854 0.34818868582369555 -0.1617054787219345
-0.1722548361433178 0.334952792935715 -0.1617054787219345
-0.38005065422372114 0.3282278984237869 -0.1617054787219345
-0.2048183838690153 0.445853661464483 -0.1617054787219345
-0.404571707240497 0.3662928547642042 -0.1617054787219345
-0.21854195994679215 0.42789494189636973 -0.1617054787219345
-0.14832413646155854 0.3024491361280626 -0.16127768645018334
-0.03550675855534533 0.3180207748198045 -0.16127768645018334
0.09721151583273129 0.3674393380524973 -0.16127768645018334
0.1699960929484718 0.3405568716956551 -0.16127768645018334
0.33610783206944306 0.32897225697663396 -0.16127768645018334
-0.427244697643308 0.3180207748198045 -0.16059321881538147
0.344954576249257 0.37436101700943086 -0.16059321881538147
0.1989661855914596 0.3659848443285434 -0.16059321881538147
0.07509465538319679 0.36555705205679223 -0.16059321881538147
0.05760650731400982 0.3489244885311075 -0.16059321881538147
-0.23016935389298848 0.2954761220985189 -0.16059321881538147
-0.076686042634111 0.32928882325772973 -0.16059321881538147
0.14562904514952632 0.3180207748198045 -0.16059321881538147
0.33610783206944306 0.3405568716956551 -0.16059321881538147
0.7559773909477613 0.36309296857150564 -0.16059321881538147
0.6628470133875362 0.4032883304252436 -0.1599943096349299
0.5948194863336682 0.44210620116394295 -0.1599943096349299
0.5395145014416796 0.4101073392369569 -0.1599943096349299
0.34652029596386613 0.3272439761987592 -0.1599943096349299
0.2401625813610954 0.31881646844526157 -0.1599943096349299
0.16208193592107553 0.36194648528321255 -0.1599943096349299
0.020260241990134518 0.32572959155676023 -0.1599943096349299
-0.09341272045958093 0.33011874026492705 -0.1599943096349299
-0.18537094719520805 0.3454422594390532 -0.1599943096349299
-0.37679943295841245 0.3220249104833952 -0.1599943096349299
-0.20891663383239129 0.3614074670208061 -0.1599943096349299
-0.39376567445606303 0.22069803299641802 -0.1599943096349299
-0.40454603970419195 0.3575915599567859 -0.1599943096349299
0.38613386032802255 0.3525949462227324 -0.15956651736317873
0.17000464879390684 0.32928882325772973 -0.15956651736317873
-0.06179031573173598 0.31716519027630213 -0.15956651736317873
-0.05763217485031489 0.3042030844422423 -0.15956651736317873
0.23878509024605665 0.36555705205679223 -0.15956651736317873
-0.23459272598289532 0.32487400701325797 -0.15956651736317873
0.38739156960697085 0.27294002522266836 -0.1588820497283769
0.21504261916386783 0.3405568716956551 -0.1588820497283769
-1.1978183609028586E-4 0.32928882325772973 -0.1588820497283769
-0.19477382132829835 0.32928882325772973 -0.1588820497283769
9.668105341575939E-4 0.3694242941934226 -0.1588820497283769
0.300720855350188 0.2954761220985189 -0.1588820497283769
0.24763183442587036 0.37436101700943086 -0.1588820497283769
-0.42005778747788863 0.3518249201335803 -0.1588820497283769
0.5407465431843229 0.27816764678346745 -0.1582831405479253
0.524362099176254 0.22933088104035623 -0.1582831405479253
0.5262016059447839 0.21997078613444102 -0.1582831405479253
0.5300517363905443 0.46239211069038255 -0.1582831405479253
0.4370240289755393 0.27725217132192 -0.1582831405479253
0.30635060164643324 0.34656307519104124 -0.1582831405479253
0.3516538032248799 0.3139653040836036 -0.1582831405479253
0.15370576324018803 0.3381355674375436 -0.1582831405479253
0.16082422664212712 0.3090628046493354 -0.1582831405479253
-0.07993726389941982 0.3097900515113124 -0.1582831405479253
-0.04733949279198221 0.34656307519104124 -0.1582831405479253
-0.2088738546052162 0.36042354479577837 -0.1582831405479253
-0.39102780391685565 0.33108555079908464 -0.1582831405479253
-0.40383590453308504 0.3134690650483722 -0.1582831405479253
-0.40077291186734687 0.4119896252326619 -0.1582831405479253
0.18127269723183206 0.37436101700943086 -0.15785534827617415
0.3670799925442263 0.3484710287230513 -0.15785534827617415
0.1400934131530665 0.32128910777598324 -0.15785534827617415
-0.08417240738975612 0.3405568716956551 -0.15785534827617415
-0.16381021669895016 0.2954761220985189 -0.15785534827617415
0.38739156960697085 0.419433210761132 -0.1571708806413723
0.5869395526880121 0.2053317345951167 -0.1571708806413723
0.20191795226654263 0.346126727073855 -0.1571708806413723
-0.0017453924687446344 0.3269787449902736 -0.1571708806413723
-0.22524974276785023 0.29772630944793 -0.1571708806413723
-0.427244697643308 0.22786783147096723 -0.1571708806413723
0.5799665386584684 0.45446084197211606 -0.1565719714609207
0.6010652535012352 0.4483091891043346 -0.1565719714609207
0.4798545912232644 0.46133974170187453 -0.1565719714609207
0.642715109078927 0.2742490695742269 -0.1565719714609207
0.5415593485006501 0.42342879057928773 -0.1565719714609207
0.33108555079908464 0.3571124326124246 -0.1565719714609207
0.435432641724625 0.33312184201262013 -0.1565719714609207
0.24743504998086488 0.31468399510014555 -0.1565719714609207
0.271656648407415 0.34853947548653147 -0.1565719714609207
0.28052906012353374 0.3488645976130623 -0.1565719714609207
0.10000927728998378 0.315975927760834 -0.1565719714609207
0.017804714350282868 0.36092833967644483 -0.1565719714609207
0.01770204420506259 0.3190132528902672 -0.1565719714609207
-0.06361271080939594 0.3507982186813775 -0.1565719714609207
-0.2376899420303736 0.32098965318575745 -0.1565719714609207
-0.14620228679367278 0.3180635540469796 -0.1565719714609207
-0.38848671782265387 0.30707784850841 -0.1565719714609207
-0.41075758349001873 0.3168742915315114 -0.1565719714609207
-0.391506931261217 0.4184835119178444 -0.1565719714609207
-0.4204000212952896 0.43070125919905733 -0.15614417918916956
0.7559773909477613 0.3990702986257773 -0.1554597115543677
0.39439025117281973 0.27216144328808134 -0.1554597115543677
0.5175003111373656 0.3951773889528419 -0.1554597115543677
-0.41597664920538274 0.43039324876339646 -0.1554597115543677
0.49543478576044125 0.21725858313153878 -0.15486080237391608
0.5324901523395258 0.22811595098858287 -0.15486080237391608
0.63456138837935 0.2542540587925782 -0.15486080237391608
0.6871456144230015 0.32116077009445787 -0.15486080237391608
0.41413714243685273 0.3531510761760089 -0.15486080237391608
0.4368443562214037 0.4143339268818582 -0.15486080237391608
0.3240954250786708 0.312271246687469 -0.15486080237391608
0.250480930955733 0.35574349734282085 -0.15486080237391608
0.19094080257340812 0.33492712539940994 -0.15486080237391608
0.01232897327186815 0.3156850290160432 -0.15486080237391608
-0.08491676594260314 0.3577626768654863 -0.15486080237391608
-0.20891663383239129 0.3614074670208061 -0.15486080237391608
-0.2079498232982337 0.3183801203280755 -0.15486080237391608
-0.4017996133195496 0.22859507833294426 -0.15486080237391608
-0.40938009237497996 0.41897975095307577 -0.15486080237391608
-0.3907026817903248 0.4101073392369569 -0.15486080237391608
-0.2832583748173061 0.1912573688545039 -0.15443301010216492
0.6770924960368494 0.24130906464938834 -0.1537485424673631
0.3728380765219968 0.419433210761132 -0.1537485424673631
-0.2567095864324297 0.1878692540622348 -0.1537485424673631
0.5362119451037608 0.41752525722912187 -0.1531496332869115
0.5246872213027848 0.4629311289527889 -0.1531496332869115
0.5313094456694926 0.22955333302166678 -0.1531496332869115
0.6891819056365369 0.3653431559209166 -0.1531496332869115
0.3365955152592395 0.3597904122335867 -0.1531496332869115
0.4123489707409329 0.3474956623434587 -0.1531496332869115
0.3214516688392487 0.31235680514181924 -0.1531496332869115
0.18063956466964037 0.31338350659402203 -0.1531496332869115
0.17954441645395744 0.3538697671925508 -0.1531496332869115
0.11615415762587217 0.3504987640911517 -0.1531496332869115
-0.15833447562053543 0.35441734130039226 -0.1531496332869115
-0.29463764924588665 0.27581478928883607 -0.1531496332869115
-0.25074616216421874 0.3224612586005814 -0.1531496332869115
-0.2514819648716307 0.20525473198620148 -0.1531496332869115
-0.4048369384489828 0.3376136608660071 -0.1531496332869115
-0.3824377351000926 0.4341492649093715 -0.1531496332869115
-0.3925593002497248 0.42373680101494854 -0.1531496332869115
-0.2807515121048444 0.18646609541089101 -0.1520373733803585
0.6207522538472229 0.2074963634901775 -0.1520373733803585
0.3728380765219968 0.27294002522266836 -0.1520373733803585
0.5438779826135415 0.28399417752471806 -0.15143846419990692
0.5260219331906484 0.26616379563813014 -0.15143846419990692
0.5418245797091359 0.22437704653347784 -0.15143846419990692
0.5423892655078474 0.4178161559739127 -0.15143846419990692
0.4350561845254839 0.27745751161236054 -0.15143846419990692
0.31551391210734286 0.339444611789102 -0.15143846419990692
0.35899471860812965 0.32219602739209574 -0.15143846419990692
0.179356187854387 0.35683008971306884 -0.15143846419990692
-0.09319882432370542 0.3315047872254007 -0.15143846419990692
-0.15062565888357976 0.35582049995173604 -0.15143846419990692
-0.21146627577202814 0.27489075798185353 -0.15143846419990692
-0.2252754103041553 0.30493033130421937 -0.15143846419990692
-0.2714170847352343 0.43651923409487287 -0.15143846419990692
-0.3976842516653035 0.3053923469577106 -0.15143846419990692
-0.4105436873541431 0.33072620529081365 -0.15143846419990692
-0.23901609807280216 0.46451396035826814 -0.15032620429335392
0.5264668371532697 0.44196930763698256 -0.15032620429335392
0.5869395526880121 0.2053317345951167 -0.15032620429335392
0.5378289998909801 0.4109714796258942 -0.1497272951129023
0.5374782102281441 0.26544510462158816 -0.1497272951129023
0.7038380688667313 0.3395216143980172 -0.1497272951129023
0.5480703468767026 0.2680460816338352 -0.1497272951129023
0.4080197129508113 0.390788240244675 -0.1497272951129023
0.41489005683513475 0.39695700480332663 -0.1497272951129023
0.34391076310618407 0.31784110206566907 -0.1497272951129023
0.18147803752227262 0.36014975774185765 -0.1497272951129023
8.98363770677448E-4 0.352081595496631 -0.1497272951129023
