0.3713895948919655 0.29737763217601443 -0.14472531595779925
0.12283796135612948 0.45563570495064687 -0.14284576639990576
0.07683598592668618 0.14738017970832387 -0.14284576639990576
0.07683598592668618 0.33736504902019854 -0.14284576639990576
0.07683598592668618 0.5273499183320732 -0.14284576639990576
0.20519982298302247 0.6047967578650747 -0.14284576639990576
0.19004125579861145 0.3085985430366386 -0.14284576639990576
0.4063962054077319 0.2980542700168561 -0.14284576639990576
0.5184643477971317 0.375970996939331 -0.14284576639990576
0.4479624438805466 0.6047967578650747 -0.14284576639990576
0.6124230301962275 0.6001542704570777 -0.14284576639990576
0.2686816093008753 0.46831326671863843 -0.14096621684201227
0.07683598592668618 0.4502132044761242 -0.14096621684201227
0.11486867123066107 0.3193683620033684 -0.14096621684201227
0.09602618691277867 0.08416153032857607 -0.14096621684201227
0.456495598873383 0.3179680975827377 -0.14096621684201227
0.45834695518790813 0.6047967578650747 -0.14096621684201227
0.49549625219967325 0.42557230977214044 -0.14096621684201227
0.3335072735526221 0.08416153032857607 -0.14096621684201227
0.6170091311174877 0.16161776760936714 -0.14096621684201227
0.6323368577621091 0.35685597793555407 -0.13955655467359213
0.07683598592668618 0.13572697244938425 -0.13908666728411875
0.07683598592668618 0.24765414862194196 -0.13908666728411875
0.11984007981128933 0.3840718555338519 -0.13908666728411875
0.22556474244279853 0.46833206221421747 -0.13908666728411875
0.43248435327129364 0.46723252572284985 -0.13908666728411875
0.5200243739301832 0.08416153032857607 -0.13908666728411875
0.6162667090421199 0.16206885950326158 -0.13908666728411875
0.6162667090421199 0.32039271651242024 -0.13908666728411875
0.5482270150463752 0.6047967578650747 -0.13908666728411875
0.6026963612341287 0.11201645477655768 -0.13720711772622526
0.3887660305546909 0.08397357537278675 -0.13720711772622526
0.40813478874878345 0.29876849884885553 -0.13720711772622526
0.07664803097089673 0.1579244527281064 -0.13720711772622526
0.12177601585591966 0.38893988888879605 -0.13720711772622526
0.616454663997909 0.5928710159202406 -0.13720711772622526
0.3082085365033756 0.4752863955784235 -0.13720711772622526
0.2424900862116295 0.6049847128208641 -0.13720711772622526
0.4863992323394686 0.4045683434626806 -0.13720711772622526
0.07683598592668618 0.13547323325906863 -0.13720711772622526
0.43389401543971384 0.46664986535990277 -0.13532756816833177
0.3925157319226884 0.2880738618644416 -0.13532756816833177
0.5118295378577677 0.3996909123599469 -0.13532756816833177
0.5952157539937126 0.15173133693484728 -0.13532756816833177
0.5265840018872316 0.38778396591069164 -0.13344801861043826
0.11110957211487402 0.3157220358610549 -0.13344801861043826
0.11656026583276514 0.3654173261717589 -0.13344801861043826
0.11640050412034424 0.44329646210307605 -0.13344801861043826
0.5418177510539582 0.37833922938227676 -0.1322263113978075
0.5357468059819623 0.5072857268015603 -0.1322263113978075
0.36642758405912673 0.5320393944790175 -0.1322263113978075
0.18586865578008785 0.4911122028558867 -0.1322263113978075
0.19558592699439728 0.2559429621722522 -0.1322263113978075
0.37052500209533445 0.23118929449479483 -0.1322263113978075
0.5600399840177359 0.28069662984970956 -0.1322263113978075
0.640635069060209 0.41874014712919755 -0.1322263113978075
0.11301731491613594 0.45458315719822645 -0.13156846905254477
0.5058243770202979 0.34265598102566874 -0.13156846905254477
0.4025901175529976 0.29783812181769836 -0.13156846905254477
0.12165384513465653 0.3680111045616521 -0.13156846905254477
0.5989184666227629 0.3073486425806395 -0.1310985816630714
0.6282488374736908 0.39398647945174015 -0.1310985816630714
0.4579898407719084 0.5177642155868163 -0.1310985816630714
0.253898952028043 0.4930105479093591 -0.1310985816630714
0.07261639716921517 0.4806337140706304 -0.1310985816630714
0.2781921300638164 0.27021814106445335 -0.1310985816630714
0.48715105216262605 0.2454550756392065 -0.1310985816630714
0.11271658698687302 0.31601336604252844 -0.12968891949465128
0.43342412805024033 0.2982046339814875 -0.12968891949465128
0.48034708276305144 0.3195375214635788 -0.12968891949465128
0.4672654178401127 0.4442550323776018 -0.12968891949465128
0.48786528099462556 0.43443438593760825 -0.12968891949465128
0.09051910670815073 0.14436350266790485 -0.12968891949465128
0.5387634830223814 0.3692328117742828 -0.1292190321051779
0.36832592911259915 0.5425178832642739 -0.1292190321051779
0.0876433958845737 0.12023008634455236 -0.1278093699367578
0.12355219018812895 0.4053671520247853 -0.1278093699367578
0.10993485364119059 0.39378912674816136 -0.1278093699367578
0.103910897308142 0.45730850405717205 -0.1278093699367578
0.11453975005802973 0.3172726642463171 -0.1278093699367578
0.5020182891655636 0.3526551846736622 -0.1278093699367578
0.578741502118776 0.2825949749031821 -0.1262117528125483
0.5663646682800475 0.483020742009155 -0.1262117528125483
0.11261321176118878 0.2949718087419107 -0.1262117528125483
0.5206352275364986 0.3648628590521804 -0.1259298203788643
0.5012570715946169 0.3368199796484095 -0.1259298203788643
0.1324330618491758 0.3009205830926436 -0.1259298203788643
0.3913598089445839 0.2965224371271729 -0.1259298203788643
0.532579764976912 0.3869005776184816 -0.1259298203788643
0.5988526823882365 0.14809440854032335 -0.1259298203788643
0.12717972083486348 0.3764126910854359 -0.1240502708209708
0.34933308083008535 0.4865918861691529 -0.1240502708209708
0.4673312020746391 0.4636331883194837 -0.1240502708209708
0.42755053568182316 0.4852198149918905 -0.1240502708209708
0.11759401808960657 0.4576750162209613 -0.1240502708209708
0.5307472041579656 0.3793353906479604 -0.1240502708209708
0.41783326446751384 0.2454550756392065 -0.12320447351991873
0.5663646682800475 0.4930105479093591 -0.12320447351991873
0.09372373870435922 0.34447914409682545 -0.12320447351991873
0.11474650050939794 0.39578144927952846 -0.12217072126307728
0.20693840632407398 0.47399890413126644 -0.12217072126307728
0.49149281164135994 0.4487847468121251 -0.12217072126307728
0.46648540477358696 0.4697699176260059 -0.12217072126307728
0.5042079644005095 0.34563506707492997 -0.12217072126307728
0.11206814238939973 0.4589813031636973 -0.12217072126307728
0.2261474028057455 0.3312941039482025 -0.12217072126307728
0.35594909527387036 0.23307824180047787 -0.12029117170518379
0.504480499086404 0.5301410494255451 -0.12029117170518379
0.07126312148753193 0.3816096456130114 -0.12029117170518379
0.13288415374307025 0.3854909154500616 -0.12029117170518379
0.38584333099216656 0.4885466177093621 -0.12029117170518379
0.533406766782385 0.40793273717130984 -0.12029117170518379
0.5084087576624016 0.44136992380623524 -0.12029117170518379
0.19809512565418505 0.35845359505976354 -0.12029117170518379
0.3524719285917675 0.48173325056199795 -0.12029117170518379
0.115169399159924 0.3104874903423215 -0.12029117170518379
0.5233699721432337 0.3681520707784941 -0.12029117170518379
0.1076605986761394 0.3791850266833289 -0.1184116221472903
0.474445297151266 0.4599210779426441 -0.1184116221472903
0.3386008528545135 0.280602652371815 -0.1184116221472903
0.09880792025846111 0.3458888062652456 -0.1184116221472903
0.09947516035151327 0.39850679613847395 -0.1184116221472903
0.21795256673332986 0.3399400319145126 -0.1184116221472903
0.1420939465767483 0.30645585654063995 -0.1184116221472903
0.44825377406202005 0.46982630411274273 -0.1184116221472903
0.47972683140894656 0.27021814106445335 -0.11718991493465954
0.5663646682800475 0.3816096456130114 -0.11718991493465954
0.13314729068117526 0.28497260509391736 -0.11718991493465954
0.10638250497677187 0.3732644455759644 -0.11653207258939681
0.10543333245003567 0.43148349313171536 -0.11653207258939681
0.5490540168518483 0.38729528302563926 -0.11653207258939681
0.09901467070982944 0.33851157425051354 -0.11653207258939681
0.09817827115656672 0.4186461696513028 -0.11653207258939681
0.2535700308554117 0.3399118386711442 -0.11653207258939681
0.4655832209857982 0.31574083135663383 -0.11653207258939681
0.5267249681040735 0.4093611948353089 -0.11653207258939681
0.08995524184078266 0.08128581950499905 -0.11465252303150332
0.10573406037929858 0.33407583729388496 -0.11465252303150332
0.10572466263150922 0.4051510038256276 -0.11465252303150332
0.5264148424270212 0.42448217102856217 -0.11465252303150332
0.09839441935572456 0.32972468006736155 -0.11465252303150332
0.09836622611235615 0.41498104801341046 -0.11465252303150332
0.5376639465310138 0.38778396591069164 -0.11465252303150332
0.2513239691337289 0.43377654359234546 -0.11465252303150332
0.5408309875360643 0.39473829927489756 -0.11465252303150332
0.6191424198656967 0.0895652353075199 -0.11465252303150332
0.640635069060209 0.34447914409682545 -0.11418263564202993
0.20741769146133684 0.5177642155868163 -0.11418263564202993
0.2063181549699691 0.3398742476799864 -0.11277297347360979
0.11904127124918465 0.3717608059296496 -0.11277297347360979
0.5009375481697748 0.44584325175402173 -0.11277297347360979
0.10034915089593378 0.3238792809423128 -0.11277297347360979
0.10099759549340706 0.4010817790327881 -0.11277297347360979
0.4616455646620112 0.47975972352621 -0.11277297347360979
0.16206416062936668 0.4679937432937966 -0.11277297347360979
0.3671042218999684 0.2825103951730769 -0.11277297347360979
0.5988526823882365 0.07755491363258041 -0.11277297347360979
0.6158720036349622 0.3692328117742828 -0.11230308608413644
0.145524124519904 0.4930105479093591 -0.11230308608413644
0.2797239629534997 0.3424022418353531 -0.1108934239157163
0.11845861088623756 0.3717608059296496 -0.1108934239157163
0.4971314603150404 0.45058911438770277 -0.1108934239157163
0.10058409459067039 0.32116333183115664 -0.1108934239157163
0.1004901171127758 0.39298092043826716 -0.1108934239157163
0.39510011256479205 0.5006791101055647 -0.1108934239157163
0.20377136531902343 0.4360601963051861 -0.1108934239157163
0.39972380447720995 0.283938852837076 -0.1108934239157163
0.16589844172746945 0.47311551583905626 -0.1108934239157163
0.5292341667638613 0.5077744096866125 -0.10967171670308554
0.08871473913257304 0.34714810446903427 -0.10967171670308554
0.0876433958845737 0.09784465111004076 -0.10901387435782281
0.10381691983024728 0.3811115649801697 -0.10901387435782281
0.5049879774670353 0.4462285594133899 -0.10901387435782281
0.09986986575867092 0.33344618819199057 -0.10901387435782281
0.09975709278519732 0.4109024254727816 -0.10901387435782281
0.4425493411538133 0.49046375825841326 -0.10901387435782281
0.10648588020245597 0.45321108602096416 -0.10901387435782281
0.41688409194077763 0.48707117130641564 -0.10901387435782281
0.5468925348602709 0.38757721545932333 -0.10901387435782281
0.07126312148753193 0.4435032125544444 -0.10713432479992932
0.6282488374736908 0.3816096456130114 -0.10713432479992932
0.20160048557965649 0.43178422106097847 -0.10713432479992932
0.10589382209171963 0.3885075924904806 -0.10713432479992932
0.21454118428575317 0.48283278705336585 -0.10713432479992932
0.4378316717635007 0.2841456032884442 -0.10713432479992932
0.09454134276204293 0.3751721883772263 -0.10713432479992932
0.2752600327535026 0.4962339754011464 -0.10713432479992932
0.3740679530119638 0.2792869676812895 -0.10713432479992932
0.11271658698687302 0.469610155913585 -0.10713432479992932
0.591362677400031 0.14436350266790485 -0.10713432479992932
0.20067950629628867 0.4309760147510841 -0.10525477524203583
0.12781876768454725 0.38271857985216867 -0.10525477524203583
0.4790126025769471 0.3057416277086405 -0.10525477524203583
0.21941861538848684 0.28546128797896964 -0.10525477524203583
0.0944003765452009 0.3926050105266884 -0.10525477524203583
0.09485146843909523 0.43528018323866036 -0.10525477524203583
0.13626734294727855 0.3958002447751074 -0.10525477524203583
0.35048900380818987 0.4906611109619922 -0.10525477524203583
0.3750923075210157 0.2782626131722375 -0.10525477524203583
0.06659244083616658 0.15173133693484728 -0.10525477524203583
0.18827447921419152 0.1414877918443278 -0.10525477524203583
0.4619744858346427 0.08416153032857607 -0.10525477524203583
0.5987868981537102 0.1371554301133832 -0.10525477524203583
0.19504085762260812 0.2578319094779352 -0.10451235316666789
0.6282488374736908 0.4435032125544444 -0.10451235316666789
0.2733710854478197 0.34720449095577105 -0.1033752256841423
0.12826985957844173 0.4011945520062617 -0.1033752256841423
0.15425463221631933 0.4782184928887372 -0.1033752256841423
0.44891161640728283 0.4879545595986255 -0.1033752256841423
0.4849989679188379 0.29931356822064475 -0.1033752256841423
0.10446536442772056 0.4552316017956997 -0.1033752256841423
0.3598867515976574 0.2773040428977119 -0.1033752256841423
0.23199280193079427 0.4832838789472603 -0.1033752256841423
0.25501728401498963 0.4367180386504488 -0.1033752256841423
0.10448415992329946 0.41659746063319897 -0.1033752256841423
0.06659244083616658 0.122617114283077 -0.1033752256841423
0.28254328729033995 0.1414877918443278 -0.1033752256841423
0.4415813731314982 0.08416153032857607 -0.1033752256841423
0.6111167432534917 0.10709203493487672 -0.1033752256841423
0.5168573329251328 0.2825949749031821 -0.10193737027235379
0.3880142107315335 0.5425178832642739 -0.10193737027235379
0.13031856859654553 0.38247423840964256 -0.10149567612624881
0.09994504774098663 0.32446194130525974 -0.10149567612624881
0.09639269907656792 0.3874268514946918 -0.10149567612624881
0.0962047441207786 0.4499030787990717 -0.10149567612624881
0.28870820984023055 0.5006885078533542 -0.10149567612624881
0.10955894372961196 0.3599384392104994 -0.10149567612624881
0.10642949371571916 0.45806032388032947 -0.10149567612624881
0.28639636388402157 0.2833749879697079 -0.10149567612624881
0.38906675848395383 0.28841218078486247 -0.10149567612624881
0.4184911068127765 0.3095947043023221 -0.10149567612624881
0.37900177060143414 0.49726772765798793 -0.10149567612624881
0.06659244083616658 0.15173133693484728 -0.10149567612624881
0.16677243227188995 0.1414877918443278 -0.10149567612624881
0.44047243889234095 0.08416153032857607 -0.10149567612624881
0.5784031831983552 0.1414877918443278 -0.10149567612624881
0.2060362225362851 0.3476085941107181 -0.09961612656835532
0.4787870566299999 0.3016348119246432 -0.09961612656835532
0.3201624716915783 0.27214467936129416 -0.09961612656835532
0.426479192433824 0.2724548050383466 -0.09961612656835532
0.11808270097465894 0.36539853067618006 -0.09961612656835532
0.2536076218465695 0.488687583926204 -0.09961612656835532
0.29759847924906685 0.34321044814524726 -0.09961612656835532
0.4060860797306795 0.49508745017083144 -0.09961612656835532
0.42814259379255964 0.43797733685423745 -0.09961612656835532
0.2853908048705486 0.4150374345001473 -0.09961612656835532
0.07743744178521203 0.1363378260556996 -0.09961612656835532
0.4549637659836998 0.2454550756392065 -0.0993623873780397
0.2816786944937089 0.2454550756392065 -0.0993623873780397
0.12224590324539301 0.3997191056033153 -0.09773657701046183
0.5239620302539703 0.44042075127949903 -0.09773657701046183
0.505100750440509 0.4608796482171697 -0.09773657701046183
0.2588327696175135 0.4994104141539863 -0.09773657701046183
0.1073222797557187 0.40681440518436324 -0.09773657701046183
0.25705659528530406 0.4365112881990806 -0.09773657701046183
0.42302082124729984 0.2811007330046567 -0.09773657701046183
0.4259435208098243 0.47344443701168787 -0.09773657701046183
0.4320144658818203 0.3501835770050322 -0.09773657701046183
0.1083936230037179 0.5053873817480878 -0.09678740448372562
0.504480499086404 0.2454550756392065 -0.09678740448372562
0.2228393955838529 0.27021814106445335 -0.09678740448372562
0.09906165944877673 0.38946616276500634 -0.09585702745256834
0.42726860324813914 0.4955291443169364 -0.09585702745256834
0.47064860704432104 0.4832274924605235 -0.09585702745256834
0.10202195000245896 0.48330267444283903 -0.09585702745256834
0.4862206751314686 0.46628335319611364 -0.09585702745256834
0.3948933621134237 0.28283931634570825 -0.09585702745256834
0.2530813479703593 0.2839012618459181 -0.09585702745256834
0.10212532522814308 0.3044071475225361 -0.09585702745256834
0.23407910194005613 0.43635152648665954 -0.09585702745256834
0.14758223128579734 0.4784440388356844 -0.09585702745256834
0.49325958822578 0.3164738556842123 -0.09585702745256834
0.1664341133514691 0.27021814106445335 -0.09420302384162205
0.1083936230037179 0.4930481389005169 -0.09420302384162205
0.6034951697962335 0.45825767658390826 -0.09420302384162205
0.210396777510598 0.27021814106445335 -0.09420302384162205
0.4070728432485735 0.28668299519160034 -0.09397747789467482
0.41882942573319737 0.33076783007199234 -0.09397747789467482
0.14122935378011728 0.2920679046749653 -0.09397747789467482
0.4276727064030863 0.3298844417797825 -0.09397747789467482
0.5719469304669912 0.3863367127511136 -0.09397747789467482
0.45576257454580466 0.49448599431230533 -0.09397747789467482
0.2988389819572765 0.4949276884584103 -0.09397747789467482
0.4285466969475068 0.2886471244795991 -0.09397747789467482
0.40609547747846886 0.2803959019204466 -0.09397747789467482
0.10562128740582498 0.2994357389419077 -0.09397747789467482
0.30166770404190624 0.3349968165772527 -0.09397747789467482
0.3257165406351535 0.4524404707022279 -0.09397747789467482
0.20711696353207393 0.1414877918443278 -0.09209792833678133
0.10110097071909116 0.39602579072205457 -0.09209792833678133
0.11640050412034424 0.3726629897174384 -0.09209792833678133
0.4185474932995133 0.2741651951360297 -0.09209792833678133
0.15706455880537 0.48030479289799904 -0.09209792833678133
0.0979433274618301 0.3072734605983236 -0.09209792833678133
0.3305939717378872 0.2637148995941419 -0.09209792833678133
0.43371545823171387 0.4778049919860008 -0.09209792833678133
0.42327456043761547 0.4540850765653847 -0.09209792833678133
0.33009589110504545 0.44573987652833763 -0.09209792833678133
0.19826428511439548 0.3489806652879804 -0.09209792833678133
0.2933131062570697 0.4225744282273003 -0.09209792833678133
0.4549637659836998 0.5301410494255451 -0.09162804094730795
0.11783835953213281 0.4939597204360953 -0.09162804094730795
0.1567074443893703 0.27021814106445335 -0.09162804094730795
0.21016183381586137 0.5053873817480878 -0.09087622112415057
0.5911183359575047 0.34447914409682545 -0.09087622112415057
0.29277743463307 0.2972554614547513 -0.09087622112415057
0.3802422733096439 0.4802765996546305 -0.09087622112415057
0.10261400811319545 0.2776235663225537 -0.09087622112415057
0.10103518648456485 0.38485186860037784 -0.09021837877888784
0.10291473604245838 0.41921943226646036 -0.09021837877888784
0.1273488802950739 0.385782245631535 -0.09021837877888784
0.39546662472858113 0.2703403117857165 -0.09021837877888784
0.4235282996279311 0.4913565442984127 -0.09021837877888784
0.3512690168747157 0.5090243101426115 -0.09021837877888784
0.20728612299228436 0.4974086938748298 -0.09021837877888784
0.43429811859466083 0.48940181275820344 -0.09021837877888784
0.42730619423929705 0.4894206082537825 -0.09021837877888784
0.3010568504355909 0.3373368557768301 -0.09021837877888784
0.33835651141198725 0.3351377827940948 -0.09021837877888784
0.23217135913879422 0.2668067586168767 -0.08974849138941446
0.3753836377024891 0.33210231025809683 -0.08899667156625708
0.29277743463307 0.31747001694989596 -0.08899667156625708
0.07969290125468417 0.41874014712919755 -0.08899667156625708
0.28306016341876056 0.44330585985086557 -0.08899667156625708
0.41783326446751384 0.5316352913240704 -0.08899667156625708
0.5911183359575047 0.2949718087419107 -0.08899667156625708
0.10164604009088021 0.3818445893077482 -0.08833882922099436
0.15227170743274157 0.29780053082654045 -0.08833882922099436
0.18993788057292732 0.2820780987747613 -0.08833882922099436
0.415483827520147 0.4498748855557033 -0.08833882922099436
0.11610917393887069 0.483744368588944 -0.08833882922099436
0.09190997338099202 0.30246181373011627 -0.08833882922099436
0.08933499048667792 0.293468169095596 -0.08833882922099436
0.4320426591251887 0.49014423483357145 -0.08833882922099436
0.4287346519032961 0.2835065564387604 -0.08833882922099436
0.30111323692232767 0.43207555124245184 -0.08833882922099436
0.30860324191053323 0.3384269945204083 -0.08833882922099436
0.22474713838511484 0.2578319094779352 -0.08786894183152097
0.2900896787652823 0.3197254764193681 -0.08711712200836358
0.504480499086404 0.25545427928719994 -0.08711712200836358
0.39967681573826264 0.4806337140706304 -0.08711712200836358
0.6191424198656967 0.14436350266790485 -0.08645927966310085
0.4200041442068808 0.4942698461131476 -0.08645927966310085
0.10518899100750954 0.4030271128252079 -0.08645927966310085
0.3276524766797838 0.2686863081747702 -0.08645927966310085
0.42811440054919125 0.28546128797896964 -0.08645927966310085
0.22748188299184985 0.4924184897986225 -0.08645927966310085
0.40568197657573235 0.26495540230235154 -0.08645927966310085
0.5243379401655488 0.3137391110774773 -0.08645927966310085
0.43126264605866294 0.3111735259309527 -0.08645927966310085
0.42845271946961205 0.4546677369283317 -0.08645927966310085
0.30097227070548566 0.33838000578146105 -0.08645927966310085
0.3375952938410405 0.32334360931831313 -0.08645927966310085
0.23217135913879422 0.26247439688593216 -0.08598939227362748
0.2693018606549802 0.3197254764193681 -0.08523757245047006
0.23217135913879422 0.5162793714360806 -0.08523757245047006
0.4549637659836998 0.2469493175377319 -0.08523757245047006
0.11221850635403113 0.2968325628042254 -0.08457973010520733
0.3707223547989133 0.27431555910066124 -0.08457973010520733
0.10585623110056172 0.3766288392845938 -0.08457973010520733
0.4199571554679335 0.5026150461501948 -0.08457973010520733
0.09285914590772823 0.3269429467216791 -0.08457973010520733
0.37610726428227825 0.5073609087838759 -0.08457973010520733
0.4735525111112666 0.4888097546474671 -0.08457973010520733
0.42131982889740627 0.5104433700588212 -0.08457973010520733
0.4325031487668725 0.2875475879882314 -0.08457973010520733
0.20394992252702335 0.42924682915782214 -0.08457973010520733
0.3012636008869592 0.3354103174799893 -0.08457973010520733
0.1957738819501866 0.4331562922382407 -0.08457973010520733
0.2816786944937089 0.5145219925994501 -0.08410984271573399
0.504480499086404 0.2454550756392065 -0.08335802289257657
0.41545563427677856 0.40636331329046876 -0.08335802289257657
0.06659244083616658 0.07391798523805648 -0.08270018054731385
0.10017999143572336 0.37581123522691007 -0.08270018054731385
0.10852519147277054 0.3721837045801755 -0.08270018054731385
0.429618040195506 0.2807812095798148 -0.08270018054731385
0.10865675994182304 0.2896620812408616 -0.08270018054731385
0.09410904636372736 0.4760382154015807 -0.08270018054731385
0.4849519791798906 0.28928617132928286 -0.08270018054731385
0.4866059827908368 0.2860439483419166 -0.08270018054731385
0.43442028931592397 0.3165396399187386 -0.08270018054731385
0.4329824339041354 0.4531640972820169 -0.08270018054731385
0.3097121761496903 0.4444053963422332 -0.08270018054731385
0.2972319670852776 0.43955615848286805 -0.08270018054731385
0.29820933285538226 0.4297637052862429 -0.08270018054731385
0.5911183359575047 0.4435032125544444 -0.08147847333468308
0.28791879902591533 0.25602754190235744 -0.08147847333468308
0.3498969456974534 0.5230081588533394 -0.08147847333468308
0.10675841488835063 0.39728508892584324 -0.08082063098942036
0.42333094692435225 0.4967320560339881 -0.08082063098942036
0.11745305187276454 0.47497626990137093 -0.08082063098942036
0.43160096497908373 0.4909430433956763 -0.08082063098942036
0.10573406037929858 0.29110933440043957 -0.08082063098942036
0.09259600896962308 0.4048314804007856 -0.08082063098942036
0.4039809842258387 0.5113831448377679 -0.08082063098942036
0.46382584214916767 0.49873377631314464 -0.08082063098942036
0.5455110659352189 0.42997985348540063 -0.08082063098942036
0.5256254316127059 0.4437945427359178 -0.08082063098942036
0.30008888241327575 0.33806048235661906 -0.08082063098942036
0.32879900191009886 0.32289251742441866 -0.08082063098942036
0.28306016341876056 0.2454550756392065 -0.08035074359994697
0.36832592911259915 0.43112637871571563 -0.07959892377678959
0.54161100060259 0.28497260509391736 -0.07959892377678959
0.07396027510310901 0.14436350266790485 -0.07894108143152687
0.1014580851350909 0.29881548758780296 -0.07894108143152687
0.10805530408329705 0.29889066957011867 -0.07894108143152687
0.4319392838995045 0.31924619128210524 -0.07894108143152687
0.2549796930238317 0.5016846691190376 -0.07894108143152687
0.09400567113804326 0.46643371716074505 -0.07894108143152687
0.10362896487445797 0.29061125376759783 -0.07894108143152687
0.09501123015151627 0.3987323420854212 -0.07894108143152687
0.39697966212268543 0.26053846084130183 -0.07894108143152687
0.4148071896793053 0.2593731401154079 -0.07894108143152687
0.4373993753651851 0.31694374307368567 -0.07894108143152687
0.4426527163794974 0.4907926794310446 -0.07894108143152687
0.2795360079977103 0.4307128778129791 -0.07894108143152687
0.28105844313960404 0.33900965488335544 -0.07894108143152687
0.29763607024022465 0.2454550756392065 -0.07847119404205348
0.2877872305568627 0.4501192269982294 -0.0777193742188961
0.40162214953068237 0.250088165299414 -0.0777193742188961
0.5539878344413188 0.4806337140706304 -0.0777193742188961
0.10365715811782637 0.39683399703194877 -0.07706153187363338
0.10078144729424922 0.3994183776740524 -0.07706153187363338
0.10694636984413994 0.37220250007575456 -0.07706153187363338
0.42116946493277474 0.45069248961338704 -0.07706153187363338
0.23771603033458005 0.2740994109015034 -0.07706153187363338
0.10383571532582618 0.481770841553156 -0.07706153187363338
0.5862690980981397 0.38327304697174724 -0.07706153187363338
0.5862690980981397 0.3757830419835417 -0.07706153187363338
0.43801962671928996 0.31577842234779174 -0.07706153187363338
0.4435736956628652 0.2793903429069736 -0.07706153187363338
0.27885937015686874 0.34258079904335303 -0.07706153187363338
0.29714738735517243 0.3258528079781009 -0.07706153187363338
0.31221197706168874 0.25213687431751797 -0.07659164448415999
0.3401608789875651 0.4624490720980108 -0.07583982466100257
0.5539878344413188 0.27021814106445335 -0.07583982466100257
0.4748024115672656 0.5301410494255451 -0.07583982466100257
0.4131813793117274 0.3269429467216791 -0.07518198231573985
0.4201357126759333 0.44329646210307605 -0.07518198231573985
0.11889090728455312 0.3909885979069 -0.07518198231573985
0.42954285821319027 0.44153908326644564 -0.07518198231573985
0.15083385202095312 0.48797335509420453 -0.07518198231573985
0.3171457946511592 0.2665154284354031 -0.07518198231573985
0.22959637624448012 0.5017128623624059 -0.07518198231573985
0.36325114530628666 0.5190705025295524 -0.07518198231573985
0.5324294010122803 0.325674250770101 -0.07518198231573985
0.5505952474893211 0.34960091664208526 -0.07518198231573985
0.2916685003939129 0.4310887877245577 -0.07518198231573985
0.3379618060048296 0.33477127063030554 -0.07518198231573985
0.32517147126336443 0.2506050414278347 -0.0747120949262665
0.3361104496903046 0.4806337140706304 -0.07396027510310908
0.640635069060209 0.34447914409682545 -0.07396027510310908
0.6265102541326392 0.15173133693484728 -0.07330243275784636
0.5827919314160366 0.3793259929001709 -0.07330243275784636
0.2747713498684503 0.5034608434512469 -0.07330243275784636
0.2794984170065525 0.2678217153781392 -0.07330243275784636
0.32028464241284127 0.25978664101814447 -0.07330243275784636
0.4079374360452046 0.5046543574205093 -0.07330243275784636
0.5615624191596295 0.33847398325935574 -0.07330243275784636
0.5625867736686815 0.41038554934436094 -0.07330243275784636
0.5613556687082613 0.35492943963871326 -0.07330243275784636
0.2733710854478197 0.34720449095577105 -0.07330243275784636
0.3340711384199902 0.44220632335949783 -0.07330243275784636
0.2853908048705486 0.3652481667115485 -0.07330243275784636
0.08956993418141453 0.3744767550408056 -0.07330243275784636
0.10016119594014447 0.40354398895362853 -0.07330243275784636
0.2693018606549802 0.3073486425806395 -0.0720807255452156
0.4052402824296274 0.5250850611148115 -0.0720807255452156
0.5168573329251328 0.27259577125518863 -0.0720807255452156
0.09936238737803967 0.08789243620099471 -0.07142288319995287
0.4217897162868796 0.32263877823410303 -0.07142288319995287
0.4287628451466645 0.5058008826508242 -0.07142288319995287
0.4294112897441378 0.2679814770905601 -0.07142288319995287
0.45150539479717583 0.5042408565177727 -0.07142288319995287
0.3583079299690268 0.25304845585309627 -0.07142288319995287
0.42218442169403725 0.4426198242622344 -0.07142288319995287
0.44464503891086454 0.4589155189291711 -0.07142288319995287
0.2071545545232317 0.43030877465803197 -0.07142288319995287
0.30051178106380166 0.33627491027662026 -0.07142288319995287
0.30983434687095346 0.43726310802223795 -0.07142288319995287
0.10016119594014447 0.40001983353257825 -0.07142288319995287
0.3591255340267105 0.2454550756392065 -0.0702011759873221
0.5911183359575047 0.47063451042263704 -0.0702011759873221
0.4054564306287851 0.3692328117742828 -0.0702011759873221
0.5861187341335082 0.0843588830321549 -0.06954333364205938
0.287712048574547 0.14129043914074899 -0.06954333364205938
0.10904206760119119 0.0843588830321549 -0.06954333364205938
0.43630923662160687 0.3205900692159991 -0.06954333364205938
0.4244398811635095 0.5075958524786126 -0.06954333364205938
0.4309995091205578 0.26759616943119197 -0.06954333364205938
0.4515711790317022 0.5051242448099826 -0.06954333364205938
0.24957598804488804 0.2652467324838251 -0.06954333364205938
0.4226167180923528 0.4417082427266561 -0.06954333364205938
0.5628405128589972 0.4209298223641435 -0.06954333364205938
0.27514725978002896 0.42451976201971997 -0.06954333364205938
0.30446823288316754 0.429002487715296 -0.06954333364205938
0.3256883473917851 0.32012957957431526 -0.06954333364205938
0.35594909527387036 0.24606592924552198 -0.069073446252586
0.36832592911259915 0.43112637871571563 -0.06832162642942861
0.640635069060209 0.39398647945174015 -0.06832162642942861
0.07022936923069051 0.07755491363258041 -0.06766378408416589
0.4940771922834636 0.08416153032857607 -0.06766378408416589
0.09159984770393959 0.08516708934204908 -0.06766378408416589
0.24104283305205154 0.1414877918443278 -0.06766378408416589
0.4815969832190507 0.2838354776113917 -0.06766378408416589
0.31395995815052974 0.5109226551960842 -0.06766378408416589
0.3450759010814565 0.25788829596467205 -0.06766378408416589
0.5152597158009232 0.29871211236211875 -0.06766378408416589
0.43357449201487186 0.2793809451591841 -0.06766378408416589
0.4071574229786787 0.5035548209291415 -0.06766378408416589
0.495515047695252 0.2939568519806482 -0.06766378408416589
0.2765945129396071 0.42862657780371727 -0.06766378408416589
0.2825150940469715 0.3489806652879804 -0.06766378408416589
0.29683726167811997 0.33266617512546476 -0.06766378408416589
0.09686258646604139 0.3803691429048018 -0.06766378408416589
0.3753836377024891 0.23307824180047787 -0.0664420768715351
0.5663646682800475 0.4930105479093591 -0.0664420768715351
0.4037742337744704 0.3197254764193681 -0.0664420768715351
0.16644351109925862 0.1414877918443278 -0.06578423452627237
0.30964639191516413 0.08416153032857607 -0.06578423452627237
0.47825138500600034 0.1414877918443278 -0.06578423452627237
0.6025084062783395 0.09687668308772567 -0.06578423452627237
0.4433481497159181 0.4892890397847299 -0.06578423452627237
0.3720474372372283 0.5146347655729236 -0.06578423452627237
0.43966423258244675 0.3124986083692675 -0.06578423452627237
0.27842707375855313 0.5017504533535639 -0.06578423452627237
0.5977907368880268 0.38109276948459075 -0.06578423452627237
0.4471166465794945 0.3155340809052656 -0.06578423452627237
0.44893041190286176 0.4892702442891511 -0.06578423452627237
0.2825150940469715 0.42451976201971997 -0.06578423452627237
0.1965350995211335 0.42451976201971997 -0.06578423452627237
0.28393415396318106 0.42904007870645394 -0.06578423452627237
0.35594909527387036 0.2419779089571036 -0.06531434713679901
0.5168573329251328 0.27259577125518863 -0.06456252731364161
0.2693018606549802 0.4454391485990746 -0.06456252731364161
0.35489654752145006 0.09140719387425551 -0.06390468496837888
0.5106360238885053 0.1414877918443278 -0.06390468496837888
0.15060830607400588 0.08416153032857607 -0.06390468496837888
0.33819674969956637 0.10238376329235359 -0.06390468496837888
0.436553578064133 0.505471961478193 -0.06390468496837888
0.4308585429037157 0.5083570700495593 -0.06390468496837888
0.4399367672683414 0.2782156244332902 -0.06390468496837888
0.44037846141444636 0.4584174382963292 -0.06390468496837888
0.47071439127884734 0.5043630272390358 -0.06390468496837888
0.5890414336960325 0.384936448330483 -0.06390468496837888
0.2061395977619693 0.42997985348540063 -0.06390468496837888
0.29133018147349204 0.43207555124245184 -0.06390468496837888
0.2967432842002253 0.3323372539528334 -0.06390468496837888
0.09347939726183296 0.384053060038273 -0.06390468496837888
0.4054564306287851 0.40636331329046876 -0.0626829777557481
0.39625603554289646 0.23307824180047787 -0.0626829777557481
0.6034951697962335 0.4682568802319016 -0.0626829777557481
0.6026963612341287 0.12657356610244289 -0.062025135410485384
0.3683729178515464 0.08397357537278675 -0.062025135410485384
0.28638696613623205 0.14167574680011713 -0.062025135410485384
0.09039693598688774 0.13262571567885986 -0.062025135410485384
0.42834934424392795 0.4479201540154941 -0.062025135410485384
0.38174591295595867 0.5157155065687126 -0.062025135410485384
0.4203800541184595 0.3222064818357875 -0.062025135410485384
0.32774645415767856 0.5081691150937702 -0.062025135410485384
0.6015686314993925 0.3881504780744809 -0.062025135410485384
0.44907137811970377 0.3141432142324245 -0.062025135410485384
0.4489022186594933 0.46043795407106475 -0.062025135410485384
0.32931587803851964 0.44648229860370553 -0.062025135410485384
0.32507749378546974 0.4495929531220193 -0.062025135410485384
0.3264871559538899 0.31735724397642234 -0.062025135410485384
0.3930795967900565 0.5425178832642739 -0.061555248021012005
0.6282488374736908 0.4335040089064509 -0.06080342819785462
0.3836160647660627 0.23307824180047787 -0.06080342819785462
0.6191424198656967 0.0895652353075199 -0.060145585852591894
0.5224020041209186 0.3040124421153785 -0.060145585852591894
0.37921791880059186 0.5173789079274482 -0.060145585852591894
0.35485895653029215 0.25532271081814745 -0.060145585852591894
0.5494769155023744 0.4523276977287543 -0.060145585852591894
0.37634220797701484 0.24560543960383802 -0.060145585852591894
0.41093531759004465 0.44318368912960243 -0.060145585852591894
0.5885621485587696 0.3943999803544767 -0.060145585852591894
0.2745270084259241 0.4257226737367718 -0.060145585852591894
0.301301191878117 0.3334179949486222 -0.060145585852591894
0.30818034326000715 0.43678382288497514 -0.060145585852591894
0.09259600896962308 0.38440077670648337 -0.060145585852591894
0.3975341292422641 0.23307824180047787 -0.059675698463118515
0.32035042664736757 0.31453791963958194 -0.05892387863996113
0.6158720036349622 0.40636331329046876 -0.05892387863996113
0.0978869409750933 0.07391798523805648 -0.058266036294698405
0.27479014536402924 0.34790932203998104 -0.058266036294698405
0.3005305765593807 0.33263798188209637 -0.058266036294698405
0.3365239505930412 0.4568010256765408 -0.058266036294698405
0.4485826952346514 0.28086578930992 -0.058266036294698405
0.36862665704186204 0.5199538908217624 -0.058266036294698405
0.36668132324944236 0.25379087792846416 -0.058266036294698405
0.5885151598198224 0.40867515924667785 -0.058266036294698405
0.31497491491179214 0.25630007658825205 -0.058266036294698405
0.42224080818077403 0.4587369617211711 -0.058266036294698405
0.570358711090571 0.4219729723687743 -0.058266036294698405
0.3621985975538663 0.15173133693484728 -0.058266036294698405
0.415746964458252 0.5425178832642739 -0.05704432908206761
0.5168573329251328 0.27259577125518863 -0.05704432908206761
0.3223991356654715 0.461950991465169 -0.05704432908206761
0.11759401808960657 0.3880658983443757 -0.05638648673680488
0.3257917226174693 0.44605939995317945 -0.05638648673680488
0.32717319154252095 0.45036356844075554 -0.05638648673680488
0.32472977711725953 0.32012957957431526 -0.05638648673680488
0.5946142981351867 0.37898767397975003 -0.05638648673680488
0.3914631841702681 0.5168244408078696 -0.05638648673680488
0.44632723576517924 0.3118689592673733 -0.05638648673680488
0.42413915323424645 0.5082630925716648 -0.05638648673680488
0.604933025208022 0.383329433458484 -0.05638648673680488
0.45901419528096027 0.31177498178947854 -0.05638648673680488
0.5793147647339336 0.40256662318352393 -0.05638648673680488
0.6162667090421199 0.08416153032857607 -0.05638648673680488
0.2693018606549802 0.4462567526567583 -0.05516477952417412
0.4673405998224286 0.23307824180047787 -0.05516477952417412
0.3930795967900565 0.5425178832642739 -0.05516477952417412
0.27514725978002896 0.34951633691198003 -0.05450693717891139
0.30023924637790717 0.43268640484876725 -0.05450693717891139
0.3262898032503111 0.31716928902063285 -0.05450693717891139
0.4296086424477166 0.3262099223941006 -0.05450693717891139
0.3932675517458458 0.517153361980501 -0.05450693717891139
0.365750946218285 0.2541010036055166 -0.05450693717891139
0.5523620240737409 0.4533144612466484 -0.05450693717891139
0.39466781616647645 0.24371649229815512 -0.05450693717891139
0.4235001063845627 0.3303355336736769 -0.05450693717891139
0.5669849196341524 0.429002487715296 -0.05450693717891139
0.4079092428018362 0.5425178832642739 -0.054037049789438005
0.425877736575298 0.3073486425806395 -0.05328522996628062
0.640635069060209 0.34447914409682545 -0.05328522996628062
0.0978869409750933 0.15173133693484728 -0.0526273876210179
0.3047971540557989 0.4440858729173914 -0.0526273876210179
0.32706041856904733 0.32712150392967904 -0.0526273876210179
0.3246357996393648 0.32004499984421003 -0.0526273876210179
0.5966630071532906 0.37842380911238194 -0.0526273876210179
0.4247594045883513 0.5134694448470297 -0.0526273876210179
0.37028066065280835 0.24954309592762486 -0.0526273876210179
0.42281407079593164 0.32589979671704816 -0.0526273876210179
0.3672451881168103 0.5272371453585997 -0.0526273876210179
0.45389242273570063 0.4988935380255658 -0.0526273876210179
0.3585616691593424 0.14809440854032335 -0.0526273876210179
0.4094034847003615 0.2377207292084748 -0.052157500231544515
0.41089772659888685 0.23733542154910667 -0.05140568040838713
0.49601312832809374 0.5053873817480878 -0.05140568040838713
0.27514725978002896 0.34914042700040127 -0.050747838063124405
0.29913031213875 0.4374886539691852 -0.050747838063124405
0.30777624010506016 0.4367274363982383 -0.050747838063124405
0.4540521844481215 0.31147425386021566 -0.050747838063124405
0.37543062644143654 0.5205553466802881 -0.050747838063124405
0.42200586448603744 0.25897843470825027 -0.050747838063124405
0.4058699315315218 0.5266450872478631 -0.050747838063124405
0.5831678413276152 0.34517457743324603 -0.050747838063124405
0.46737819081358634 0.2740430244147666 -0.050747838063124405
0.45691849752390906 0.5034702411990364 -0.050747838063124405
0.6162667090421199 0.13463683370580604 -0.050747838063124405
0.578741502118776 0.29258478080338596 -0.04952613085049364
0.5292341667638613 0.5177642155868163 -0.04952613085049364
0.32695704334336323 0.446472900855916 -0.048868288505230915
0.2955873612221207 0.3386337449717767 -0.048868288505230915
0.1984522400701848 0.4403455692971832 -0.048868288505230915
0.5197612369920782 0.29663521010064653 -0.048868288505230915
0.4037366427833126 0.5178299998213427 -0.048868288505230915
0.44117726997655105 0.3171035047861067 -0.048868288505230915
0.45173094074412307 0.4610394099295907 -0.048868288505230915
0.47777209986873737 0.5072857268015603 -0.048868288505230915
0.558855867796263 0.33193315079788643 -0.048868288505230915
0.33454102580946354 0.14809440854032335 -0.048868288505230915
0.578741502118776 0.45588004639317303 -0.04764658129260012
0.4054564306287851 0.40636331329046876 -0.04764658129260012
0.0876433958845737 0.09784465111004076 -0.04698873894733739
0.19869658151271105 0.3442066094109309 -0.04698873894733739
0.2929653895888593 0.4376954044205534 -0.04698873894733739
0.29554037248317344 0.4315868683573996 -0.04698873894733739
0.3811538548452222 0.5203016074899727 -0.04698873894733739
0.41148978470962333 0.255858382442147 -0.04698873894733739
0.5646918691735223 0.3275256070846261 -0.04698873894733739
0.40498654323931177 0.26327320544803684 -0.04698873894733739
0.411969069846886 0.44357839453676007 -0.04698873894733739
0.5602279389735251 0.3321211057536757 -0.04698873894733739
0.504480499086404 0.5301410494255451 -0.04576703173470663
0.5168573329251328 0.2770033149684488 -0.04576703173470663
0.33937146817324976 0.31030893313432173 -0.04576703173470663
0.30106624818338035 0.44228150534181354 -0.0451091893894439
0.2997505634928549 0.33479946387367393 -0.0451091893894439
0.19255045445839922 0.3367447976660938 -0.0451091893894439
0.5826133742080367 0.35200674007618893 -0.0451091893894439
0.38886000803258564 0.25164819143246564 -0.0451091893894439
0.5342055753444899 0.3003755137208546 -0.0451091893894439
0.39674471842794884 0.2619011342707746 -0.0451091893894439
0.4245432563891936 0.44246006254981346 -0.0451091893894439
0.4608091651087486 0.28024553795581525 -0.0451091893894439
0.34225657674461635 0.3197254764193681 -0.04388748217681314
0.578741502118776 0.2825949749031821 -0.04388748217681314
0.5292341667638613 0.5177642155868163 -0.04388748217681314
0.300577565298328 0.4411349801114985 -0.04322963983155041
0.30013587115222307 0.3335589611654642 -0.04322963983155041
0.19511603960492394 0.33409463278946383 -0.04322963983155041
0.5459057713423766 0.45991168019485457 -0.04322963983155041
0.39186728732521514 0.25364991171162216 -0.04322963983155041
0.4456412001765482 0.515424176387239 -0.04322963983155041
0.613156054523806 0.38775577266732325 -0.04322963983155041
0.47310141921737214 0.312367039900215 -0.04322963983155041
0.4651697200830615 0.5027278191236684 -0.04322963983155041
0.6162667090421199 0.11224200072350492 -0.04322963983155041
0.5459245668379556 0.2949718087419107 -0.04200793261891965
0.5911183359575047 0.4806337140706304 -0.04200793261891965
0.30553017838337737 0.4446309422891804 -0.04135009027365692
0.27994011115265743 0.34292851571156324 -0.04135009027365692
0.2907475211105451 0.441144377859288 -0.04135009027365692
0.6064742558454947 0.3884042172647965 -0.04135009027365692
0.4078998450540467 0.2506802234101505 -0.04135009027365692
0.5492419718076378 0.46286257300074746 -0.04135009027365692
0.5229846644838655 0.28675817717391616 -0.04135009027365692
0.4635157164721152 0.3060893443768508 -0.04135009027365692
0.4543999011163318 0.37482447170901595 -0.04135009027365692
0.46731240657906015 0.48917626681125626 -0.04135009027365692
0.6034951697962335 0.45825767658390826 -0.04012838306102616
0.5539878344413188 0.27021814106445335 -0.04012838306102616
0.2941213125669639 0.3155340809052656 -0.04012838306102616
0.30341568513074724 0.44414225940412816 -0.03947054071576343
0.29960019952822337 0.3347054863957792 -0.03947054071576343
0.19053933643145318 0.4308726395254 -0.03947054071576343
0.5797940498711965 0.42847621383908585 -0.03947054071576343
0.42215622845066886 0.3215204462471564 -0.03947054071576343
0.4216017613310903 0.4560680013489623 -0.03947054071576343
0.3985490860035265 0.5134882403426088 -0.03947054071576343
0.46655118900811327 0.4546301459371739 -0.03947054071576343
0.3309040974149396 0.15173133693484728 -0.03947054071576343
0.5745031178657263 0.45588004639317303 -0.038248833503132636
0.4190079829411973 0.3947101060315291 -0.038248833503132636
0.09051910670815073 0.14436350266790485 -0.03759099115786991
0.301301191878117 0.4436535765190758 -0.03759099115786991
0.3266657131618897 0.32674559401810027 -0.03759099115786991
0.32535002847136424 0.31906763407410543 -0.03759099115786991
0.5008905594308274 0.4920237843914649 -0.03759099115786991
0.4591457637500129 0.27427796810950333 -0.03759099115786991
0.4161416698654096 0.32579642149136406 -0.03759099115786991
0.42386661854835195 0.4593666108230654 -0.03759099115786991
0.47934152374957845 0.28557406095244325 -0.03759099115786991
0.48463245575504876 0.44572108103275865 -0.03759099115786991
0.5952157539937126 0.07391798523805648 -0.03759099115786991
0.599200399056447 0.34447914409682545 -0.036369283945239146
0.4054564306287851 0.41725530297846164 -0.036369283945239146
0.6162667090421199 0.13463683370580604 -0.03571144159997642
0.19784138646386942 0.4280251219451914 -0.03571144159997642
0.3047877563080095 0.4397817044298153 -0.03571144159997642
0.2833139026090762 0.4309008327687684 -0.03571144159997642
0.46532008404769304 0.5017692488491426 -0.03571144159997642
0.4658745511672716 0.31044989935116374 -0.03571144159997642
0.4278324681155072 0.38421282175069393 -0.03571144159997642
0.4623973844851686 0.4918170339400966 -0.03571144159997642
0.4566835538291724 0.4427889837224448 -0.03571144159997642
0.4767007566207383 0.2814202564294987 -0.03571144159997642
0.07396027510310901 0.08128581950499905 -0.03571144159997642
0.5539878344413188 0.4806337140706304 -0.03448973438734566
0.41783326446751384 0.3536795391827141 -0.03448973438734566
0.4083227437045728 0.30617392410695604 -0.03448973438734566
0.2071545545232317 0.34720449095577105 -0.03383189204208293
0.297824025196014 0.43705635757086964 -0.03383189204208293
0.30766346713158654 0.33585201162609424 -0.03383189204208293
0.4631210110649577 0.26646843969645584 -0.03383189204208293
0.41804941266667156 0.5229893633577604 -0.03383189204208293
0.42060560006540676 0.24678955582531098 -0.03383189204208293
0.42859368568645406 0.3746741077443844 -0.03383189204208293
0.4077306855938363 0.5300094809564925 -0.03383189204208293
0.48946289811883487 0.42328865705929974 -0.03383189204208293
0.4998756026695649 0.4858494640937849 -0.03383189204208293
0.4892185566763089 0.47186561538305727 -0.03383189204208293
0.5952157539937126 0.07391798523805648 -0.03383189204208293
0.6530119028989377 0.39398647945174015 -0.03261018482945216
0.4054564306287851 0.3724186482749123 -0.03261018482945216
0.40649018288562655 0.3197254764193681 -0.03261018482945216
0.29985393871853905 0.4401200233502361 -0.03195234248418944
0.2994122445724341 0.3346115089178846 -0.03195234248418944
0.20141253062386716 0.441144377859288 -0.03195234248418944
0.42067138429993295 0.31616373000715986 -0.03195234248418944
0.4248627798140354 0.518422057932079 -0.03195234248418944
0.5313486600164917 0.47582206720242304 -0.03195234248418944
0.5103446937070317 0.4931233208828327 -0.03195234248418944
0.4277384906376126 0.525677119225548 -0.03195234248418944
0.5107206036186104 0.2930452704450699 -0.03195234248418944
0.4191207559146709 0.35685597793555407 -0.031482455094716054
0.6282488374736908 0.39398647945174015 -0.030730635271558674
0.4054564306287851 0.35685597793555407 -0.030730635271558674
0.07022936923069051 0.14809440854032335 -0.030072792926295947
0.3083401049724282 0.4457022855371797 -0.030072792926295947
0.3067424878482187 0.3279485057351521 -0.030072792926295947
0.28191363818844556 0.33235604944841235 -0.030072792926295947
0.42543604242919303 0.45216793601633337 -0.030072792926295947
0.4538830249879111 0.37205213611112303 -0.030072792926295947
0.5716837935288861 0.4426574152533923 -0.030072792926295947
0.5883084093684539 0.4297825007818218 -0.030072792926295947
0.5670319083730997 0.45759983423864564 -0.030072792926295947
0.5162934680577648 0.29373130603370096 -0.030072792926295947
0.4054564306287851 0.3692328117742828 -0.029602905536822564
0.5808371998758274 0.3197254764193681 -0.02885108571366515
0.419083164923513 0.41874014712919755 -0.02885108571366515
0.6054592990842322 0.10143459076561738 -0.028193243368402423
0.29333190175264856 0.3218493674197877 -0.028193243368402423
0.4125047414708857 0.461810025248327 -0.028193243368402423
0.4946692503941999 0.29008497989138765 -0.028193243368402423
0.4773210079748429 0.2738550694589773 -0.028193243368402423
0.4318359086738204 0.2634987513949841 -0.028193243368402423
0.49481961435883154 0.49264403574556975 -0.028193243368402423
0.3621985975538663 0.15116747206747932 -0.028193243368402423
0.640635069060209 0.43112637871571563 -0.02697153615577166
