0.25718812241814454 0.380717096402318 -0.2947856117264685
0.2653218391296608 0.41571672588823644 -0.2947856117264685
0.210081578845266 0.3898367181697756 -0.2947856117264685
0.4768674869829997 0.41645615468019254 -0.2947856117264685
0.2688218020782527 0.4169786843598414 -0.2947856117264685
0.5206120943151181 0.39975492303254573 -0.2947856117264685
0.44569316911413376 0.3273401966736524 -0.2947856117264685
0.3094805265852746 0.3936817478879469 -0.2947856117264685
0.5044333923471204 0.4350996192880438 -0.2947856117264685
0.4213314551818226 0.36970453692745286 -0.2947856117264685
0.17426364816291617 0.340797800687252 -0.2947856117264685
0.2645725512871453 0.4346658210634295 -0.2947856117264685
0.1685453988384563 0.44456430782508083 -0.2947856117264685
0.39796550535601216 0.43385737891755766 -0.29281380161458576
0.4476452611248976 0.4303081207161687 -0.29281380161458576
0.2954116614369912 0.41039283858615316 -0.29281380161458576
0.20802103727834864 0.41767867694955974 -0.29281380161458576
0.1989802879153663 0.40639006405903116 -0.29281380161458576
0.4571296677630536 0.4604078020740586 -0.29281380161458576
0.27012319675209523 0.36232996710901155 -0.29281380161458576
0.5147853954345046 0.4178561398596292 -0.29281380161458576
0.4278877238038327 0.4369235436415352 -0.29281380161458576
0.21442942014196742 0.38100300886854094 -0.29281380161458576
0.16096378895826713 0.3409851226478809 -0.29281380161458576
0.5239444534042 0.3987394408249262 -0.29281380161458576
0.21816600030398525 0.4291546118007173 -0.29281380161458576
0.21410407147350677 0.43863901843887326 -0.29281380161458576
0.4114428274707307 0.4402854798822953 -0.29281380161458576
0.29574686915601134 0.3447709980626958 -0.29281380161458576
0.3989612694625129 0.3715383203315039 -0.29281380161458576
0.33588306398338436 0.3804410429866543 -0.29281380161458576
0.5434850916129578 0.41227591724300106 -0.2925673253506004
0.4019781389336936 0.3191473256587796 -0.290841991502703
0.3893979904198817 0.31238401697502194 -0.290841991502703
0.16773695669258443 0.4580317708892399 -0.290841991502703
0.4053499342250131 0.4637401611631405 -0.290841991502703
0.2829005262770954 0.44888257197010406 -0.290841991502703
0.4396397120706538 0.366036970119351 -0.290841991502703
0.34650126143587284 0.34296679181032313 -0.290841991502703
0.44637344360273334 0.36378910659180475 -0.290841991502703
0.6828526303208295 0.41227591724300106 -0.29034903897473235
0.12448530188843668 0.4512290260032445 -0.29034903897473235
0.15846944916673547 0.3441893140796904 -0.28887018139082027
0.3052707119964049 0.4819695456474963 -0.28887018139082027
0.36216729277478116 0.3234951669554811 -0.28887018139082027
0.4845772645204613 0.4556655987549807 -0.28887018139082027
0.6049365537497832 0.39929154765625335 -0.2883772288628496
0.4057245781462708 0.48249207532714516 -0.2868983712789376
0.5216867308260943 0.3654552861363456 -0.2868983712789376
0.21758431632097988 0.3543539952064458 -0.2868983712789376
0.1669482326478312 0.46095990890538574 -0.2868983712789376
0.2546839235760534 0.40840131037315164 -0.2868983712789376
0.4934701281250523 0.4494741150036689 -0.2868983712789376
0.5093924947785055 0.37322421797716354 -0.2868983712789376
0.18009034704352975 0.43667706737754997 -0.2868983712789376
0.11150093230168881 0.34735406930926216 -0.2856166947062138
0.6568838911473338 0.4797019640188312 -0.2856166947062138
0.15946521327323623 0.46589929323565205 -0.28492656116705484
0.533596463901866 0.4269363254248493 -0.28492656116705484
0.298527121413766 0.428957430789529 -0.28492656116705484
0.3248212092557222 0.4287010954749843 -0.28492656116705484
0.37432350211453824 0.433463016895181 -0.28492656116705484
0.41010199659465046 0.40509852843574795 -0.28492656116705484
0.44702414093965454 0.44869525000947513 -0.28492656116705484
0.24019111925371534 0.42093216363416625 -0.28492656116705484
0.19417893029293173 0.3721890176684252 -0.28492656116705484
0.5088502469977376 0.43457708960839475 -0.28492656116705484
0.5659834449895398 0.5551138417477863 -0.283644884594331
0.4750829988317459 0.2304848839779726 -0.283644884594331
0.21466603735539336 0.38825927008026945 -0.2829547510551721
0.35413216656885904 0.4858441525173458 -0.2829547510551721
0.5096488300930502 0.359529996750138 -0.2829547510551721
0.4506917077477564 0.47042459744242293 -0.2829547510551721
0.5400147058160444 0.2304848839779726 -0.2816730744824483
0.1374696714751844 0.3863071780695056 -0.2816730744824483
0.538102050007518 0.4132421041978237 -0.28098294094328935
0.16997496116957123 0.32179941025926195 -0.28098294094328935
0.4267539329895001 0.4823540486193134 -0.28098294094328935
0.5150515897996089 0.36449895823208256 -0.28098294094328935
0.5919521841630355 0.3670721704280895 -0.2797012643705656
0.21463646020371513 0.3873423783782439 -0.2790111308314066
0.46809293198512153 0.48048082901302486 -0.2790111308314066
0.48725892627262174 0.33673587185677367 -0.2790111308314066
0.409234400145422 0.31831916541178895 -0.2790111308314066
0.6698682607340817 0.3318655008804233 -0.27713791122511805
0.11150093230168881 0.46421339558999225 -0.27713791122511805
0.2101012969463849 0.4128674602765659 -0.2770393207195239
0.5333006923850836 0.4388559175511804 -0.2770393207195239
0.24002351539420533 0.4737963927337424 -0.2770393207195239
0.4859575315987792 0.4706513556052894 -0.2750675106076412
0.15320471616800865 0.3317077560714726 -0.2750675106076412
0.4652239482723322 0.4180533208708176 -0.2750675106076412
0.23681932396239586 0.34297665086088247 -0.2750675106076412
0.5255613376959438 0.36575105765312804 -0.2750675106076412
0.6698682607340817 0.37332280848275773 -0.27457455807967046
0.1374696714751844 0.4070506204465119 -0.27457455807967046
0.4835223461106039 0.324707830174289 -0.27309570049575843
0.1620482845198026 0.476576644991497 -0.27309570049575843
0.4431692521709239 0.41274915166985293 -0.27309570049575843
0.36858553468895955 0.3797114732452577 -0.27309570049575843
0.47663086976957375 0.3255261313707203 -0.27309570049575843
0.3582236725510158 0.5680982113345342 -0.2726027479677878
0.5919521841630355 0.2849265611670549 -0.2726027479677878
0.27258795939194863 0.3157656713169008 -0.2711238903838757
0.28601598625387015 0.49165113329684046 -0.2711238903838757
0.15771030227366062 0.36829469269745674 -0.2711238903838757
0.24921215051557888 0.47813437497988437 -0.2711238903838757
0.37983471137725044 0.3796818960935795 -0.2711238903838757
0.11150093230168881 0.2694379927382159 -0.27063093785590503
0.5919521841630355 0.5421294721610385 -0.27063093785590503
0.2072224541830361 0.4094660878335682 -0.26915208027199294
0.5308457887957896 0.34659492241618733 -0.26915208027199294
0.5318316938517309 0.4337193522097259 -0.26915208027199294
0.31311851624169823 0.3796818960935795 -0.26915208027199294
0.4364946749422008 0.37735516016155796 -0.26915208027199294
0.4750829988317459 0.24346925356472032 -0.2679985713565416
0.5400147058160444 0.5680982113345342 -0.2679985713565416
0.41470617320589664 0.2977729040459709 -0.26718027016011026
0.15609341798191678 0.38745082793439756 -0.26718027016011026
0.2987341614755137 0.4190885211795559 -0.26718027016011026
0.2691372916961539 0.3168501668784363 -0.26718027016011026
0.4332904835103913 0.3761622150438688 -0.26718027016011026
0.5919521841630355 0.36033843889601 -0.26537606390773755
0.47082388899007915 0.4863173869441977 -0.2652084600482275
0.2665936566518252 0.30855870535796937 -0.2652084600482275
0.44708329524301105 0.49016241666236904 -0.2652084600482275
0.5069474502397708 0.3431935499731896 -0.2652084600482275
0.552594854329856 0.4217504648305977 -0.26323664993634477
0.14381890003544687 0.3298443955157435 -0.26323664993634477
0.15448639274073236 0.36507078316452846 -0.26323664993634477
0.5127544310192654 0.4589683806923842 -0.26323664993634477
0.617920923336531 0.29791093075380265 -0.2627436974083741
0.3192705637907723 0.5421294721610385 -0.2627436974083741
0.14204427093475233 0.4021210951668051 -0.261954973363621
0.6309052929232789 0.46421339558999225 -0.261954973363621
0.45052410388824643 0.5000510443734609 -0.261264839824462
0.4773702985615298 0.30358974387602494 -0.261264839824462
0.5035657958978919 0.3308007234200066 -0.261264839824462
0.11150093230168881 0.32138533013576653 -0.2592930297125793
0.617920923336531 0.29791093075380265 -0.2592930297125793
0.5203656180511328 0.46176835105125774 -0.2592930297125793
0.2599683746758991 0.30147990705631034 -0.2592930297125793
0.562887703113884 0.40681400323308603 -0.2592930297125793
0.5103685407838874 0.4588106358834337 -0.2592930297125793
0.4357946823524824 0.3883775786869824 -0.2573212196006966
0.479973087909215 0.4971229063573151 -0.2573212196006966
0.5519244388918161 0.37365801620177785 -0.2573212196006966
0.1605990040875689 0.42739970080114165 -0.2573212196006966
0.6049365537497832 0.39929154765625335 -0.2563846097975523
0.46571690080030287 0.4954665858633336 -0.25534940948881385
0.4968419234163719 0.31205866830656126 -0.25534940948881385
0.23981647533245765 0.3765861542179237 -0.25534940948881385
0.564721486517935 0.3936521707362687 -0.25534940948881385
0.11681496055321279 0.2954067319117115 -0.2535944984892382
0.6698682607340817 0.37332280848275773 -0.2535944984892382
0.5592398544069009 0.3711242402080085 -0.2533775993769311
0.13987527981168132 0.32476698447764546 -0.2533775993769311
0.5571201585366269 0.37257352064024235 -0.2533775993769311
0.21141255067078688 0.3765861542179237 -0.2533775993769311
0.5297218570320164 0.46708237930278174 -0.2514057892650484
0.3136410459213471 0.3765861542179237 -0.2514057892650484
0.5707256483086177 0.4014309616276461 -0.2514057892650484
0.11150093230168881 0.37332280848275773 -0.2508142462314836
0.5010615970558009 0.2304848839779726 -0.2508142462314836
0.1460273273607554 0.32366277081499106 -0.24943397915316562
0.42365819111384423 0.5162889006448153 -0.24943397915316562
0.1980239600111031 0.3125023255817349 -0.24943397915316562
0.5283810261559362 0.4542951907272221 -0.24943397915316562
0.2932919655667174 0.2539592833599365 -0.248941026625195
0.6568838911473338 0.4382446564164966 -0.248941026625195
0.561507436035566 0.4399009769104782 -0.2474621690412829
0.19874367070194035 0.3004151295958937 -0.2474621690412829
0.2565768612834609 0.30601507031364067 -0.2474621690412829
0.1491723644892084 0.4793076019964546 -0.2474621690412829
0.5885902479222754 0.37332280848275773 -0.24696921651331222
0.40028238223747437 0.38919587988341375 -0.2454903589294002
0.14433157066453628 0.3834283353061568 -0.2454903589294002
0.5662496393546441 0.3625665843224375 -0.2454903589294002
0.19998591107242653 0.48438501303455267 -0.2454903589294002
0.32810427309200696 0.3798889361553272 -0.2454903589294002
0.5282528584986638 0.3338964652956625 -0.2454903589294002
0.12448530188843668 0.46421339558999225 -0.2449974064014295
0.6958369999075771 0.34735406930926216 -0.2449974064014295
0.4319299345331923 0.4093872154290929 -0.24351854881751742
0.15987929339673163 0.41953217845472957 -0.24351854881751742
0.13725277236287725 0.3127783789973984 -0.24351854881751742
0.5699960785672212 0.42229271261136536 -0.24351854881751742
0.18867758008077898 0.3757777120720517 -0.24351854881751742
0.2913102964042752 0.3797311913463767 -0.24351854881751742
0.11681496055321279 0.2954067319117115 -0.24218757699199658
0.6438995215605859 0.5031763634007952 -0.24218757699199658
0.1678158290970597 0.40242672573414684 -0.24154673870563473
0.14009217892398848 0.3134290763343197 -0.24154673870563473
0.14747660779298927 0.30258412071896473 -0.24154673870563473
0.20303235769528533 0.37970161419469844 -0.24154673870563473
0.3853064844377251 0.4188814811178082 -0.24154673870563473
0.4563803799205382 0.2935433713559824 -0.24154673870563473
0.6828526303208295 0.41227591724300106 -0.23957492859375196
0.11150093230168881 0.5031763634007952 -0.23957492859375196
0.16680034688943998 0.3875691365411105 -0.23957492859375196
0.15157797282570534 0.4194631651008137 -0.23957492859375196
0.37565447394005913 0.2777491723598017 -0.23957492859375196
0.5231557293594469 0.32473740732596723 -0.23957492859375196
0.3975908614347545 0.38642548667621845 -0.23957492859375196
0.17070453091096782 0.40185490080170094 -0.23760311848186924
0.5186600023043543 0.48395121480993847 -0.23760311848186924
0.46696900022134846 0.5123452804210498 -0.23760311848186924
0.13305281682456715 0.34254285263626827 -0.23760311848186924
0.1495272903093473 0.48715540624174797 -0.23760311848186924
0.6828526303208295 0.4252602868297489 -0.2365679181731308
0.11150093230168881 0.5161607329875428 -0.2365679181731308
0.16630739436146935 0.4021605313690427 -0.23563130836998653
0.14122596973832102 0.41483927038844864 -0.23563130836998653
0.1315443820889768 0.3405217472715885 -0.23563130836998653
0.4098555203306651 0.2838420656055194 -0.23563130836998653
0.3279169511313782 0.308834758773633 -0.23563130836998653
0.6698682607340817 0.32138533013576653 -0.23365949825810375
0.3192705637907723 0.2589578219935593 -0.23365949825810375
0.40728230813465816 0.4144251902649533 -0.23365949825810375
0.428084904815021 0.27992802253343213 -0.23365949825810375
0.5824677775248794 0.3679989211806743 -0.23365949825810375
0.24433192048866909 0.5102551617024541 -0.23365949825810375
0.14422312110838278 0.48651456795538595 -0.23365949825810375
0.3152776483142098 0.45152479752002694 -0.23365949825810375
0.4080217369266142 0.4093872154290929 -0.23168768814622107
0.47789282824117874 0.2896687644861328 -0.23168768814622107
0.2344630108786961 0.2922123995304615 -0.23168768814622107
0.13605982724518825 0.3023869397077765 -0.23168768814622107
0.14417382585558577 0.31003756294188145 -0.23168768814622107
0.2455643018085958 0.45614869223239185 -0.23168768814622107
0.4480001869450365 0.28949130157606334 -0.23168768814622107
0.6438995215605859 0.49268633360557895 -0.23094825935426502
0.2932919655667174 0.5446336710031294 -0.23094825935426502
0.1407034400586721 0.396471859196261 -0.2297158780343383
0.1371541818572832 0.4713217710433295 -0.2297158780343383
0.4361101719703836 0.5241169867889898 -0.2297158780343383
0.6071548401256515 0.4042999453404354 -0.2297158780343383
0.4789083104487984 0.2923109900360557 -0.2297158780343383
0.2596233079063197 0.3463385871016426 -0.2297158780343383
0.44266644059239374 0.38913672558005724 -0.2297158780343383
0.42580746413579634 0.39929154765625335 -0.2281384299448321
0.4066316107977368 0.41840824669095633 -0.22774406792245558
0.14365129617593672 0.4178462808090699 -0.22774406792245558
0.1374696714751844 0.4568979800749074 -0.22774406792245558
0.17974528027395015 0.5025256660638738 -0.22774406792245558
0.5345330737050102 0.4908624092520874 -0.22774406792245558
0.35377724074872013 0.28433501813349005 -0.22774406792245558
0.3239536128064939 0.3378696626711062 -0.22774406792245558
0.48924059543506393 0.2996757008039377 -0.22774406792245558
0.24415445757859963 0.35017375776925447 -0.22577225781057286
0.3543786428328444 0.27980971392671916 -0.22577225781057286
0.13194860316191273 0.35011460346589796 -0.22577225781057286
0.1289810289435292 0.3792185207172871 -0.22577225781057286
0.12905004229744516 0.42820814294701365 -0.22577225781057286
0.1980239600111031 0.49872007254794004 -0.22577225781057286
0.5140459666425486 0.2564536231514682 -0.22532860053539921
0.11150093230168881 0.2954067319117115 -0.22532860053539921
0.41022030520136343 0.3873325193276846 -0.2238004476986901
0.16288630381735286 0.40280136965540453 -0.2238004476986901
0.1356753242733711 0.4719527502791321 -0.2238004476986901
0.44105941535120935 0.5269859705017791 -0.2238004476986901
0.5714650771005739 0.33586827540754516 -0.2238004476986901
0.3830783390112976 0.27844916494952004 -0.2238004476986901
0.31781142430797915 0.4545811031934452 -0.2238004476986901
0.617920923336531 0.27992802253343213 -0.22251877112596632
0.11150093230168881 0.39929154765625335 -0.22251877112596632
0.23522215777177094 0.3523526079428849 -0.2218286375868074
0.13542884800938584 0.3414484980241733 -0.2218286375868074
0.13144579158338263 0.37887345394770766 -0.2218286375868074
0.1314359325328233 0.4144251902649533 -0.2218286375868074
0.12665429301150768 0.4734907621664005 -0.2218286375868074
0.38016991909627057 0.28164349733077004 -0.2218286375868074
0.5870029407822098 0.37163691083709793 -0.2218286375868074
0.3765220703892875 0.2564536231514682 -0.21985682747492463
0.5010615970558009 0.24346925356472032 -0.21985682747492463
0.2389981741360263 0.3477681494327575 -0.21985682747492463
0.13464998301519207 0.3802931572282631 -0.21985682747492463
0.16252151894665448 0.38331988575000314 -0.21985682747492463
0.1306472084880702 0.4509628316381403 -0.21985682747492463
0.43680030550954263 0.533680265831621 -0.21985682747492463
0.15185402624136896 0.3024263759100141 -0.21985682747492463
0.5845480371929158 0.42603915182394253 -0.21985682747492463
0.23465033283932488 0.443972764791516 -0.21788501736304192
0.1581638185993937 0.4081646931597257 -0.21788501736304192
0.13411759428498374 0.4519388776435223 -0.21788501736304192
0.13018383311177767 0.4360756652934257 -0.21788501736304192
0.12539233453990273 0.43282217860881916 -0.21788501736304192
0.48907299157555384 0.5103537522080482 -0.21788501736304192
0.6568838911473338 0.4797019640188312 -0.21710615236884823
0.42580746413579634 0.39929154765625335 -0.21710615236884823
0.4093132725498974 0.38354664391286974 -0.2159132072511592
0.15525539868436666 0.4145730760233445 -0.2159132072511592
0.4757829914214642 0.5198677359978825 -0.2159132072511592
0.5897338977871672 0.4450178241508139 -0.2159132072511592
0.6205335717347757 0.40359009370015775 -0.2159132072511592
0.13558659281833638 0.47105557667822534 -0.2159132072511592
0.13529082130155395 0.363818683743483 -0.2159132072511592
0.3208184347286004 0.3409949816984404 -0.2159132072511592
0.6309052929232789 0.32138533013576653 -0.21440477251556891
0.12119237900159248 0.5031763634007952 -0.21440477251556891
0.3229775668011119 0.3537525931223216 -0.21394139713927643
0.15114417460109117 0.38684942585027327 -0.21394139713927643
0.16135815098064374 0.4147702570345327 -0.21394139713927643
0.12872469362898448 0.4178758579607481 -0.21394139713927643
0.12407122176494129 0.3700988989498295 -0.21394139713927643
0.2395798581190317 0.34387382446178916 -0.21394139713927643
0.39705847270454614 0.40142110257708663 -0.21394139713927643
0.5145882144233165 0.45071635537415494 -0.21394139713927643
0.4315059953591375 0.38801279381628406 -0.21196958702739374
0.1492118006914461 0.4120688771812535 -0.21196958702739374
0.45473391847711614 0.5275282182825469 -0.21196958702739374
0.1301049607073024 0.29334619034479414 -0.21196958702739374
0.1352513850993164 0.47568933044114975 -0.21196958702739374
0.43099332473004803 0.5278338488498887 -0.21196958702739374
0.46405072125576197 0.47494004259863437 -0.21196958702739374
0.2560641906543713 0.2864645730543233 -0.21196958702739374
0.4669788592719078 0.323731784168907 -0.21196958702739374
0.5919521841630355 0.26694365294668426 -0.21170339266228957
0.11150093230168881 0.39929154765625335 -0.21170339266228957
0.2400925287481213 0.34716674734863323 -0.20999777691551097
0.21397590381623446 0.2875194914641806 -0.20999777691551097
0.6224462275433019 0.3960577790727656 -0.20999777691551097
0.15353992388702864 0.29760530018646086 -0.20999777691551097
0.14463720123187818 0.5002778025363275 -0.20999777691551097
0.34301115753784045 0.36834398795025386 -0.20999777691551097
0.42228778308608567 0.42194764584178596 -0.20999777691551097
0.5799241424805509 0.3538807607795941 -0.20999777691551097
0.5010615970558009 0.5551138417477863 -0.2090020128090102
0.11663749764314334 0.4382446564164966 -0.2090020128090102
0.3210156157397886 0.44883327671730705 -0.20802596680362825
0.15954408567771164 0.4149575789951616 -0.20802596680362825
0.6191040094036607 0.41231535344523873 -0.20802596680362825
0.13336830644246836 0.37106508590465204 -0.20802596680362825
0.28384699513079914 0.45532053198540123 -0.20802596680362825
0.47545764275300356 0.49294266892012367 -0.20802596680362825
0.32707893183382797 0.34905968505604074 -0.20802596680362825
0.43514398501556106 0.2688957449574482 -0.20802596680362825
0.6958369999075771 0.34735406930926216 -0.20629077390517148
0.1909550207600035 0.5261380921536697 -0.20629077390517148
0.43865380701471246 0.3849269109911877 -0.20605415669174554
0.31362132782022833 0.4445840259261996 -0.20605415669174554
0.5195966121074985 0.5075734999502937 -0.20605415669174554
0.3141931527526743 0.5286324319452012 -0.20605415669174554
0.48023928227431917 0.3955549674942355 -0.20605415669174554
0.3532941472713089 0.5263451322154172 -0.20605415669174554
0.23175177197485727 0.42276594703821724 -0.20605415669174554
0.4274342074780996 0.2671013977556349 -0.20605415669174554
0.21625334449545897 0.2881800478516614 -0.20605415669174554
0.23947140856287819 0.44550091762822513 -0.20408234657986277
0.37050804954804517 0.47165697876234963 -0.20408234657986277
0.4587761292064757 0.27937591570210496 -0.20408234657986277
0.4599592152736054 0.4839019195571413 -0.20408234657986277
0.4106541034259776 0.2636507300598402 -0.20408234657986277
0.4534128057021547 0.5237522019182913 -0.20408234657986277
0.6276518062386722 0.3997056277797487 -0.20408234657986277
0.12611204523073985 0.5064890043887581 -0.20408234657986277
0.6193209085159677 0.39711269748262285 -0.20408234657986277
0.6958369999075771 0.4512290260032445 -0.2035893940518921
0.20114927903843727 0.26958587849660715 -0.2035893940518921
0.1654595160133598 0.5230916455308106 -0.2035893940518921
0.31362132782022833 0.34986812720191257 -0.20211053646798008
0.3218536350373387 0.4535261847835879 -0.20211053646798008
0.13338802454358714 0.39601834287052806 -0.20211053646798008
0.13587250528455946 0.37868613198707873 -0.20211053646798008
0.19004798810853746 0.5072087150795953 -0.20211053646798008
0.17502279505599103 0.28844624221676557 -0.20211053646798008
0.5202670275455387 0.2852026145827184 -0.20211053646798008
0.4317426125725634 0.5432829810764898 -0.20211053646798008
0.4761181991404843 0.5207649095987891 -0.20211053646798008
0.13487674117805856 0.2780548029271436 -0.20161758394000937
0.6438995215605859 0.34735406930926216 -0.20082885989525628
0.3744812469234889 0.4849765560681175 -0.20082885989525628
0.24192631215217214 0.2564536231514682 -0.20082885989525628
0.4231455204847547 0.39929154765625335 -0.20082885989525628
0.3093622179785616 0.4252602868297489 -0.20082885989525628
0.31362132782022833 0.4445840259261996 -0.2001387263560973
0.23605031801876156 0.44869525000947513 -0.2001387263560973
0.45912119597605516 0.33155987031308143 -0.2001387263560973
0.15994830675064756 0.39490427015731433 -0.2001387263560973
0.30277637220487325 0.2727407746756196 -0.2001387263560973
0.4735548459950367 0.5139917418644718 -0.2001387263560973
0.6270898403567857 0.3882691291308289 -0.2001387263560973
0.5459794314044896 0.5045467714285536 -0.2001387263560973
0.5194783035007856 0.2915222659913026 -0.2001387263560973
0.23019404198646992 0.5355436263873501 -0.19964577382812668
0.34388861303762824 0.2954067319117115 -0.19885704978337354
0.41525828003722376 0.37332280848275773 -0.19885704978337354
0.3833248152752829 0.48556809910168236 -0.19885704978337354
0.6698682607340817 0.4252602868297489 -0.19885704978337354
0.3174072032350432 0.351997682122746 -0.1981669162442146
0.34730970358174484 0.4656429579211073 -0.1981669162442146
0.36952214449210385 0.47589637050289746 -0.1981669162442146
0.13541898895882637 0.4954468677622148 -0.1981669162442146
0.12581627371395743 0.48878214958405114 -0.1981669162442146
0.1295824310276535 0.37918894356560884 -0.1981669162442146
0.12187265349019205 0.2967377037372324 -0.1981669162442146
0.5157417233387678 0.2756294764895277 -0.1981669162442146
0.4826448906108161 0.27403231029890274 -0.1981669162442146
0.47942098107788783 0.39472680724724485 -0.1981669162442146
0.5010615970558009 0.2304848839779726 -0.19688523967149082
0.3869529458811472 0.47720762422729956 -0.19688523967149082
0.3582236725510158 0.3863071780695056 -0.19688523967149082
0.4369777684196121 0.41214774958572875 -0.19619510613233188
0.34726040832894767 0.46569225317390434 -0.19619510613233188
0.3694728492393067 0.4759456657556946 -0.19619510613233188
0.13312183017848295 0.41738290543277734 -0.19619510613233188
0.26813166853909365 0.2745252628268734 -0.19619510613233188
0.24916285526278187 0.5183395831611733 -0.19619510613233188
0.2577303701989123 0.26892532210912645 -0.19619510613233188
0.6043351516656591 0.4551627871764506 -0.19619510613233188
0.6083379261927808 0.3674961096021443 -0.19619510613233188
0.5171417085182046 0.2923109900360557 -0.19619510613233188
0.6958369999075771 0.4512290260032445 -0.19491342955960805
0.3192705637907723 0.2954067319117115 -0.19491342955960805
0.3081988500125509 0.5551138417477863 -0.19491342955960805
0.31362132782022833 0.3497005233424026 -0.1942232960204491
0.31791001481357334 0.4539797011093209 -0.1942232960204491
0.1310218524093279 0.4013718073242896 -0.1942232960204491
0.15819339575107197 0.40442811299770787 -0.1942232960204491
0.3116297996072268 0.5257141529796148 -0.1942232960204491
0.2542402663008799 0.2730464052429613 -0.1942232960204491
0.12129096950718653 0.2951011013443698 -0.1942232960204491
0.5165403064340803 0.27346048536645673 -0.1942232960204491
0.6280856044632865 0.39903521234170863 -0.1942232960204491
0.2964468617457297 0.24346925356472032 -0.19373034349247845
0.44373121805281046 0.38473958903055877 -0.19294161944772537
0.35664622446150945 0.41227591724300106 -0.19294161944772537
0.6698682607340817 0.3318655008804233 -0.19294161944772537
0.34906461458132043 0.33374857953727133 -0.19225148590856642
0.33542954765765143 0.3436273481978038 -0.19225148590856642
0.12801484198870666 0.40595626583441696 -0.19225148590856642
0.4431889702720427 0.27110417228275696 -0.19225148590856642
0.4780900092523671 0.517619872470336 -0.19225148590856642
0.3406548444541405 0.26459719891354383 -0.19225148590856642
0.1205318226141117 0.40620274209840224 -0.19225148590856642
0.4993559813090223 0.2651591647954304 -0.19225148590856642
0.4815308178976024 0.28206743650482485 -0.19225148590856642
0.31330583820232716 0.5467928030756413 -0.1917585333805957
0.44373121805281046 0.3778974079423257 -0.19096980933584262
0.3582236725510158 0.3863071780695056 -0.19096980933584262
0.617920923336531 0.3083911014984594 -0.19096980933584262
0.31548468837595744 0.3848973338395094 -0.19027967579668364
0.335350675253176 0.3434597443382938 -0.19027967579668364
0.1262402128880123 0.40349150319456356 -0.19027967579668364
0.4155146153517685 0.2682450476205269 -0.19027967579668364
0.48065336239781453 0.48983706799390836 -0.19027967579668364
0.428084904815021 0.2572324881456618 -0.19027967579668364
0.12085717128257235 0.39593947046605266 -0.19027967579668364
0.45780994225165317 0.25266774773665335 -0.19027967579668364
0.4854842971719273 0.2816829335330077 -0.19027967579668364
0.3285972256199776 0.2502227031979187 -0.18978672326871301
0.44373121805281046 0.39929154765625335 -0.18899799922395988
0.35654763395591543 0.4252602868297489 -0.18899799922395988
0.5919521841630355 0.26694365294668426 -0.18899799922395988
0.24415445757859963 0.35398921033574754 -0.18830786568480093
0.24415445757859963 0.3444357903436758 -0.18830786568480093
0.13628658540805472 0.4107280463051731 -0.18830786568480093
0.17188761697809748 0.29449969926024544 -0.18830786568480093
0.3140452669942831 0.26382819296990967 -0.18830786568480093
0.1839649539133793 0.5130058368085305 -0.18830786568480093
0.1250176906186449 0.3050883195610557 -0.18830786568480093
0.32774934727186805 0.542237921717192 -0.18830786568480093
0.6186110568756898 0.3730861912693318 -0.18830786568480093
0.4855237333741649 0.30054329725316603 -0.18830786568480093
0.33225493337752016 0.5535462527088394 -0.18702618911207716
0.33225493337752016 0.24575655329450444 -0.18702618911207716
0.6568838911473338 0.49019199381404727 -0.18702618911207716
0.40322037930417964 0.38254102075580954 -0.1863360555729182
0.3413055417910619 0.34297665086088247 -0.1863360555729182
0.3680925821609888 0.32305150968030744 -0.1863360555729182
0.46732392604148737 0.4678809623980941 -0.1863360555729182
0.39026558686911017 0.5307324097143562 -0.1863360555729182
0.4706760032316879 0.3252599370056161 -0.1863360555729182
0.6374911386969673 0.4023281352285528 -0.1863360555729182
0.38537549779164093 0.25324943171965875 -0.1863360555729182
0.6415234903757674 0.41169423325999566 -0.1863360555729182
0.4866180879862599 0.5141494866734225 -0.1863360555729182
0.4750829988317459 0.2304848839779726 -0.1850543790001944
0.38419241172451135 0.34576676216919655 -0.1850543790001944
0.617920923336531 0.5031763634007952 -0.1850543790001944
0.4028161582312437 0.38919587988341375 -0.18436424546103544
0.3212916691554521 0.35009488536477923 -0.18436424546103544
0.22960249895290508 0.3517216287070824 -0.18436424546103544
0.4596338666051447 0.31799381674332833 -0.18436424546103544
0.4768280507807621 0.4839610738604978 -0.18436424546103544
0.3436519958242023 0.5341633593090322 -0.18436424546103544
0.12890215653905393 0.2900631265085094 -0.18436424546103544
0.22820251377346837 0.5202916751719372 -0.18436424546103544
0.21334492458043192 0.5281887746700277 -0.18436424546103544
0.6357165095962727 0.39929154765625335 -0.18436424546103544
0.5042362113359321 0.5198677359978825 -0.18436424546103544
0.5659834449895398 0.2539592833599365 -0.1830825688883117
0.30627633515346514 0.4382446564164966 -0.1830825688883117
0.3311112835126282 0.47720762422729956 -0.1830825688883117
0.31930014094245057 0.44273052442103 -0.18239243534915275
0.24415445757859963 0.4518304280873687 -0.18239243534915275
0.36944327208762845 0.32210504082660385 -0.18239243534915275
0.46682111446295727 0.47815409308100315 -0.18239243534915275
0.46507606251394096 0.5280704660633146 -0.18239243534915275
0.30572422832213797 0.5299732628212814 -0.18239243534915275
0.3243775519805486 0.26151131608844747 -0.18239243534915275
0.46538169308128285 0.4731161182451428 -0.18239243534915275
0.19522398965222967 0.52495500608654 -0.18239243534915275
0.5672552625117041 0.48257094773162057 -0.18239243534915275
0.4872687853231812 0.520715614345992 -0.18239243534915275
0.3897726343411395 0.23485244337579284 -0.18111075877642896
0.4620986292449981 0.37332280848275773 -0.18111075877642896
0.44911425965825025 0.39929154765625335 -0.18111075877642896
0.13795276495259573 0.4116745151588769 -0.18042062523726998
0.3734164694630722 0.25591137537070036 -0.18042062523726998
0.47641397065726676 0.5337492791855369 -0.18042062523726998
0.4641788889130344 0.3185557826252149 -0.18042062523726998
0.4831378431387869 0.4831624907651854 -0.18042062523726998
0.25916979158058673 0.5346760299381217 -0.18042062523726998
0.4898419975191881 0.47941605155260814 -0.18042062523726998
0.23811085958567904 0.44273052442103 -0.18042062523726998
0.24415445757859963 0.4519191595424034 -0.18042062523726998
0.36942355398650967 0.47675410790156647 -0.18042062523726998
0.3712080421377635 0.2304848839779726 -0.17992767270929935
0.5797959748232785 0.5031763634007952 -0.17913894866454622
0.410161150898007 0.34735406930926216 -0.17913894866454622
0.1286458212245092 0.40640978216014995 -0.17844881512538727
0.4369777684196121 0.41214774958572875 -0.17844881512538727
0.24415445757859963 0.34656534526450905 -0.17844881512538727
0.38020935529850813 0.3188515541419972 -0.17844881512538727
0.4694436219117612 0.32549655421904206 -0.17844881512538727
0.47364357745007146 0.5394083742066402 -0.17844881512538727
0.5888958784896173 0.31756987756927346 -0.17844881512538727
0.4228990442207694 0.24484952064303825 -0.17844881512538727
0.4927799945858934 0.5162593234931371 -0.17844881512538727
0.49101522453575835 0.2787843726685401 -0.17844881512538727
0.6438995215605859 0.3058967617069277 -0.1771671385526635
0.3093622179785616 0.39929154765625335 -0.1771671385526635
0.30627633515346514 0.47876535421568694 -0.1771671385526635
0.31445934711777845 0.5330492865958185 -0.17647700501350455
0.38245721882605455 0.2519086008435785 -0.17647700501350455
0.4672549126875714 0.3202416802708746 -0.17647700501350455
0.46915770944553825 0.4781245159293249 -0.17647700501350455
0.44433262013693464 0.5341436412079134 -0.17647700501350455
0.6004999809980471 0.46068385548972224 -0.17647700501350455
0.3151987759097345 0.44357840276913957 -0.17647700501350455
0.3348872998768836 0.4562670008391048 -0.17647700501350455
0.4077259654098318 0.3882198338780317 -0.17647700501350455
0.4262708395120889 0.2304848839779726 -0.17519532844078073
0.4620986292449981 0.34735406930926216 -0.17519532844078073
0.44166081743533353 0.42276594703821724 -0.17519532844078073
0.12353883303473293 0.3923409170118667 -0.17450519490162178
0.36432642484729283 0.2585733190217422 -0.17450519490162178
0.31775227000462264 0.5352872910728055 -0.17450519490162178
0.40363445942767506 0.5510223357656294 -0.17450519490162178
0.5450428216013452 0.5205775876381603 -0.17450519490162178
0.4875645568399636 0.5344591308258148 -0.17450519490162178
0.31548468837595744 0.38490719289006875 -0.17450519490162178
0.23423625271582948 0.4529149236489042 -0.17450519490162178
0.43006657397746306 0.3868395667997138 -0.17450519490162178
0.4750829988317459 0.24228616749759077 -0.17322351832889804
0.4620986292449981 0.37332280848275773 -0.17322351832889804
0.44373121805281046 0.39929154765625335 -0.17322351832889804
0.131642972594571 0.383743824924058 -0.1725333847897391
0.3382689542187625 0.2611859674199868 -0.1725333847897391
0.3176438204484691 0.26328594518914183 -0.1725333847897391
0.4493311587705574 0.5389942940831448 -0.1725333847897391
0.3099636200626858 0.5273803325241555 -0.1725333847897391
0.4962405213322476 0.5164565045043253 -0.1725333847897391
0.36828976317217715 0.3314317026558091 -0.1725333847897391
0.3381802227637278 0.3368048852106896 -0.1725333847897391
0.43690875506569615 0.41312379559111073 -0.1725333847897391
0.3561138357313013 0.3717552194438109 -0.1712517082170153
0.40130772349565336 0.4230617185549997 -0.1712517082170153
0.6958369999075771 0.38881137691159656 -0.1712517082170153
0.40987523843178386 0.3868395667997138 -0.17056157467785632
0.34218299729084967 0.3320528228410522 -0.17056157467785632
0.23286584468807103 0.44273052442103 -0.17056157467785632
0.4345031467291992 0.2502227031979187 -0.17056157467785632
0.4709816337990298 0.47259358856549394 -0.17056157467785632
0.4891814411317075 0.3158938389741731 -0.17056157467785632
0.4566367152350829 0.3139811831656468 -0.17056157467785632
0.5996225254982593 0.3378400855194279 -0.17056157467785632
0.4830688297848709 0.32638386876938935 -0.17056157467785632
0.6698682607340817 0.37332280848275773 -0.16927989810513255
0.44373121805281046 0.42068568737018097 -0.16927989810513255
0.4620986292449981 0.37332280848275773 -0.16927989810513255
0.4371059360768844 0.41020551662552424 -0.1685897645659736
0.34189708482462666 0.4551529281258911 -0.1685897645659736
0.3763544665297775 0.4759259476545757 -0.1685897645659736
0.5270106181281776 0.5243141678001781 -0.1685897645659736
0.41819627710392904 0.2522438085625985 -0.1685897645659736
0.6322757009510371 0.4391516890679628 -0.1685897645659736
0.6369784680678775 0.35970745966020745 -0.1685897645659736
0.5039305807685902 0.49306097752683664 -0.1685897645659736
0.43303414819584657 0.2304848839779726 -0.16730808799324984
0.5919521841630355 0.5421294721610385 -0.16730808799324984
0.45087902970838534 0.32138533013576653 -0.16730808799324984
0.1366119340765154 0.3864550638278967 -0.1666179544540909
0.3180381824708456 0.35228359458896896 -0.1666179544540909
0.23975732102910116 0.3467132310229003 -0.1666179544540909
0.33308309362451094 0.3379485350755816 -0.1666179544540909
0.4059809134608155 0.5518504960126203 -0.1666179544540909
0.35479272295633985 0.2567493946682506 -0.1666179544540909
0.4296919300562054 0.5536842794166712 -0.1666179544540909
0.6319503522825767 0.44785723071192507 -0.1666179544540909
0.6101026962429159 0.45159381087394285 -0.1666179544540909
0.4750829988317459 0.23526652349928823 -0.16533627788136707
0.4620986292449981 0.5613644798024544 -0.16533627788136707
0.4231455204847547 0.4051281055874262 -0.16533627788136707
0.40792314642102 0.3872437878726499 -0.16464614434220812
0.3420351115324584 0.331904937082661 -0.16464614434220812
0.33231408768087667 0.4568388257715509 -0.16464614434220812
0.4150216628237978 0.24554951323275673 -0.16464614434220812
0.4972165673376296 0.4827681287428088 -0.16464614434220812
0.4562522122632658 0.25780431307810786 -0.16464614434220812
0.4697788296307813 0.3162684828954308 -0.16464614434220812
0.4697788296307813 0.4823047533665164 -0.16464614434220812
0.4458509139230843 0.2304848839779726 -0.16415319181423746
0.6568838911473338 0.49019199381404727 -0.16336446776948438
0.4714450091753222 0.30669534480224026 -0.16336446776948438
0.14434142971509575 0.4124139439508329 -0.16267433423032543
0.23825874534407027 0.3548962429872136 -0.16267433423032543
0.24415445757859963 0.45270788358715663 -0.16267433423032543
0.3329746440683573 0.33761332735656147 -0.16267433423032543
0.4190638735531574 0.5535856889110772 -0.16267433423032543
0.3790164101808191 0.25268746583777213 -0.16267433423032543
0.3703798818907727 0.5491195390076627 -0.16267433423032543
0.5330936523233358 0.5323591530566597 -0.16267433423032543
0.48458712357102063 0.32607823820204745 -0.16267433423032543
0.6698682607340817 0.37332280848275773 -0.16139265765760163
0.30627633515346514 0.41227591724300106 -0.16139265765760163
0.327985964485294 0.4720020455319291 -0.16139265765760163
0.24415445757859963 0.44839947849269274 -0.16070252411844266
0.32040435460510497 0.4530825275084143 -0.16070252411844266
0.3686151118406378 0.4768329803060417 -0.16070252411844266
0.5088206698460593 0.5351394053144142 -0.16070252411844266
0.4042950158151558 0.25068607857421127 -0.16070252411844266
0.4431396750192456 0.5567701622417679 -0.16070252411844266
0.5959943948923951 0.49079339589817156 -0.16070252411844266
0.4833547422510939 0.3261078153537257 -0.16070252411844266
0.6309052929232789 0.32138533013576653 -0.1594208475457189
0.4620986292449981 0.3863071780695056 -0.1594208475457189
0.44911425965825025 0.37332280848275773 -0.1594208475457189
0.4370270636724091 0.3816832833571405 -0.15873071400655994
0.33235352388311423 0.3451259238828347 -0.15873071400655994
0.3720854976375513 0.3235740393599563 -0.15873071400655994
0.652052956373221 0.3886832092543243 -0.15873071400655994
0.4768674869829997 0.2564339050503494 -0.15873071400655994
0.5472512489266538 0.5221254585759881 -0.15873071400655994
0.6482276447561687 0.43112642191260003 -0.15873071400655994
0.5328274579582317 0.27663509964658795 -0.15873071400655994
0.5577708558735482 0.2694379927382159 -0.15744903743383615
0.3582236725510158 0.41227591724300106 -0.15744903743383615
0.3627391177072272 0.48216672665868465 -0.15744903743383615
0.4789181694993577 0.25277619729280687 -0.15675890389467723
0.47351540979279916 0.5444266309413819 -0.15675890389467723
0.4212920189795849 0.5455407036545956 -0.15675890389467723
0.472391478029026 0.554680043523172 -0.15675890389467723
0.5975817020324607 0.4722485217959145 -0.15675890389467723
0.23876155692260037 0.45394026490708334 -0.15675890389467723
0.3201578783411196 0.3491484165110755 -0.15675890389467723
0.33690840524156335 0.32416558239352117 -0.15675890389467723
0.617920923336531 0.3083911014984594 -0.15547722732195343
0.4620986292449981 0.36033843889601 -0.15547722732195343
0.3971767813112591 0.421661733375563 -0.15547722732195343
0.40992453368458104 0.2455889494349943 -0.15478709378279448
0.4446579688053953 0.5494547467266828 -0.15478709378279448
0.47562524661251365 0.5504012155803865 -0.15478709378279448
0.5854747879455007 0.5020031363842249 -0.15478709378279448
0.548039972971407 0.28323080447083565 -0.15478709378279448
0.24054604507385421 0.45131775745827923 -0.15478709378279448
0.3160072180556064 0.3468315396296133 -0.15478709378279448
0.36878271570014776 0.3214050482368853 -0.15478709378279448
0.5010615970558009 0.24324249540185386 -0.15350541721007072
0.3582236725510158 0.41227591724300106 -0.15350541721007072
0.3866275972126865 0.46421339558999225 -0.15350541721007072
0.4568338962462712 0.24747202809184232 -0.15281528367091174
0.4728252762536401 0.5454421131490016 -0.15281528367091174
0.5695622803426069 0.5104720608147612 -0.15281528367091174
0.6145885642474492 0.47780902631142375 -0.15281528367091174
0.5091755956661983 0.521908559463681 -0.15281528367091174
0.23939253615840292 0.3476202636743663 -0.15281528367091174
0.35069135792362366 0.4665894267748109 -0.15281528367091174
0.3262014763340402 0.389156443681176 -0.15281528367091174
0.6698682607340817 0.36283277868754166 -0.15153360709818797
0.3093622179785616 0.37332280848275773 -0.15153360709818797
0.47230274657399124 0.49225253538096475 -0.15153360709818797
0.6510867694183986 0.37979034564973313 -0.150843473559029
0.46596337706428825 0.48186109609134276 -0.150843473559029
0.4695520714679149 0.48326108127077944 -0.150843473559029
0.4580662775661979 0.48520331423098395 -0.150843473559029
0.2412657557646915 0.3509624818140075 -0.150843473559029
0.3694531311381879 0.33065283766161535 -0.150843473559029
0.23070671261555947 0.34933573847170435 -0.150843473559029
0.43761860670597397 0.3852916958618859 -0.150843473559029
0.5823297508170479 0.5161607329875428 -0.14956179698630523
0.45282126266858985 0.3343696997225144 -0.14956179698630523
0.4766703059718115 0.4706217784536112 -0.14887166344714628
0.5046798686111056 0.5321915491971494 -0.14887166344714628
0.4595549942006693 0.2376622727852257 -0.14887166344714628
0.4627197494302411 0.23425104129166868 -0.14887166344714628
0.504640432408868 0.2610676588132738 -0.14887166344714628
0.23633623048498467 0.4480642707736727 -0.14887166344714628
0.33970837560043693 0.4578247308274922 -0.14887166344714628
0.3765516475409657 0.46333594009020446 -0.14887166344714628
0.43761860670597397 0.3852916958618859 -0.14887166344714628
0.4659929542159665 0.4252602868297489 -0.14758998687442249
0.4231455204847547 0.397733817667866 -0.14758998687442249
0.4757829914214642 0.3236233346127535 -0.14689985333526356
0.4646915595421238 0.5476702585754291 -0.14689985333526356
0.5026094679936288 0.5304563562986927 -0.14689985333526356
0.4492424273155227 0.5425534113350933 -0.14689985333526356
0.5132178063955578 0.26646055946927305 -0.14689985333526356
0.23557708359190985 0.45275717883995364 -0.14689985333526356
0.3164114391285424 0.34685125773073205 -0.14689985333526356
0.3318901485068218 0.3365091136939072 -0.14689985333526356
0.5409907518214262 0.2564536231514682 -0.14561817676253977
0.3582236725510158 0.37332280848275773 -0.14561817676253977
0.3971767813112591 0.421661733375563 -0.14561817676253977
0.50275735375202 0.25662122701097817 -0.14492804322338082
0.48312798408822744 0.25251000292770265 -0.14492804322338082
0.5058136594254383 0.4836554432931561 -0.14492804322338082
0.5010615970558009 0.4847300798041321 -0.14492804322338082
0.5619017980579427 0.4690048941618673 -0.14492804322338082
0.24415445757859963 0.35017375776925447 -0.14492804322338082
0.3486603935083845 0.3319739504365768 -0.14492804322338082
0.3690784872169302 0.47314569539682105 -0.14492804322338082
0.40786399211766355 0.38754941843999163 -0.14492804322338082
0.6828526303208295 0.46421339558999225 -0.14364636665065705
0.30627633515346514 0.32138533013576653 -0.14364636665065705
0.5102206550254962 0.5296380551022614 -0.14295623311149808
0.4664267524405807 0.552126549428284 -0.14295623311149808
0.4635281915761131 0.560970117780078 -0.14295623311149808
0.4980151504329421 0.5328521055846301 -0.14295623311149808
0.5183149355347748 0.33090917297616007 -0.14295623311149808
0.235320748277365 0.4526388702332407 -0.14295623311149808
0.31640158007798297 0.3468413986801727 -0.14295623311149808
0.3334478784952092 0.33548377243572813 -0.14295623311149808
0.567343993966739 0.5291451025742906 -0.1416745565387743
0.30627633515346514 0.41227591724300106 -0.1416745565387743
0.4664267524405807 0.4382446564164966 -0.1416745565387743
0.4665549200978531 0.24577627139562322 -0.14098442299961533
0.4952053210235091 0.24919736193973968 -0.14098442299961533
0.5909169838542969 0.2939673105300371 -0.14098442299961533
0.5058925318299136 0.3858536617437725 -0.14098442299961533
0.501968629707267 0.3812987803853234 -0.14098442299961533
0.23538976163128092 0.34612168798933546 -0.14098442299961533
0.3190536646784653 0.3446428304054233 -0.14098442299961533
0.36699822754889394 0.3219177188659749 -0.14098442299961533
0.617920923336531 0.29791093075380265 -0.13970274642689157
0.3582236725510158 0.4252602868297489 -0.13970274642689157
0.4231455204847547 0.39929154765625335 -0.13970274642689157
0.5179107144618389 0.27323372720359024 -0.13901261288773262
0.46719575838421495 0.31727410605249107 -0.13901261288773262
0.5091953137673172 0.3132713315253692 -0.13901261288773262
0.48132377783585467 0.3281289207184055 -0.13901261288773262
0.5428343942760366 0.44064040570243423 -0.13901261288773262
0.31548468837595744 0.38490719289006875 -0.13901261288773262
0.34124638748770536 0.34221750396780765 -0.13901261288773262
0.34735899883454185 0.33785980362054685 -0.13901261288773262
0.4335172416732579 0.3852916958618859 -0.13901261288773262
0.708821369494325 0.4252602868297489 -0.13773093631500885
0.4231455204847547 0.39929154765625335 -0.13773093631500885
0.3582236725510158 0.41227591724300106 -0.13773093631500885
0.5545370872900606 0.521238144025641 -0.1370408027758499
0.4766703059718115 0.5501843164680795 -0.1370408027758499
0.6655499965890583 0.413537875714606 -0.1370408027758499
0.6422136239149262 0.34329214047878365 -0.1370408027758499
0.5384766939287757 0.3764382684595325 -0.1370408027758499
0.5277697650212525 0.4958412297845914 -0.1370408027758499
0.31362132782022833 0.4445840259261996 -0.1370408027758499
0.34111821983043306 0.3411921627096286 -0.1370408027758499
0.3506026264685889 0.33649925464334773 -0.1370408027758499
0.4335172416732579 0.3852916958618859 -0.1370408027758499
0.6958369999075771 0.39929154765625335 -0.13575912620312613
0.30627633515346514 0.3198177410968197 -0.13575912620312613
0.38250651407885156 0.48719484244398553 -0.13575912620312613
0.31496215869630856 0.44402206004431316 -0.13506899266396716
0.31362132782022833 0.3452540915401071 -0.13506899266396716
0.2378643833216938 0.34032456626040025 -0.13506899266396716
0.4738013222590221 0.4747231434863272 -0.13506899266396716
0.4839955805374558 0.46390776502265046 -0.13506899266396716
0.516412138776808 0.5355436263873501 -0.13506899266396716
0.5070854769476025 0.24752132334463936 -0.13506899266396716
0.5421245426357588 0.5157170757123692 -0.13506899266396716
0.4533635104493575 0.32138533013576653 -0.13378731609124336
0.46623943047995187 0.431195435266516 -0.13378731609124336
0.617920923336531 0.5291451025742906 -0.13378731609124336
0.31548468837595744 0.44273052442103 -0.13309718255208441
0.3150015948985463 0.3460329565343007 -0.13309718255208441
0.23531088922680565 0.3408175187883709 -0.13309718255208441
0.47260837714133297 0.47447666722234194 -0.13309718255208441
0.48411388914416875 0.47324428590241524 -0.13309718255208441
0.535933058884447 0.5186156365768368 -0.13309718255208441
0.5576328291657163 0.26900419451360175 -0.13309718255208441
0.54815828157812 0.505246764018272 -0.13309718255208441
0.4231455204847547 0.3934549897250805 -0.13181550597936065
0.4620986292449981 0.36033843889601 -0.13181550597936065
0.6568838911473338 0.31888113129367546 -0.13181550597936065
0.24308968011818305 0.35432441805476755 -0.13112537244020167
0.31637200292630474 0.3468118215284945 -0.13112537244020167
0.232984153294784 0.3423555306756394 -0.13112537244020167
0.3260240134239707 0.3719031052022021 -0.13112537244020167
0.4733971011860862 0.4269166073237305 -0.13112537244020167
0.6350658122593514 0.34405128737185864 -0.13112537244020167
0.6009239201721019 0.49550602206557126 -0.13112537244020167
0.524851486055666 0.524836697479827 -0.13112537244020167
0.5010615970558009 0.5604278699993102 -0.1298436958674779
0.3823684873710198 0.3112305080595705 -0.1298436958674779
0.3582236725510158 0.413320976602299 -0.1298436958674779
0.4371256541780033 0.38919587988341375 -0.12915356232831895
0.37111931068272874 0.47554144468275855 -0.12915356232831895
