-0.10842517904765152 0.09204028007215327 -0.3057289332160284
0.22723344727529018 0.004272687140437102 -0.3057289332160284
0.15080121397128304 0.40436828042590456 -0.3057289332160284
0.3354999145816548 0.5102457183634227 -0.3057289332160284
0.4910207145438411 0.4475211675568882 -0.3057289332160284
-0.16419147298618172 0.17134603121840938 -0.3040582833077441
0.31571106641802715 0.5195178253544005 -0.3040582833077441
0.3158113054125242 0.527394939671961 -0.30238763339945973
-0.1534324875768308 0.16684362971558317 -0.30238763339945973
0.02127572658200076 -0.10944009886693433 -0.3007169834911755
0.5336306404546324 0.1574128109833182 -0.3007169834911755
0.5390853124051805 0.16143072401274203 -0.2990463335828911
0.5476975126823862 0.4295449745437492 -0.2990463335828911
0.29438522033877795 0.5232183149012504 -0.29737568367460687
0.016547787341556146 -0.10480404537144532 -0.29737568367460687
0.30325637135176764 0.5283722698683073 -0.2957050337663225
0.28763579470930933 0.5117242435322542 -0.2957050337663225
0.5598013712679059 0.4257860122501096 -0.2940343838580382
0.2989962140856427 0.5249307310572419 -0.2940343838580382
0.30658931791879485 0.5337267028243587 -0.2923637339497539
0.5549898995320471 0.36341229792431484 -0.2923637339497539
-0.15567951170347327 0.19330672426280654 -0.2906930840414696
-0.024583613400403576 0.2841984325230143 -0.2906930840414696
0.5585650903357755 0.43606886243559945 -0.28902243413318535
0.3198626314401137 0.5277290696536179 -0.28902243413318535
-0.1666556816009011 0.15080539059605377 -0.287351784224901
0.5369635870216596 0.14857507296849426 -0.2856811343166167
0.19895769757757825 -0.0315544001427199 -0.2856811343166167
0.003391419313817195 -0.10567278332375327 -0.2840104844083324
-0.007943940313891831 -0.07443163003883663 -0.2840104844083324
-0.16298025180267564 0.18355012879842625 -0.28233983450004807
0.23808431842959685 0.4843172317868501 -0.28233983450004807
0.29154511549469464 0.5323734763986484 -0.28066918459176377
0.3423829922037861 0.5195178253544005 -0.28066918459176377
0.5738264772479527 0.4126129377232876 -0.27899853468347946
0.558615209833024 0.3044968289086687 -0.27899853468347946
0.30820149508028916 0.5435751840336948 -0.2773278847751951
0.3789451654465883 0.5000965201705955 -0.2773278847751951
-0.010023899449705755 -0.1026322004906758 -0.27565723486691085
0.6523553761868567 0.3403656824395328 -0.2743708344375319
-0.006482121644143084 -0.1076775632136944 -0.2739865849586265
0.0741685026782819 -0.08788871505006676 -0.2739865849586265
-0.010408148928611199 -0.10299974347049831 -0.27231593505034224
-0.15577139744842886 0.1970907463050705 -0.27064528514205793
0.4891829996447284 0.47872890784363925 -0.27064528514205793
-0.005362786205592595 -0.09970020990163683 -0.2689746352337736
-0.17579413659921633 0.1730668006239421 -0.2689746352337736
0.5459182705300635 0.1495189901666749 -0.2673039853254893
-0.04651924669617658 -0.029741744992231436 -0.2673039853254893
0.5497440588200345 0.15355360969518142 -0.26563333541720496
0.11715432481843716 -0.06832540462405753 -0.26563333541720496
0.3121776418620058 0.543007163064878 -0.26396268550892066
0.3204390056584718 0.5367004596611047 -0.26396268550892066
-0.16957096569085725 0.16340209090451743 -0.26229203560063635
0.326486758326461 0.5354224124812673 -0.26229203560063635
-0.1708824258688604 0.1694080773247996 -0.26062138569235205
-0.03930203909238834 -0.04324059625116864 -0.26062138569235205
-0.006590713888181608 -0.10074436609431453 -0.25895073578406774
0.3237635989759575 0.5381372185822292 -0.25895073578406774
0.5448323480896787 0.14455715993907042 -0.25728008587578344
0.5772429563103942 0.4097477731305801 -0.25728008587578344
0.013791214992887052 -0.11593057376061887 -0.25560943596749913
-0.06397753823774752 -0.005375316079904787 -0.25560943596749913
0.5817202980645962 0.41623824802426473 -0.2539387860592148
0.036027565272151126 -0.11228855696055902 -0.2539387860592148
0.5536700861045026 0.15134835181624617 -0.2522681361509305
0.11955170743682507 -0.07072278724244545 -0.2522681361509305
0.5801665936498918 0.43386360455666406 -0.2505974862426462
0.07837018719761693 -0.0920903995694018 -0.2505974862426462
0.3193614364676283 0.5494141054631483 -0.24892683633436188
0.05992621221015819 0.3641640903830428 -0.24892683633436188
-0.17267002127072462 0.16430424185499098 -0.24725618642607758
0.5178429988213455 0.4792718690638316 -0.24725618642607758
0.5754303011599057 0.4457419254045655 -0.24558553651779327
0.020590760119604125 -0.12568716922499917 -0.24558553651779327
0.328349532974198 0.5500656589273791 -0.243914886609509
0.5545972968036004 0.13908578148943931 -0.243914886609509
0.6853674183745546 0.3623681417316371 -0.24272872517462712
-0.18134069429472013 0.17120402597620513 -0.2422442367012247
0.5681379143102447 0.2312221239313189 -0.2422442367012247
-0.03994523930707778 0.024220247045351785 -0.2422442367012247
0.5910675843014469 0.42259507092528653 -0.24057358679294036
-0.08330695767659702 0.17731860464052568 -0.24057358679294036
0.5659410096808508 0.4494925344486639 -0.24057358679294036
-6.181404660651779E-4 -0.1118458347348637 -0.23890293688465605
0.5499027705613216 0.4575283605075113 -0.23890293688465605
0.03690465647400042 -0.058978118387206825 -0.23890293688465605
-0.07309928673697982 0.11612269850007154 -0.23890293688465605
0.32934356966962713 0.03220595360695069 -0.23890293688465605
0.33408821540915457 0.5584606747165077 -0.23723228697637175
-0.09107547975011898 0.14484117042347883 -0.23723228697637175
0.06370188100288071 -0.024044828804981926 -0.23723228697637175
0.5837334312040787 0.43602709618789237 -0.23723228697637175
0.548883674117268 0.13257860009667197 -0.23556163706808744
0.06949903618462729 -0.08069656719490279 -0.23556163706808744
0.0348414038372693 0.03890525973917082 -0.23556163706808744
-0.06919831920113598 0.20393205767949477 -0.23556163706808744
0.5623658188771224 0.4576954254983398 -0.23556163706808744
-0.0065489476404744194 -0.10732672673295468 -0.23389098715980314
0.567093758117567 0.466357745272794 -0.23389098715980314
-0.08251339897016198 0.2203127800302224 -0.23389098715980314
-0.09673898293920277 0.2011337190831186 -0.23389098715980314
0.6853674183745546 0.3843706010237416 -0.2322203372515188
-0.17195999505970383 0.19536997689953764 -0.2322203372515188
0.10704689287331702 -0.0825008690958499 -0.2322203372515188
-0.0352841260629645 0.12153560420291266 -0.2322203372515188
-0.08253010546924479 0.2384142717864829 -0.2322203372515188
0.3279569302457512 0.5534403717421135 -0.2322203372515188
-0.0975910143924278 0.1999976771454852 -0.2305496873432345
-0.1675494793018332 0.20771607972175876 -0.2305496873432345
-0.10185952490809429 0.2069225210153237 -0.2305496873432345
-0.06285820279919702 0.22825672034411434 -0.2305496873432345
0.5533443093723871 0.5493973989640654 -0.2295472973982639
0.04483189028880945 -0.11787688090377013 -0.2288790374349502
0.3307636220916688 0.5636229829331062 -0.2288790374349502
0.08644777950417155 -0.03928950921807626 -0.2288790374349502
-0.03359676965559737 0.15112281407862777 -0.2288790374349502
-0.059683967973456875 0.25063507586558254 -0.2288790374349502
0.10957792748436784 -0.08095551793068691 -0.2272083875266659
0.11400514974132127 -0.08141494665546503 -0.2272083875266659
0.577593792791134 0.4485653237495659 -0.2272083875266659
0.11519966442574456 -0.04345778073924557 -0.2272083875266659
0.11551708790831855 -0.08047102945728439 -0.2255377376183816
0.3298531178916538 0.5587029189532089 -0.2255377376183816
-0.1638489897549835 0.1449330561684344 -0.2255377376183816
0.12895746642046577 -0.015148618043368004 -0.2255377376183816
0.02375664169580293 0.1512648193208319 -0.2255377376183816
-0.0588235832706905 0.2647604208401264 -0.2255377376183816
0.12524862362407457 -0.07376337007552292 -0.22386708771009728
0.12052068438362996 -0.08399610076376426 -0.22386708771009728
-0.06029375518998059 0.2518630035481716 -0.22386708771009728
0.07857066518661106 -0.09229087755839593 -0.22386708771009728
0.5730329185415176 0.4624651309864915 -0.22219643780181297
0.1271615177690601 -0.08130635441142663 -0.22219643780181297
0.08077592306554632 0.03330858254641837 -0.22219643780181297
0.034331855615242525 0.140505833911481 -0.22219643780181297
-0.012145624833226867 0.011347889502021098 -0.22219643780181297
0.02756572348669118 0.1567194912713802 -0.22219643780181297
0.4585182205781697 0.21774833242100597 -0.22219643780181297
0.5882274794573635 0.4439125637549942 -0.22219643780181297
-0.1685769289954281 0.20592848431989455 -0.22052578789352867
0.5705520034277155 0.15032925537219274 -0.22052578789352867
0.019421305183805106 0.3212367409896774 -0.22052578789352867
0.026229203560063644 0.1357194219242465 -0.22052578789352867
0.42629973709690683 0.21212659547962925 -0.22052578789352867
0.368812673752844 0.046824140304438384 -0.22052578789352867
0.576783527585616 0.22257651065594766 -0.22052578789352867
0.09190245145471987 -0.08407128000963705 -0.21885513798524436
-0.08763394093905338 0.23579970468001793 -0.21885513798524436
0.027181474007785734 -0.13102489568196762 -0.21885513798524436
0.21806993252835083 -0.029741744992231436 -0.21885513798524436
0.37050003016021116 0.04767617175766341 -0.21885513798524436
0.42088683139406574 0.2316147266597657 -0.21885513798524436
0.5931308369381779 0.4015532353304456 -0.21885513798524436
0.16029050545033802 -0.05955449260556494 -0.21718448807696006
-0.008545374280874204 -0.10908090913665315 -0.21718448807696006
0.6004232237878389 0.4453743824247431 -0.21718448807696006
0.15996472871822257 0.45176461832393044 -0.21718448807696006
0.23931224611218574 0.487441347115342 -0.21718448807696006
0.37861103546493147 0.3079216612206515 -0.21718448807696006
0.2837181206743827 0.0023430864963687715 -0.21718448807696006
0.4983214546430435 0.11804394589459853 -0.21718448807696006
0.16451724971829731 -0.056196486289913465 -0.21551383816867573
0.04889156956594035 -0.12314778136440713 -0.21551383816867573
0.19534074052614278 0.4789293858326334 -0.21551383816867573
0.20568206345842263 0.46299138570760096 -0.21551383816867573
0.3467684482130325 0.03452815697946592 -0.21551383816867573
0.0846518308527659 -0.09837204322455076 -0.21551383816867573
0.03939392483734405 -0.054976911856865915 -0.21384318826039142
0.5863229385619194 0.4622562997479559 -0.21384318826039142
0.2664686603713472 0.5328913778702163 -0.21384318826039142
0.0949680940364215 0.3811044804530456 -0.21384318826039142
0.2716643815861114 0.3780471911208854 -0.21384318826039142
-0.09953732153557905 0.1543555216511579 -0.21217253835210712
-0.008846091264365391 -0.11897115659369635 -0.21217253835210712
-0.1277713049855838 0.08334454729953336 -0.21217253835210712
0.4589358830552409 0.21181752524659672 -0.21217253835210712
0.29948070255904513 0.428275280613453 -0.21217253835210712
0.5774852005470955 0.4627324349718168 -0.21217253835210712
0.6853674183745546 0.3843706010237416 -0.21108661591172231
0.11396338349361408 0.1550154283649303 -0.21108661591172231
0.0015620576642458083 0.2615778327648448 -0.21108661591172231
0.19777988939223787 0.12201173942677371 -0.21108661591172231
0.26688632284841823 0.3811629531998356 -0.21108661591172231
0.35699282565173235 0.09664292056947656 -0.21108661591172231
0.16754112605229185 -0.02437895878663884 -0.21108661591172231
-0.17422372568542907 0.152158617021764 -0.2105018884438228
0.5957788170428087 0.45946631440112107 -0.2105018884438228
0.0710026211020831 0.3877787268366415 -0.2105018884438228
0.1680005547770701 0.043574726232825434 -0.2105018884438228
0.3359927563045986 0.28535118095973055 -0.20941596600343804
0.16322249603937697 0.14860013271711853 -0.20941596600343804
0.13731071596188732 0.3403656824395328 -0.20941596600343804
0.34463001633042856 0.32985729451642454 -0.20941596600343804
0.34463001633042856 0.08732069408125012 -0.20941596600343804
0.06819592925616547 0.16740329743485835 -0.20941596600343804
0.13527252307378046 0.10520500134943357 -0.20941596600343804
0.5048369892853523 0.1103171900687835 -0.20883123853553853
-0.18489917859936572 0.18393437827733156 -0.20883123853553853
0.5245840712012728 0.12759171012044335 -0.20883123853553853
0.42088683139406574 0.2925266223158116 -0.20883123853553853
0.33293546697243837 0.43181705841901574 -0.20883123853553853
0.5842596859251884 0.4596500858910323 -0.20883123853553853
0.16673086084677402 0.032924333067513044 -0.20883123853553853
0.28409401690374664 0.12103440923042735 -0.2077453160951537
0.4223820630619802 0.20981274535665548 -0.2077453160951537
0.2776787212559349 0.43932662975675374 -0.2077453160951537
0.0802580215939782 0.09832192372730224 -0.2077453160951537
0.2620581446134766 0.4975821920586277 -0.2071605886272542
0.3277982185044641 0.5677327817074858 -0.2071605886272542
0.28874677689831846 0.5636229829331062 -0.2071605886272542
0.09242870617582932 -0.0922407580611474 -0.2071605886272542
0.4131183093205439 0.19010742968844213 -0.2071605886272542
0.3666993016188642 0.24134626237552184 -0.2060746661868694
0.2782968617220001 0.05219527975957244 -0.2060746661868694
0.3748687796703746 0.30204932679303215 -0.2060746661868694
0.003249414071613063 0.24134626237552184 -0.2060746661868694
0.032552613462919794 -0.05361533218161423 -0.2054899387189699
0.5151198394708422 0.12175278869098971 -0.2054899387189699
0.05225792913113316 -0.12778383485989603 -0.2054899387189699
0.5108596822047172 0.13332203930585848 -0.2054899387189699
0.39890943185058564 0.31069494006840354 -0.2054899387189699
0.2963900002287191 0.4734663606325437 -0.2054899387189699
0.4991734860962685 0.4952349289374882 -0.2054899387189699
0.2716643815861114 0.3780471911208854 -0.2054899387189699
0.3964619297349493 0.2778750226201583 -0.2044040162785851
0.2012799009500935 0.09832192372730224 -0.2044040162785851
0.39214329972203416 0.26784276992091094 -0.2044040162785851
0.17927744165798914 0.3733693713776894 -0.2044040162785851
0.025251873363717404 0.19734134379131316 -0.2044040162785851
0.09250388542170213 -0.09033621716570321 -0.2038192888106856
0.3097384929959107 0.5712829127625898 -0.2038192888106856
0.5762823326131307 0.16052857306226848 -0.2038192888106856
0.17190152231291395 0.0403420186602953 -0.2038192888106856
0.2122811305961457 0.34673921183963735 -0.20273336637030076
0.453865460583598 0.17533888449920884 -0.20273336637030076
0.32506670590441933 0.3843121282769516 -0.20273336637030076
0.4122495713682359 0.24134626237552184 -0.20273336637030076
0.003249414071613063 0.24134626237552184 -0.20273336637030076
-0.10165904691910016 0.2116003407585197 -0.20214863890240128
-0.10476645574850897 0.21276144244477738 -0.20214863890240128
-0.18717126247463242 0.16122189277420645 -0.20214863890240128
0.014634893196570619 -0.12362391658826805 -0.20214863890240128
0.4484191418825913 0.25121980333348215 -0.20214863890240128
0.3456825257726477 0.4154530425673709 -0.20214863890240128
0.4144631824967125 0.3479754927717677 -0.20214863890240128
0.29503677380300886 0.3769946816786663 -0.20214863890240128
0.35530546924436524 0.08732069408125012 -0.20047798899411698
0.3619128896316296 0.3403656824395328 -0.20047798899411698
0.058255562301873856 0.25234749202157397 -0.20047798899411698
-0.10547648195952976 0.18621481540213974 -0.20047798899411698
0.040730444763971474 -0.12642225518464434 -0.20047798899411698
0.6029291986502654 0.45831356596440487 -0.20047798899411698
-0.00408473902575505 -0.008023296184535358 -0.20047798899411698
0.40330324110937343 0.1900573101911936 -0.20047798899411698
0.28750214271664665 0.51686984524977 -0.19880733908583265
0.6056356515016861 0.4364029924172562 -0.19880733908583265
0.5846606419031763 0.15270993149149784 -0.19880733908583265
0.5309826603500016 0.17706800715428314 -0.19880733908583265
0.3713019421161876 0.3949875811908883 -0.19880733908583265
0.2987205568507758 0.5322648841546098 -0.19880733908583265
0.16526904217702526 0.04184560357775123 -0.19880733908583265
0.4653261189544285 0.17533888449920884 -0.19790518813535915
0.2365974400112237 0.09107965637488973 -0.19790518813535915
0.09747406889884805 0.2743499513136783 -0.19790518813535915
-0.10478316224759178 0.20394041092903623 -0.19713668917754834
0.04720421315857321 -0.07490776526269767 -0.19713668917754834
0.5763491586094621 0.47815253362528104 -0.19713668917754834
0.3748270134226675 0.5496229367016838 -0.19713668917754834
-0.13065317607737426 0.242022875588377 -0.19713668917754834
0.6853674183745546 0.3623681417316371 -0.19546603926926404
0.19027867130404136 0.09832192372730224 -0.19546603926926404
0.14627375271983267 0.3513669120855849 -0.19546603926926404
0.5410984455446632 0.1323112961113465 -0.19546603926926404
0.32062277714838305 0.5731540406598684 -0.19546603926926404
-0.018778104969115545 -0.10665846676964097 -0.19546603926926404
0.5182857210470408 0.18198807113418042 -0.19546603926926404
0.4041135063148914 0.3618084740123618 -0.19546603926926404
0.3727136412886877 0.4495510071954539 -0.19546603926926404
-0.059516902982628475 0.2959848676259601 -0.19546603926926404
0.16283824656047152 0.03977399769147865 -0.19546603926926404
-0.10233566013195522 0.20371487319141784 -0.19379538936097973
0.6066714544448223 0.44246745158432826 -0.19379538936097973
0.5741355474809854 0.13634591563985315 -0.19379538936097973
0.2964484729755091 0.5334593988390331 -0.19379538936097973
0.29025871506531575 0.37230850868592874 -0.19379538936097973
0.3443042395983131 0.2743499513136783 -0.19307700990041746
0.27481355666322727 0.08732069408125012 -0.19307700990041746
0.04725433265582175 0.19734134379131316 -0.19307700990041746
0.054262709021074405 -0.07669536066456187 -0.19212473945269543
-0.09738218315389233 0.1431705205151945 -0.19212473945269543
0.5875926324922156 0.47502841829678943 -0.19212473945269543
0.43784392796315147 0.3713562382382066 -0.19212473945269543
0.45146807796521 0.30813884570872846 -0.19212473945269543
0.3461085414992601 0.47395920235548755 -0.19212473945269543
0.04725433265582175 -0.12351532434422964 -0.19212473945269543
0.4101863187315049 0.1920704433306762 -0.19212473945269543
0.17656263555702711 0.2963607638553241 -0.1906712740324881
0.4103199707241676 0.2633487216676262 -0.1906712740324881
0.2122811305961457 -6.974963367087053E-4 -0.1906712740324881
-0.10182611190992856 0.16926607208259534 -0.1904540895444111
0.586373058059168 0.47284822016647843 -0.1904540895444111
0.5891463369069199 0.15447246714473778 -0.1904540895444111
0.33139011580727545 0.5425059680923926 -0.1904540895444111
0.4039213815754388 0.19198691083526193 -0.1904540895444111
0.10358029431362716 -0.09005220668129495 -0.18878343963612682
-0.10053971148054967 0.23155625391297582 -0.18878343963612682
0.3063554269316351 0.5764702807278126 -0.18878343963612682
-0.0072923868496609255 -0.006427825522123941 -0.18878343963612682
0.5206413374177218 0.21847506513110967 -0.18878343963612682
0.41736176008758585 0.3823741743833418 -0.18878343963612682
0.31933637671900406 0.5366837531620218 -0.18878343963612682
0.16756618580091612 0.03659140961619704 -0.18878343963612682
0.12427129342772834 0.3403656824395328 -0.18825718491501725
0.41536533344718607 0.2083425734373654 -0.18825718491501725
0.13527252307378046 0.030192820467468098 -0.18825718491501725
0.30340672984351325 0.528956997336207 -0.1871127897278425
0.5484994246383628 0.1295714302617602 -0.1871127897278425
-0.19189920171507704 0.16858945886974028 -0.1871127897278425
0.5661331344203036 0.1516240090511131 -0.1871127897278425
-0.08847761914273695 0.12263823314238034 -0.1871127897278425
0.5533443093723871 0.5383961693180134 -0.18584309579754643
0.2562944024298957 0.1300057992379142 -0.18584309579754643
0.17927744165798914 0.3733693713776894 -0.18584309579754643
0.025251873363717404 0.19734134379131316 -0.18584309579754643
0.3135726345354232 0.5764452209791885 -0.1854421398195582
-0.1890674501205351 0.16928277858167826 -0.1854421398195582
0.32023852766947764 0.584046678061882 -0.1854421398195582
-0.11433092647343661 0.19445111944998128 -0.1854421398195582
0.5514731814751087 0.22648583144133297 -0.1854421398195582
0.44708262195596365 0.39160451512661254 -0.1854421398195582
0.17115808310372746 0.03996612243093131 -0.1854421398195582
0.03231872247575994 -0.05893635213949964 -0.1837714899112739
0.01418381772133384 -0.12959649001038448 -0.1837714899112739
0.1314300282847266 -0.08941735971614685 -0.1837714899112739
0.5791725569544626 0.4741179140967746 -0.1837714899112739
0.022654012756335246 0.33888715727070123 -0.1837714899112739
0.40939276002506964 0.19574587312890163 -0.1837714899112739
0.3135225150381747 0.325705729494338 -0.18342900668007558
0.37956330591265336 0.15332807195756304 -0.18342900668007558
0.12427129342772834 0.04331577549704144 -0.18342900668007558
0.29355824863417723 0.3918801723614793 -0.18210084000298957
0.5681379143102447 0.16745341693210689 -0.18210084000298957
-0.10888460777242975 0.21616956825767736 -0.18210084000298957
0.6075903118943786 0.4622562997479559 -0.18210084000298957
0.5337726456968365 0.279654264772481 -0.18210084000298957
0.5521497946879638 0.2442782529645608 -0.18210084000298957
0.4475420506807419 0.41085040207004775 -0.18210084000298957
0.11621040762025653 0.432969806855732 -0.18210084000298957
0.14627375271983267 0.08773835655832117 -0.18101491756260477
0.19027867130404136 0.10932315337335434 -0.18101491756260477
0.36630669889041745 0.10932315337335434 -0.18101491756260477
0.0802580215939782 0.10932315337335434 -0.18101491756260477
0.1818335360176641 0.04258904278693774 -0.18043019009470526
0.04519943326863197 -0.0685008228644274 -0.18043019009470526
0.5744780307121836 0.14026358967477978 -0.18043019009470526
-0.021125368090255045 -0.11321576765965685 -0.18043019009470526
0.5694994939854964 0.13937814522338915 -0.18043019009470526
0.6523637294363981 0.3843706010237416 -0.17934426765432046
0.15026660600063213 0.28367217780190473 -0.17934426765432046
0.23664755950847224 0.06532658803868713 -0.17934426765432046
0.04725433265582175 0.1643376548531567 -0.17934426765432046
0.13527252307378046 0.12032438301940657 -0.17934426765432046
0.1657117644027206 0.028421931564686823 -0.17875954018642096
0.0786207846838596 -0.08630159763719669 -0.17875954018642096
0.5675448335928038 0.1343077227517463 -0.17875954018642096
-0.19325242814078733 0.1670608142036601 -0.17875954018642096
0.5612631899376548 0.21450727159893448 -0.17875954018642096
0.4484525548807569 0.3933586975303111 -0.17875954018642096
0.2950451270525502 0.5392983202684869 -0.17875954018642096
0.6122931913861991 0.4392598037604225 -0.17875954018642096
0.16469266795866716 0.023944589810484862 -0.17708889027813665
0.5589493398146811 0.14887578995198544 -0.17708889027813665
0.6137717165550306 0.44705338558256874 -0.17708889027813665
0.3213077436107796 0.587730461109649 -0.17708889027813665
0.3899631015917232 0.5182481314241045 -0.17708889027813665
-0.10545977546044695 0.14722184654278392 -0.17708889027813665
0.31835904652265784 0.3623681417316371 -0.17669628754968983
0.16476784720453996 0.017846717645247107 -0.17669628754968983
0.1329920859489724 0.29469011394703976 -0.17669628754968983
0.3203554731630575 0.1258876472139933 -0.17541824036985235
0.13113766455077674 -0.08727057458400159 -0.17541824036985235
0.11419727448077394 -0.09503074340798222 -0.17541824036985235
-0.1877392834434491 0.20485091512905115 -0.17541824036985235
0.5700591617047717 0.22080562175316626 -0.17541824036985235
0.5286186907297795 0.32299927664291744 -0.17541824036985235
0.41598347391325136 0.5005559488953737 -0.17541824036985235
0.199525718546395 0.47474440781238114 -0.17541824036985235
0.32230178030620876 0.2963607638553241 -0.1740483074450592
0.3883175114320631 0.12032438301940657 -0.1740483074450592
0.09125925124003043 0.31836322314742843 -0.1740483074450592
0.31941155596487686 0.12145207170749853 -0.173747590461568
0.558615209833024 0.14013829093165847 -0.173747590461568
0.04047984727772882 -0.07449845603516808 -0.173747590461568
-0.1911307027572662 0.16807991064771352 -0.173747590461568
0.4662867426516918 0.5248889648095345 -0.173747590461568
0.5743610852186039 0.2375371805846336 -0.173747590461568
0.2925307989405824 0.3748478965465209 -0.1720769405532837
0.08695732772619832 -0.09255818154372139 -0.1720769405532837
0.04693690917324764 -0.13122537367096174 -0.1720769405532837
0.12366985946074596 -0.09673480631443215 -0.1720769405532837
0.5758061973892697 0.3216878164649142 -0.1720769405532837
0.4959908980209869 0.3571557140177901 -0.1720769405532837
0.4645910329947832 0.44490660045042335 -0.1720769405532837
-0.09454207830980899 0.018281086621401082 -0.1720769405532837
0.2342919431377914 0.3607726710692256 -0.17139197409088716
0.20528110748043438 0.04331577549704144 -0.17139197409088716
0.22328236024219783 0.15332807195756304 -0.17139197409088716
0.1699719216688455 0.03651623037032425 -0.17040629064499943
-0.09419959507861073 0.2391744174947522 -0.17040629064499943
0.36067660869949925 0.5388138317950842 -0.17040629064499943
0.32305357276493674 0.590704217946395 -0.17040629064499943
0.40626029144703657 0.527411646171044 -0.17040629064499943
-0.0075596908349865035 -0.011506601243308153 -0.17040629064499943
0.18453998886908468 0.3293644527934807 -0.16873564073671513
0.333303009952261 0.0763194644351979 -0.16873564073671513
0.2782968617220001 0.15332807195756304 -0.16873564073671513
0.050971528701754275 0.23102999919186626 -0.16873564073671513
0.2942181553479496 0.533375866343619 -0.16873564073671513
0.31609531589693257 0.5456217301713427 -0.16873564073671513
0.5845019301618896 0.48956307249886294 -0.16873564073671513
0.567728605082715 0.26482724683645786 -0.16873564073671513
0.5194802357314642 0.3775543493979416 -0.16873564073671513
0.5985688023896434 0.4695403333480756 -0.16873564073671513
0.32863354345860624 0.13500104246368427 -0.16706499082843082
0.27770378100455917 0.5290488830811626 -0.16706499082843082
0.2983196008727875 0.5779905721443512 -0.16706499082843082
-0.17260319527439327 0.22971018576432164 -0.16706499082843082
0.6257335698983462 0.4462097073788852 -0.16706499082843082
0.587943468972955 0.2706327552677458 -0.16706499082843082
0.6523637294363981 0.36448986711515813 -0.16609601388162593
0.4213212003702198 0.23246675811299072 -0.16609601388162593
0.09072464326937939 0.1313256126654587 -0.16609601388162593
0.2915868817424018 0.3831844395888595 -0.1653943409201465
0.3500429220332697 0.5413615729052179 -0.1653943409201465
0.41293453783063244 0.5131275894552131 -0.1653943409201465
0.589447053890411 0.48537809447861074 -0.1653943409201465
0.04565050874386875 -0.13995451944174728 -0.1653943409201465
-0.06637492085613554 0.30283453224992585 -0.1653943409201465
0.5202821476874406 0.360045938359122 -0.1653943409201465
0.48037867462807005 0.45998421587268934 -0.1653943409201465
0.04772211463014133 0.22631876645050444 -0.16372369101186218
0.34252499744599035 0.5404928349529101 -0.16372369101186218
-0.09085829526204206 0.2569751922675215 -0.16372369101186218
0.6251906086781538 0.4392180375127152 -0.16372369101186218
0.2748302631623102 0.5352302877418144 -0.16372369101186218
0.05383669329446189 0.37025360929873896 -0.16372369101186218
0.31130055066015666 0.31836322314742843 -0.1634480337769953
0.36630669889041745 0.09832192372730224 -0.1634480337769953
0.13527252307378046 0.2193438030834175 -0.1634480337769953
0.21919762121644265 0.32960669703018186 -0.16205304110357788
0.5745114437103495 0.160837643295301 -0.16205304110357788
-0.10322945783288731 0.1435046504968514 -0.16205304110357788
0.5746283892039292 0.12968002250579874 -0.16205304110357788
0.34472190207538417 0.5797280480489669 -0.16205304110357788
0.5663837319065461 0.13454161373890602 -0.16205304110357788
0.5405471310749295 0.38471308425493983 -0.16205304110357788
0.5533443093723871 0.5603986286101176 -0.16080005367236466
0.3993187410781153 0.28535118095973055 -0.16080005367236466
0.11148246837981192 0.09832192372730224 -0.16080005367236466
0.29028377481394 0.3824159406310489 -0.16038239119529357
0.0905742847776338 0.24827110624536025 -0.16038239119529357
0.5722978325818726 0.16226604896688412 -0.16038239119529357
0.6227848728102245 0.4439209170045357 -0.16038239119529357
-0.18855790189850838 0.1476729220180207 -0.16038239119529357
0.4004881960139145 0.558285256476138 -0.16038239119529357
0.5927716472078968 0.30465554064995565 -0.16038239119529357
0.04786411987234546 0.2214321154687729 -0.15871174128700927
-0.0758976253333561 0.26367449839974166 -0.15871174128700927
0.28249854624133514 0.5390894890299512 -0.15871174128700927
0.624973424190077 0.45234099254228843 -0.15871174128700927
0.6025282426722771 0.47735062166930453 -0.15871174128700927
0.5876594584885468 0.18734250409023157 -0.15871174128700927
0.5324945985169991 0.416522258508673 -0.15871174128700927
0.35530546924436524 0.25102767859402947 -0.1581437203181926
0.443323659662324 0.1423268423115109 -0.1581437203181926
0.04463976554935678 0.24134626237552184 -0.1581437203181926
0.20642550266760915 0.32939786579164626 -0.15704109137872493
-0.10776527233387927 0.2281898943477829 -0.15704109137872493
-0.16824279901377118 0.2330347790818074 -0.15704109137872493
0.31054040495188723 0.5907961036913506 -0.15704109137872493
0.5932561356812994 0.1395034439665105 -0.15704109137872493
0.578053221515912 0.14977794090245888 -0.15704109137872493
0.5533443093723871 0.5713998582561698 -0.15537044147044063
0.3773162817860111 0.31836322314742843 -0.15537044147044063
0.11327006378167612 0.06531823478914578 -0.15537044147044063
0.29511195304888166 0.3773538714089475 -0.15537044147044063
0.19544933277018128 0.059011531385372434 -0.15537044147044063
0.11636911936154347 -0.09237441005381007 -0.15537044147044063
0.5937239176556188 0.15001183188961875 -0.15537044147044063
-0.19873215983995984 0.19644754609038106 -0.15537044147044063
0.5684135715451115 0.34435853572033226 -0.15537044147044063
0.2983279541223289 0.5496730561989324 -0.15537044147044063
-0.09967932677778318 0.02146367469668269 -0.15537044147044063
0.04780564712555547 0.2214488219678557 -0.15369979156215635
0.5936654449088289 0.30290971149579865 -0.15369979156215635
0.01961342992325777 -0.05507715085136298 -0.15369979156215635
0.550963633253082 0.11570503602300049 -0.15369979156215635
0.6041988925805616 0.4792551625647487 -0.15369979156215635
0.5718551103561773 0.13714782759582952 -0.15369979156215635
0.3443042395983131 0.2743499513136783 -0.15284776010893134
0.16827621201193702 0.1313256126654587 -0.15284776010893134
0.03625310300976951 0.2764716766971994 -0.15284776010893134
0.3273805560273931 0.13803327204722027 -0.15202914165387205
-0.10869248303297709 0.15803095144938337 -0.15202914165387205
-0.18301134420300447 0.21976981881003002 -0.15202914165387205
-0.17439914392579892 0.234354592509352 -0.15202914165387205
0.6070139376760206 0.15862403216682427 -0.15202914165387205
0.5618729771541786 0.3748729562951453 -0.15202914165387205
0.5272905240526933 0.4657646645553531 -0.15202914165387205
0.5533443093723871 0.5493973989640654 -0.15035849174558774
0.3883175114320631 0.2963607638553241 -0.15035849174558774
0.09125925124003043 0.0763194644351979 -0.15035849174558774
0.28834582092033023 0.3796008955355897 -0.15035849174558774
0.19387056860685256 0.05766665820920355 -0.15035849174558774
0.09287142840152476 -0.09414529895659146 -0.15035849174558774
0.570660595671754 0.13754878357381778 -0.15035849174558774
0.3161120223960154 0.5982639087813815 -0.15035849174558774
0.15805183457323702 0.4536775124689161 -0.15035849174558774
0.009739888965297608 -0.13166809589665707 -0.15035849174558774
0.16991344892205562 0.036257279634540125 -0.1486878418373034
0.36326611605733994 0.5419463003731173 -0.1486878418373034
-0.1136626665101229 0.16002737808978315 -0.1486878418373034
0.5473466762016465 0.11235538295689047 -0.1486878418373034
0.6232860677827098 0.4548052011570079 -0.1486878418373034
0.5730913912883077 0.13363946278843247 -0.1486878418373034
0.29233032095158834 0.5504248486576603 -0.1486878418373034
0.31130055066015666 0.3293644527934807 -0.14755179989967007
0.36630669889041745 0.10932315337335434 -0.14755179989967007
0.24529317278384363 0.19734134379131316 -0.14755179989967007
0.20842192930800893 0.32257326091630495 -0.1470171919290191
0.5477977516768833 0.11708332219733497 -0.1470171919290191
0.05680209688166657 -0.13378982128017816 -0.1470171919290191
0.0014785251688316688 -0.13505116196093278 -0.1470171919290191
0.49460425859711094 0.5273114071765469 -0.1470171919290191
0.5052964180101306 0.4947003209668373 -0.1470171919290191
0.2881202831827118 0.38107942070442147 -0.1453465420207348
0.07905515366001345 0.24100377914432358 -0.1453465420207348
0.5353764696087895 0.11314894166332551 -0.1453465420207348
0.5839673221912384 0.13475879822698295 -0.1453465420207348
-0.17731442801575495 0.23885699401217822 -0.1453465420207348
0.5857298578444785 0.3773371649098645 -0.1453465420207348
0.5659493629303923 0.4994616732054475 -0.1453465420207348
0.5533443093723871 0.5603986286101176 -0.14489546654549804
0.3672589693381395 0.28535118095973055 -0.14489546654549804
0.11824860050836337 0.08732069408125012 -0.14489546654549804
0.2881202831827118 0.3811044804530456 -0.1436758921124505
0.16887764597891927 0.04238021154840215 -0.1436758921124505
0.11795623677441365 -0.09463814067953531 -0.1436758921124505
0.5620818083927142 0.12414181805983616 -0.1436758921124505
0.30679814915733045 0.5984476802712927 -0.1436758921124505
0.6039065288466117 0.48604635444192457 -0.1436758921124505
0.028183863952756356 -0.07292804512138082 -0.1436758921124505
0.2122811305961457 0.3513669120855849 -0.1422474864408674
0.21890525748249293 0.05161055229167299 -0.1422474864408674
0.267295632075948 0.1643376548531567 -0.1422474864408674
0.047463163894357216 0.22637723919729444 -0.1420052422041662
0.5675448335928038 0.13431607600128764 -0.1420052422041662
0.11879156172855576 -0.1014961585530425 -0.1420052422041662
0.02095830309942665 -0.1423268423115109 -0.1420052422041662
0.4779896452592235 0.5365918674170662 -0.1420052422041662
0.5836498987086646 0.43616074818055506 -0.1420052422041662
-0.037623035934562545 0.3336997893054784 -0.1420052422041662
0.19809731287481186 0.31605772627399614 -0.14033459229588185
0.5387929486712308 0.10969069635317698 -0.14033459229588185
0.04179130745573197 -0.1395201504655933 -0.14033459229588185
-0.017165927807621204 -0.1227217656377946 -0.14033459229588185
0.5981010204153238 0.5021013000605368 -0.14033459229588185
0.6122597783880331 0.39819522901479404 -0.14033459229588185
0.6523637294363981 0.3513669120855849 -0.1395995063362368
0.3002993210141044 0.06319650940562467 -0.1395995063362368
0.11327006378167612 0.3204765952814081 -0.1395995063362368
0.2934078901424316 0.38052810623468764 -0.13866394238759755
0.053711394551340566 0.22495718677525275 -0.13866394238759755
0.5592584100477135 0.1283852688268784 -0.13866394238759755
0.6007072342722474 0.14998677214099448 -0.13866394238759755
-0.186469589513153 0.23240828536620087 -0.13866394238759755
0.11963523993223933 0.4295449745437492 -0.13866394238759755
0.5599517297596515 0.4585558102011061 -0.13866394238759755
0.19027867130404136 0.28535118095973055 -0.13699329247931324
0.3883175114320631 0.12032438301940657 -0.13699329247931324
0.333303009952261 0.29504930367732096 -0.13699329247931324
0.20696846388780152 0.32994918026138015 -0.13699329247931324
-0.08606353002526611 0.26836902464202056 -0.13699329247931324
0.3184258725189892 0.597620708566692 -0.13699329247931324
0.3491825373305033 0.6000765639318698 -0.13699329247931324
0.03592732627765406 -0.14736385178498818 -0.13699329247931324
0.29720026543423705 0.5569988560467591 -0.13699329247931324
-2.4224423670119428E-4 -0.12927071327826903 -0.13699329247931324
0.16659720885411122 0.03233125235007201 -0.13532264257102897
0.6080915068668639 0.39133721114128694 -0.13532264257102897
0.03097384929959106 -0.07394714156543424 -0.13532264257102897
0.13215676099483017 -0.10200570677506915 -0.13532264257102897
0.5961964795198795 0.45333502923771757 -0.13532264257102897
0.5974327604520101 0.4479388300339594 -0.13532264257102897
-0.10199317690075696 0.019158177823250258 -0.13532264257102897
0.260796803932722 0.04331577549704144 -0.13430354612697554
0.14627375271983267 0.3513669120855849 -0.13430354612697554
0.28815369618087755 0.3812214259466256 -0.13365199266274466
0.21348399853011032 0.054250179146762216 -0.13365199266274466
0.02235329577284406 -0.05313084370821172 -0.13365199266274466
0.34202380247350506 0.5610167690761828 -0.13365199266274466
0.6367932722911883 0.45527298313132764 -0.13365199266274466
0.5939828683914029 0.14282803728399623 -0.13365199266274466
0.5993874208447026 0.43833259306132455 -0.13365199266274466
0.32305357276493674 0.13139243866179015 -0.13198134275446033
0.09099194725470484 0.24853841023068585 -0.13198134275446033
0.07373413370212792 -0.09360233773639907 -0.13198134275446033
0.5499445368090287 0.4824377506400303 -0.13198134275446033
0.6393660731499461 0.4449901329458375 -0.13198134275446033
0.6104220634889205 0.17334245785880906 -0.13198134275446033
-0.12457201041121942 0.211784112248431 -0.13198134275446033
-0.007751815574439167 0.24134626237552184 -0.13164721277280347
0.3002993210141044 0.1313256126654587 -0.13164721277280347
0.3492577165763761 0.26983084331176926 -0.13164721277280347
0.3181418620345808 0.13254518709850624 -0.13031069284617602
0.09987980476677742 -0.10180522878607502 -0.13031069284617602
0.34221592721295774 0.5559379933549985 -0.13031069284617602
0.601433966982351 0.1459772123611121 -0.13031069284617602
-0.17911037666716062 0.24350975400675004 -0.13031069284617602
-0.08258022496649331 0.28138338742755536 -0.13031069284617602
0.28318351270373177 0.578717304854455 -0.13031069284617602
0.22328236024219783 0.010303733309343406 -0.12899923266817284
0.31130055066015666 0.41737428996189807 -0.12899923266817284
0.11132375663852485 0.1423268423115109 -0.12899923266817284
0.05076269746321869 0.23155625391297582 -0.12864004293789172
0.017967839763597823 0.34601247912953376 -0.12864004293789172
-0.10851706479260723 0.14189247333535693 -0.12864004293789172
0.014568067200239166 -0.14346288424914422 -0.12864004293789172
0.6015759722245551 0.506745706805567 -0.12864004293789172
0.5520746154420911 0.48638048442358134 -0.12864004293789172
0.4107793994489458 0.1943592337050257 -0.1269693930296074
-0.11379631850278557 0.23390351703411522 -0.1269693930296074
0.609202489055873 0.3946033317119829 -0.1269693930296074
0.6159017951880931 0.38589924568982165 -0.1269693930296074
0.6177729230853716 0.4930714373062599 -0.1269693930296074
0.34626725324054713 0.566429674779024 -0.1269693930296074
-0.1089514337687611 0.13728147958849232 -0.1269693930296074
0.08337378367292847 0.1423268423115109 -0.1263512525635422
0.4103199707241676 0.23034503272946974 -0.1263512525635422
0.23428358988825004 0.15332807195756304 -0.1263512525635422
0.22005800591920913 0.3305172012301968 -0.1252987431213231
0.59414158013269 0.17510499351204897 -0.1252987431213231
-0.030322295835360155 -0.10304986296774685 -0.1252987431213231
0.3063888399298007 0.598673218008911 -0.1252987431213231
0.06332598477351672 -0.14368006873722125 -0.1252987431213231
0.3207313693924215 0.5707566580414803 -0.1252987431213231
0.6367013865462328 0.44488989395134043 -0.1252987431213231
0.2122811305961457 -6.974963367087053E-4 -0.12362809321303878
0.23428358988825004 0.4063730603158458 -0.12362809321303878
0.11327006378167612 0.1410070288839663 -0.12362809321303878
0.07601457082693609 0.2473689552948868 -0.12362809321303878
-0.09274612965840331 0.2629394124400965 -0.12362809321303878
-0.1204789181359229 0.16625890224768358 -0.12362809321303878
0.05106341444670987 -0.14475763792806456 -0.12362809321303878
0.32790681074850264 0.6112365053192091 -0.12362809321303878
0.5987943401272617 0.16687704271374876 -0.12362809321303878
0.3275810340163872 0.13419913050770776 -0.12195744330475447
0.053711394551340566 0.22382114483761947 -0.12195744330475447
0.14751003365196305 -0.09016915217487481 -0.12195744330475447
0.5831654102352621 0.4675689664563 -0.12195744330475447
0.643918594150021 0.43386360455666406 -0.12195744330475447
-0.1758191963478406 0.13295449632603595 -0.12195744330475447
0.6016093852227209 0.17492957527167924 -0.12195744330475447
0.06251571956799888 0.17533888449920884 -0.12104693910473954
0.4543248893083763 0.18634011414526105 -0.12104693910473954
0.3883175114320631 0.1581980164402119 -0.12104693910473954
0.40477341302866354 0.19086757539671143 -0.12028679339647018
0.14228925268857456 -0.0968016323107635 -0.12028679339647018
-0.1760029678377518 0.2416553326085545 -0.12028679339647018
0.6179483413257414 0.4929962580603872 -0.12028679339647018
-0.0318592937509817 -0.11444369534224587 -0.12028679339647018
0.20939090625481382 0.5274199994205855 -0.12028679339647018
0.6118838821586693 0.4947420872145444 -0.12028679339647018
0.16223681259348927 0.03925609621991053 -0.11861614348818587
0.014116991725002385 0.35114972759750807 -0.11861614348818587
-0.12409587518735836 0.17708471365336595 -0.11861614348818587
0.05179850040635504 -0.14570990837578665 -0.11861614348818587
0.3439283433689491 0.6130658669687804 -0.11861614348818587
0.5145267587534013 0.5105798483450795 -0.11861614348818587
0.19027867130404136 0.2963607638553241 -0.11839895900010891
0.19027867130404136 0.10932315337335434 -0.11839895900010891
0.3326681629871129 0.2963607638553241 -0.11839895900010891
0.29603081049843805 0.3766438451979266 -0.11694549357990157
-0.10150033517781311 0.26067568181437123 -0.11694549357990157
0.613621358063285 0.3972346053175307 -0.11694549357990157
0.5774684940480125 0.12816808433880134 -0.11694549357990157
0.34382810437445205 0.6105849518549783 -0.11694549357990157
0.024842564136187694 -0.07562614472325992 -0.11694549357990157
0.3980490471478194 0.5817328279389081 -0.11694549357990157
0.07761004148934762 0.10932315337335434 -0.11575097889547828
0.38068264135120394 0.15332807195756304 -0.11575097889547828
0.41558251793526313 0.17533888449920884 -0.11575097889547828
0.2882789949239989 0.3736366753630147 -0.11527484367161724
0.13387753040036304 -0.10128732731450692 -0.11527484367161724
-0.00529596020926126 0.33390026729447253 -0.11527484367161724
0.6280891862690271 0.48600458819421727 -0.11527484367161724
-0.20614149218320077 0.1699259787963677 -0.11527484367161724
-0.09791679112454325 0.27418288632284993 -0.11527484367161724
0.2978016994012194 0.5660203655514943 -0.11527484367161724
0.05058727922284883 0.2315980201606829 -0.11360419376333293
0.6166953538945281 0.41054133183701513 -0.11360419376333293
0.03789869316942958 -0.145459310889544 -0.11360419376333293
-0.1994588925500635 0.21818270139715995 -0.11360419376333293
0.6160939199275457 0.1454426043904612 -0.11360419376333293
0.36223031311420373 0.5696456758524712 -0.11360419376333293
0.20136343344550772 0.5007647801339093 -0.11360419376333293
0.34677680146257395 0.31836322314742843 -0.11310299879084766
0.13873076838392898 0.05431700514309355 -0.11310299879084766
0.22328236024219783 0.23034503272946974 -0.11310299879084766
0.1665303828577799 0.032047241865663746 -0.11193354385504864
0.5705352969286328 0.47920504306750017 -0.11193354385504864
0.10197647040167415 -0.1088136051513277 -0.11193354385504864
-0.19927512106015224 0.1578388267099307 -0.11193354385504864
0.6511274485042677 0.42905213282080534 -0.11193354385504864
0.35511334450491255 0.6013462578621661 -0.11193354385504864
-0.06250736631845731 0.058643988405549914 -0.11193354385504864
0.36630669889041745 0.3293644527934807 -0.11151588137797755
0.14627375271983267 -6.974963367087053E-4 -0.11151588137797755
0.2782968617220001 0.15332807195756304 -0.11151588137797755
0.2894818628579635 0.3739039793483403 -0.11026289394676433
0.13400282914348438 -0.10232313025764314 -0.11026289394676433
-0.18555908531313808 0.23628419315342045 -0.11026289394676433
0.6125604953715243 0.5034545264862469 -0.11026289394676433
-0.1972035151738797 0.1464282878363489 -0.11026289394676433
0.04164930221352784 0.38244100037967305 -0.11026289394676433
0.3229867467686054 0.6014548501062046 -0.11026289394676433
0.2782968617220001 0.43938510250354373 -0.10984523146969324
0.3883175114320631 0.10932315337335434 -0.10984523146969324
0.058255562301873856 0.1313256126654587 -0.10984523146969324
0.5982346724079864 0.16457154584031644 -0.10859224403848003
0.032711325204206845 -0.07246861639660257 -0.10859224403848003
0.32025523416856044 0.6098415126457918 -0.10859224403848003
0.059625495226667 -0.1457600278730352 -0.10859224403848003
-0.030238763339945896 0.3292475072999007 -0.10859224403848003
0.6357574693480521 0.4684293511590665 -0.10859224403848003
0.05052880647605895 0.23160637341022436 -0.10859224403848003
0.21078589892823124 0.324060139334678 -0.10859224403848003
0.04725433265582175 0.17401071782212274 -0.10817458156140895
0.22328236024219783 0.09700211029975762 -0.10817458156140895
0.3119771638730117 0.3293644527934807 -0.10817458156140895
0.3693055154757878 0.5644416013881657 -0.1069215941301957
0.5470710189667795 0.10868830640820636 -0.1069215941301957
0.5942501723767285 0.46750214045996874 -0.1069215941301957
0.62117269564873 0.1561097040548565 -0.1069215941301957
0.6181154063165699 0.23890711350942676 -0.1069215941301957
-0.10815787506232605 0.26640601099978645 -0.1069215941301957
0.0846184178546003 0.1320272856269381 -0.1069215941301957
0.3228363882768598 0.1267480319167598 -0.1069215941301957
0.29826948137553905 0.3953718306697936 -0.10650393165312465
0.2122811305961457 0.10932315337335434 -0.10650393165312465
0.14627375271983267 0.09832192372730224 -0.10650393165312465
0.5726737288112367 0.48177784392625794 -0.10525094422191139
0.33442234539081145 2.2971436238912086E-4 -0.10525094422191139
-0.19983478877942748 0.16516462655775735 -0.10525094422191139
0.6269280845827694 0.15955124286592212 -0.10525094422191139
0.205966073942831 0.5308531849821095 -0.10525094422191139
0.6456644233041782 0.44854026400094177 -0.10525094422191139
0.11543355541290429 0.10695918375313215 -0.10525094422191139
0.41103835018472973 0.1943007609582357 -0.10525094422191139
0.03625310300976951 0.2764716766971994 -0.10483328174484031
0.16178573711825248 -0.022699955628813048 -0.10483328174484031
0.3399104303395254 0.3293644527934807 -0.10483328174484031
0.2122811305961457 0.24346798775904296 -0.10483328174484031
0.6031714428869666 0.19706568655644624 -0.1035802943136271
0.5741522539800683 0.11878738510378503 -0.1035802943136271
0.34117177102028 0.616900008508293 -0.1035802943136271
0.13557324005727164 -0.11307376241745272 -0.1035802943136271
0.6113075079403113 0.18547972944249458 -0.1035802943136271
0.12103858585519821 0.10435296989620854 -0.1035802943136271
0.1066041706476217 0.11197113347798503 -0.1035802943136271
0.321950943825469 0.1223291629093477 -0.1035802943136271
0.03625310300976951 0.2764716766971994 -0.10316263183655601
0.333303009952261 0.08732069408125012 -0.10316263183655601
0.333303009952261 0.28535118095973055 -0.10316263183655601
0.6203707836927536 0.4196296673380817 -0.1019096444053428
0.08170313376464414 -0.10148780530350103 -0.1019096444053428
0.5680042623175818 0.4901561532163039 -0.1019096444053428
0.6208385656670732 0.15144859081074322 -0.1019096444053428
0.6436011706674469 0.4520235690597146 -0.1019096444053428
-0.03358006315651456 -0.1000593996319179 -0.1019096444053428
0.08901222711338799 0.11774322891110733 -0.1019096444053428
0.29481958931493196 0.37823096261079664 -0.1019096444053428
0.22052578789352872 0.33106016245038916 -0.1019096444053428
0.04151565022086505 0.2083425734373654 -0.1014919819282717
0.22328236024219783 0.09832192372730224 -0.1014919819282717
0.3883175114320631 0.2963607638553241 -0.1014919819282717
-0.08402533713715926 0.2849502249817423 -0.10023899449705849
0.6505427210363681 0.4453159096779531 -0.10023899449705849
0.5754637141580713 0.11862032011295663 -0.10023899449705849
0.6053683475163605 0.5200774930736758 -0.10023899449705849
0.3409462332826616 0.6127066772384993 -0.10023899449705849
-0.0047028794918203476 -0.13373134853338817 -0.10023899449705849
0.0794561096380017 0.1578805929576378 -0.10023899449705849
0.36897138549413083 0.2613188820290608 -0.10023899449705849
0.3555644199801493 0.30722834150871353 -0.10023899449705849
0.3993187410781153 0.28535118095973055 -0.0998213320199874
0.23998050607549945 0.08732069408125012 -0.0998213320199874
