0.6492306500615301 0.15901935027372055 -0.22983665651169383
0.6720450561594545 0.19276436015225928 -0.22983665651169383
0.13004033307866086 0.4060403056385562 -0.22939123663473318
0.36956932611301835 0.027558127787555283 -0.22939123663473318
0.3622288065407069 0.01938021884655775 -0.22867856483159615
0.20713360538300962 0.5539375215845694 -0.22867856483159615
0.49490157109220534 0.2639513648881099 -0.22867856483159615
0.24440634068707653 0.17008358001742307 -0.22867856483159615
0.11943934000699749 0.22875428621067947 -0.22867856483159615
0.034791746589396044 0.39003191526059056 -0.22867856483159615
0.12441022583387824 0.5276577488438914 -0.22805497700385124
0.22362304922809276 0.5258582525409704 -0.22805497700385124
0.25313657027550523 0.46447048509825384 -0.22805497700385124
0.16719725921471798 0.35861199713978653 -0.22805497700385124
0.061312046063633004 0.41722925294780766 -0.22805497700385124
0.033704922089612066 0.3415969578398898 -0.22805497700385124
-0.055022717400948766 0.2672474719776186 -0.22805497700385124
0.5117384424413177 0.004039958284033116 -0.22805497700385124
0.4928971816458822 -0.0363328993636799 -0.22805497700385124
0.43927753685735976 -0.003585630009533239 -0.22805497700385124
0.3506657065348085 0.04280039597714861 -0.22805497700385124
0.39731007605012747 0.2877902367030437 -0.22805497700385124
0.38335952550372 0.36580107395393135 -0.22805497700385124
0.4321686356210678 0.2856076793059365 -0.22805497700385124
0.4075369164251439 0.19622081839747382 -0.22805497700385124
0.19639007795071878 0.19057289435761282 -0.22805497700385124
0.21449194175039957 0.1300046994885041 -0.22805497700385124
0.23189895054202161 0.011157767917864188 -0.22805497700385124
0.2474262874528697 -0.08957839145555568 -0.22805497700385124
0.07699082573264782 0.031771799823602995 -0.22805497700385124
0.04826124366868601 0.12881097421824955 -0.22805497700385124
0.05766851147009498 0.15416427361484963 -0.22805497700385124
0.14988824279602725 0.24725702789962475 -0.22805497700385124
0.4247301236758249 0.45625694256709953 -0.22805497700385124
0.47331652385469236 0.5180366795015413 -0.22805497700385124
0.404151725360243 0.5459199637992778 -0.22805497700385124
0.36496368458524525 0.6050182730744166 -0.22805497700385124
0.5782218132764638 0.4570854235382465 -0.22805497700385124
0.6140424797816392 0.38711886926526795 -0.22805497700385124
0.5932057379374202 0.37582302118554595 -0.22805497700385124
0.5267045503071954 0.2538314252835639 -0.22805497700385124
0.46943246252759546 0.1343341806925615 -0.22805497700385124
0.5605030105709695 0.13979502838409902 -0.22805497700385124
0.6800358887521285 0.20014942171226674 -0.22805497700385124
0.4432774073524662 0.36750257788392104 -0.2276095571268906
0.32862633102279576 0.10623709485388391 -0.22689688532375357
0.10670923992346218 0.5292256268107928 -0.22689688532375357
0.14290405912528437 0.33746346138169503 -0.22689688532375357
0.04501858696441259 0.10137310979747371 -0.22689688532375357
0.43784328485354645 0.16080993817910244 -0.22689688532375357
0.5666498048730264 0.35457649305452316 -0.22689688532375357
0.5141526181744445 0.0012516298542594444 -0.22627329749600866
0.5021619150866639 -0.012520752741363819 -0.22627329749600866
0.43743349856674246 -0.009322638024786294 -0.22627329749600866
0.37285652480498804 0.09341791079495655 -0.22627329749600866
0.3232991092943464 0.18219900067075268 -0.22627329749600866
0.45784263732907954 0.30314831406064674 -0.22627329749600866
0.43900137653364407 0.17664016060628385 -0.22627329749600866
0.2992375275409322 0.11714988183941985 -0.22627329749600866
0.40773290117100663 0.24181399700316572 -0.22627329749600866
0.24021939384364646 0.10675378191115834 -0.22627329749600866
0.17623037431948 0.027798654521114043 -0.22627329749600866
0.2500453563293984 -0.05353501501190019 -0.22627329749600866
0.2785522284548797 -0.11159104177495088 -0.22627329749600866
0.059583816941025665 0.061142786510388035 -0.22627329749600866
0.05985997726474132 0.12384899678890793 -0.22627329749600866
0.07606435238856968 0.1491666625953511 -0.22627329749600866
0.15229351013161482 0.24457560024032163 -0.22627329749600866
0.005331675927218957 0.3387819042174985 -0.22627329749600866
-0.005394034709993492 0.3344435146159018 -0.22627329749600866
0.05810502294951635 0.35730246270152227 -0.22627329749600866
0.11504750002016542 0.3856935256589939 -0.22627329749600866
0.31294755135378094 0.4413264682913787 -0.22627329749600866
0.2549449749759655 0.542704032287622 -0.22627329749600866
0.09533321626588724 0.5202815956814231 -0.22627329749600866
0.056207534273664046 0.5281120771183911 -0.22627329749600866
0.3868872509292483 0.6065950594388572 -0.22627329749600866
0.38198763228268123 0.5854821572709225 -0.22627329749600866
0.4434912088934073 0.4279995055727161 -0.22627329749600866
0.4128730465511325 0.35617109621404214 -0.22627329749600866
0.6234675643781263 0.4730314551334376 -0.22627329749600866
0.5635407741318409 0.3598324476026587 -0.22627329749600866
0.4955697009076462 0.28553641212562286 -0.22627329749600866
0.4260218413190108 0.1682306333292668 -0.22627329749600866
0.48420258564761043 0.16877404557915873 -0.22627329749600866
0.6283760914222328 0.1460309066615481 -0.22627329749600866
0.682556965255726 0.22786344645675824 -0.22627329749600866
0.3275216897279333 0.42029374170129685 -0.22582787761904802
0.3904684267400119 -9.309275428477664E-4 -0.22511520581591096
0.5304906192613609 0.31088080312468364 -0.22511520581591096
0.4336741548051946 0.3611241652458447 -0.22511520581591096
0.3153082767016724 0.38473141872475886 -0.22511520581591096
0.02557155513631068 0.1506009145991644 -0.22511520581591096
0.24488739415419405 0.35781024136125744 -0.22511520581591096
0.4867682041389038 -0.0019197596697003137 -0.22449161798816608
0.5130301600845036 -0.00556329426323846 -0.22449161798816608
0.4366941015709878 0.02282776869423316 -0.22449161798816608
0.35653634051314986 0.0968743690401711 -0.22449161798816608
0.23849116472103912 0.2797994041103697 -0.22449161798816608
0.3744244027718894 0.1421023033467552 -0.22449161798816608
0.23416168351698174 0.1992229483681886 -0.22449161798816608
0.19408280298806263 0.3634314402085008 -0.22449161798816608
0.4126325198175737 0.38430381564287663 -0.22449161798816608
0.2262153929120037 0.1651126941905423 -0.22449161798816608
0.1598300144497889 0.10488301842792354 -0.22449161798816608
0.21973007950345674 -0.009750241106668531 -0.22449161798816608
0.2544104711236127 -0.10001012497397409 -0.22449161798816608
0.0788081388306472 0.006186882090983432 -0.22449161798816608
0.0031134849399548506 0.11266895787719573 -0.22449161798816608
0.06980174891850296 0.1499327847837234 -0.22449161798816608
0.13637420372904124 0.2222689728021325 -0.22449161798816608
-0.017714348506724948 0.27135424324319574 -0.22449161798816608
0.004307210210209388 0.3079588487318218 -0.22449161798816608
0.05806938935935945 0.41525158869410256 -0.22449161798816608
0.13250795919702285 0.42059662721763025 -0.22449161798816608
0.30678294025664565 0.454849415755904 -0.22449161798816608
0.2468828752029778 0.5025984265660852 -0.22449161798816608
0.11217899601253896 0.5213862369762854 -0.22449161798816608
0.17127730528767762 0.5452340171887584 -0.22449161798816608
0.4330683837725283 0.5753087672811413 -0.22449161798816608
0.3832437163357103 0.5777585766044249 -0.22449161798816608
0.45685380520222674 0.4785724784028279 -0.22449161798816608
0.4229217189753647 0.3974526104107549 -0.22449161798816608
0.613659418687453 0.4874452423518841 -0.22449161798816608
0.6349415804086328 0.4245252305324232 -0.22449161798816608
0.618853014452814 0.346247141355359 -0.22449161798816608
0.5064290375079468 0.2758084420128022 -0.22449161798816608
0.4737975773218099 0.19020765005850512 -0.22449161798816608
0.5894463941758723 0.1630993963466802 -0.22449161798816608
0.6419613976695324 0.14704646398101842 -0.22449161798816608
0.6876169350579987 0.24666016526449755 -0.22449161798816608
0.31742847531600504 0.10997862182035337 -0.22404619811120544
0.23964034800359765 0.3632176386675597 -0.22333352630806838
0.23912366094632337 -0.07631378751966757 -0.22333352630806838
0.48782830344607014 0.3460778818021139 -0.22333352630806838
0.4355805518785862 0.1428684255351276 -0.22333352630806838
0.5610553312184006 0.015852493421029415 -0.22270993848032347
0.4762562950426325 -0.048430503221931105 -0.22270993848032347
0.3952878698087261 -0.027985730869437394 -0.22270993848032347
0.33639445367698945 0.026364402517300746 -0.22270993848032347
0.32843925467447227 0.35249192803034723 -0.22270993848032347
0.17658671022104844 0.3022396575116471 -0.22270993848032347
0.33688441554164605 0.36752039467899944 -0.22270993848032347
0.4660650882577728 0.2254047287359355 -0.22270993848032347
0.25133707397258426 0.1772281148438719 -0.22270993848032347
0.24390747042488065 0.38906089992881626 -0.22270993848032347
0.2167368579302812 0.09201038398376091 -0.22270993848032347
0.19424315414376847 0.015513974314539354 -0.22270993848032347
0.1867779170059081 -0.0157723178431765 -0.22270993848032347
0.2455466155720958 -0.014917111679412022 -0.22270993848032347
0.0659444127840237 0.012351493188118725 -0.22270993848032347
0.020796654055292532 0.06867929082856221 -0.22270993848032347
0.04293402194023668 0.155937044725153 -0.22270993848032347
0.13417382953685567 0.23910584415124497 -0.22270993848032347
-0.044956228181638185 0.270988998944088 -0.22270993848032347
0.019344585256400853 0.3830210063972299 -0.22270993848032347
0.09005944492267319 0.40972838221979047 -0.22270993848032347
0.14313567746130387 0.42417780302839375 -0.22270993848032347
0.2879594962562887 0.45354878971517876 -0.22270993848032347
0.253377097009064 0.5204597636322071 -0.22270993848032347
0.26136792960173805 0.5399157038578485 -0.22270993848032347
0.18274241292064458 0.5132528700229839 -0.22270993848032347
0.36372541732729474 0.6053478837833675 -0.22270993848032347
0.4408454148242611 0.5732598358471224 -0.22270993848032347
0.41606225287017073 0.5189275192554625 -0.22270993848032347
0.44678731598291616 0.4019780763606752 -0.22270993848032347
0.5872727451763043 0.4008288930781168 -0.22270993848032347
0.5887960811555096 0.4414779110495453 -0.22270993848032347
0.5686274691267315 0.38252213613503416 -0.22270993848032347
0.5462762997008463 0.3291786516702269 -0.22270993848032347
0.45235506444492424 0.1322050736806897 -0.22270993848032347
0.5910320889378522 0.12586229463277004 -0.22270993848032347
0.646077077332649 0.22594814098582744 -0.22270993848032347
0.687296232746587 0.25295840232472105 -0.22270993848032347
0.40103378622151853 0.3564027145500618 -0.2215518468002258
0.39828109138190176 0.5710861868475544 -0.2215518468002258
0.011781355745609033 0.34332518696249714 -0.2215518468002258
0.22606395015383712 0.19074215391085791 -0.2215518468002258
0.47903571507486703 -0.029428891270789945 -0.2209282589724809
0.43200828446536194 0.013981729937794755 -0.2209282589724809
0.40272638175396896 -0.005465301890307156 -0.2209282589724809
0.3488216682441915 0.09427311695872091 -0.2209282589724809
0.29252950419390483 0.1865462986698886 -0.2209282589724809
0.4184675202057582 0.3359044918123328 -0.2209282589724809
0.42489047483153075 0.2426870199620086 -0.2209282589724809
0.2895451910182686 0.10891852251318702 -0.2209282589724809
0.26982199886645114 0.39258862535434474 -0.2209282589724809
0.44064052168085927 0.3717607919076648 -0.2209282589724809
0.3784064564719176 0.38430381564287663 -0.2209282589724809
0.1616116939576315 0.08141829930963665 -0.2209282589724809
0.1841766649244579 0.03274281515537716 -0.2209282589724809
0.29468533639839445 -0.0699621000742088 -0.2209282589724809
0.3101770397190858 -0.1087225377673243 -0.2209282589724809
0.021589501436282472 0.09758704084330812 -0.2209282589724809
0.009732424311590148 0.12576430225983876 -0.2209282589724809
0.08809959746404636 0.24373821087163566 -0.2209282589724809
0.1885061461285154 0.26575976958857 -0.2209282589724809
0.0247519825627031 0.38153330400818136 -0.2209282589724809
0.08396610100585157 0.36303947071677534 -0.2209282589724809
0.17259574812348108 0.36837560084276394 -0.2209282589724809
0.26479766265433496 0.4776014630710539 -0.2209282589724809
0.23504361487336373 0.5520400329087172 -0.2209282589724809
0.1865552070674277 0.5289138328969203 -0.2209282589724809
0.23495453089797166 0.5328424362117132 -0.2209282589724809
0.4285161926299904 0.5270519778112248 -0.2209282589724809
0.41502887875562205 0.6000117536573788 -0.2209282589724809
0.41677492467330773 0.4952222734036169 -0.2209282589724809
0.41445874131311233 0.4351974907844001 -0.2209282589724809
0.5999583032721434 0.4379501856240169 -0.2209282589724809
0.5765470345390918 0.32437702539659125 -0.2209282589724809
0.5573227126494702 0.29872084048365793 -0.2209282589724809
0.47130322601083025 0.12008074462982085 -0.2209282589724809
0.5057698160900451 0.1675001447310514 -0.2209282589724809
0.6594663988340859 0.1637318925719643 -0.2209282589724809
0.5749791565721905 0.16858696923083538 -0.2209282589724809
0.5984973260757125 0.5084067017616523 -0.22048283909552024
0.05564630522869361 0.048279060463764525 -0.21977016729238322
0.21785040762268282 0.34508014127772213 -0.21977016729238322
0.6122251666836397 0.37375627295644853 -0.21977016729238322
0.39251735817403094 -0.005910721767267778 -0.21977016729238322
0.5822751341568058 0.349596698830103 -0.2191465794646383
0.576849920055425 0.3228893230075427 -0.2191465794646383
0.5502494450033353 0.31384729950524154 -0.2191465794646383
0.49543607494455816 0.11183156850850964 -0.2191465794646383
0.614122655359492 0.18534366500209493 -0.2191465794646383
0.5756740115802489 0.17556224450403898 -0.2191465794646383
0.6845880798946663 0.2111512926731947 -0.2191465794646383
0.5388199709605249 -0.03382073125762188 -0.2191465794646383
0.4520789041212086 0.01823103556399936 -0.2191465794646383
0.3710926620922238 0.04262222802636439 -0.2191465794646383
0.27723378561907625 0.3427817747126051 -0.2191465794646383
0.29741130604539356 0.15202625820543844 -0.2191465794646383
0.21360110199647822 0.37780068543925127 -0.2191465794646383
0.4133451916207107 0.20006924613441382 -0.2191465794646383
0.2167546747253596 0.2799686636636148 -0.2191465794646383
0.2659468459368935 0.3900764572482866 -0.2191465794646383
0.15428008278285932 0.2548647993981126 -0.2191465794646383
0.3358866750172543 0.36370760053221635 -0.2191465794646383
0.20327626924853048 0.05536123650743883 -0.2191465794646383
0.22234023998244618 0.011193401508021082 -0.2191465794646383
0.2172357281924771 -0.051503900372959564 -0.2191465794646383
0.022765409911458624 0.0412503348053255 -0.2191465794646383
0.05317867911033162 0.12892678338625924 -0.2191465794646383
0.02061848610450831 0.18876448965715267 -0.2191465794646383
0.07458555839706024 0.2472481195020856 -0.2191465794646383
-0.04555309081676539 0.3227200634542976 -0.2191465794646383
0.04211444936662911 0.3589950582339727 -0.2191465794646383
0.12466856936251539 0.37692766248040827 -0.2191465794646383
0.22905717172701265 0.3533827677842686 -0.2191465794646383
0.22489695007620022 0.5512917275154232 -0.2191465794646383
0.2388653174176861 0.5002198844231154 -0.2191465794646383
0.42008884855789497 0.4319192004899698 -0.2191465794646383
0.44435532345471107 0.4430101554262899 -0.2191465794646383
0.4583593243863538 0.48724925760602145 -0.2191465794646383
0.3484653323426229 0.5951566769985078 -0.2191465794646383
0.10742191172659919 0.536013825735673 -0.2191465794646383
0.0830752612519302 0.38128386887708343 -0.21798848778454064
0.20436309374831446 0.02795900567681988 -0.21798848778454064
0.3660326922899509 0.01755399735101911 -0.21798848778454064
0.42935358199867646 0.42821330711365724 -0.21798848778454064
0.5334392988468405 -0.03400780760594536 -0.21736489995679573
0.4724880428835454 -0.04540164805859868 -0.21736489995679573
0.3695247841253223 0.04092963249391382 -0.21736489995679573
0.31705432261935806 0.17509009943446072 -0.21736489995679573
0.3035046499622152 0.15416427361484963 -0.21736489995679573
0.33992217910251776 0.37528851733319313 -0.21736489995679573
0.3864774646424446 0.16977178610355065 -0.21736489995679573
0.2183492778848787 0.2718085715176956 -0.21736489995679573
0.35588602749278736 0.41575936735383756 -0.21736489995679573
0.23694110354921616 0.40086452666827355 -0.21736489995679573
0.3880809761995028 0.19476874959858215 -0.21736489995679573
0.5054402053810941 0.17448432840179426 -0.21736489995679573
0.5646632322217818 0.16594117516168902 -0.21736489995679573
0.6318325496674473 0.19308506246367096 -0.21736489995679573
0.59252869972444 0.5104645415932103 -0.21736489995679573
0.6051162654473478 0.3364657208573032 -0.21736489995679573
0.586257187856834 0.4284271086545983 -0.21736489995679573
0.5631488046401157 0.27935398423340907 -0.21736489995679573
0.4165165811446706 0.429211047638049 -0.21736489995679573
0.40963038984685907 0.5466682691925717 -0.21736489995679573
0.47587323394844655 0.49476794512911715 -0.21736489995679573
0.34319156099940884 0.6259886408817237 -0.21736489995679573
0.22936896564088508 0.5021530066891248 -0.21736489995679573
0.20265268142078552 0.5195511070832076 -0.21736489995679573
0.2646818534863253 0.4783497684643478 -0.21736489995679573
0.13223179887330722 0.40560379415913467 -0.21736489995679573
0.007540958516943681 0.35312442425563134 -0.21736489995679573
-0.016903684330656626 0.35852291316439444 -0.21736489995679573
-0.03853327355586562 0.3246264605276892 -0.21736489995679573
0.0623097865880248 0.054764373872311624 -0.21736489995679573
0.005786004201718708 0.1016225449285716 -0.21736489995679573
0.10624600325142304 0.25688700563951394 -0.21736489995679573
0.174430878016559 0.2709266401613136 -0.21736489995679573
0.19781542155699294 0.05576211439670342 -0.21736489995679573
0.18492497031775182 -0.010266928163942944 -0.21736489995679573
0.255550746008632 -0.0819082611742933 -0.21736489995679573
0.5586589722803522 0.15285473917658526 -0.21620680827669803
0.40856138214215343 0.016306821695529293 -0.21620680827669803
0.5892593178275487 0.4178617491730917 -0.21620680827669803
0.13787972291316822 0.38143531163525 -0.21620680827669803
0.3099097877929094 -0.10263810224804192 -0.21558322044895312
0.214803735664272 -0.006204698886061816 -0.21558322044895312
0.22737348459210147 -0.04613213665681421 -0.21558322044895312
0.22680334714959177 0.06754792434108209 -0.21558322044895312
0.29849813054517754 0.34447437024505567 -0.21558322044895312
0.21317349891459597 0.2791669078850856 -0.21558322044895312
0.42373238315143313 0.2767794573445765 -0.21558322044895312
0.39611635077987295 0.1989913300321691 -0.21558322044895312
0.1916597188573968 0.331815537341834 -0.21558322044895312
0.46900485944571324 0.30313049726556834 -0.21558322044895312
0.27336754108705785 0.41081520671957433 -0.21558322044895312
0.3679747229534993 0.07069258867242433 -0.21558322044895312
0.48086193657040555 -0.014810210908941463 -0.21558322044895312
0.44525507160617156 -0.032261761688259644 -0.21558322044895312
0.5040950373526729 -0.027397776631849318 -0.21558322044895312
0.6618627577721342 0.18908519196856424 -0.21558322044895312
0.5752107749082098 0.16323302230976827 -0.21558322044895312
0.6371152294082008 0.1956061389672681 -0.21558322044895312
0.5300541077819396 0.27410693808281267 -0.21558322044895312
0.5412697802838086 0.3511200348093085 -0.21558322044895312
0.5798075080384437 0.41617806203818053 -0.21558322044895312
0.5912458904787933 0.4818418602997192 -0.21558322044895312
0.41047668761308426 0.5469087959261305 -0.21558322044895312
0.45874238548054 0.4899217768677852 -0.21558322044895312
0.4800067304066413 0.4403910865497612 -0.21558322044895312
0.10946193476307896 0.2579114713565234 -0.21558322044895312
0.035023364925415676 0.10889179732056939 -0.21558322044895312
0.03781169335518922 0.19846573457735556 -0.21558322044895312
0.059672900916417845 0.023112837415487943 -0.21558322044895312
0.1529972735372126 0.36507058535571596 -0.21558322044895312
0.02575863148463416 0.38808988459704225 -0.21558322044895312
0.16317066352699375 0.3650082265729414 -0.21558322044895312
0.2885029085061806 0.5038723274141926 -0.21558322044895312
0.15836012885581882 0.5731974770643479 -0.21558322044895312
0.2521299213535742 0.5467484447704247 -0.21558322044895312
0.0850262003130179 0.5311052986915668 -0.21558322044895312
0.17523263379508805 0.18181593957656658 -0.21442512876885544
0.2440945467732041 0.5324415583224485 -0.21442512876885544
0.31889836090997525 0.09185003282805507 -0.21442512876885544
0.42683250549507923 0.17008358001742307 -0.21442512876885544
0.5887604475653528 0.5088788468312304 -0.21380154094111056
0.5846982182874716 0.4111002754408292 -0.21380154094111056
0.5464277424590129 0.3312186747067068 -0.21380154094111056
0.41492197798515146 0.16478308348159137 -0.21380154094111056
0.571825583843309 0.11290057621321524 -0.21380154094111056
0.6318058244748298 0.14767005180876328 -0.21380154094111056
0.5549976208917357 -0.006454134017159704 -0.21380154094111056
0.5094400758762007 -0.013277966532196863 -0.21380154094111056
0.3619081042292952 0.07703536772034397 -0.21380154094111056
0.280610068286438 0.34385969081484996 -0.21380154094111056
0.3066047723058613 0.1593845945728284 -0.21380154094111056
0.4238303755243644 0.3411159043727723 -0.21380154094111056
0.22658063721111152 0.19695130699568936 -0.21380154094111056
0.43474316250990025 0.23772504253266696 -0.21380154094111056
0.15951822053591647 0.2512658067922706 -0.21380154094111056
0.2874160840063966 0.10622818645634478 -0.21380154094111056
0.2193381100117314 0.24754209662087967 -0.21380154094111056
0.19639898634825803 0.06940977942677762 -0.21380154094111056
0.16229764056815088 0.0784785281216964 -0.21380154094111056
0.22858502665743438 -0.01724220343714656 -0.21380154094111056
0.04863539636533297 0.049356976566009375 -0.21380154094111056
0.10334186565363969 0.20597551370291198 -0.21380154094111056
0.07675029899908907 0.17354003826263775 -0.21380154094111056
0.18073802347432175 0.2583301660408665 -0.21380154094111056
-0.011033050352315244 0.3216688725446705 -0.21380154094111056
0.05638570222444827 0.4100223593385844 -0.21380154094111056
0.31260903224729086 0.46745479827389025 -0.21380154094111056
0.3157893301687899 0.4532815377890024 -0.21380154094111056
0.43814617036987963 0.4617177902586371 -0.21380154094111056
0.4514909498836205 0.39931446549645044 -0.21380154094111056
0.40831194701105544 0.5519064069456289 -0.21380154094111056
0.12270872190388855 0.5580442928501468 -0.21380154094111056
0.06989974129143427 0.5303035429130376 -0.21380154094111056
0.4332376433257734 0.1348865013399928 -0.21264344926101286
0.3330092626120884 0.1231541417808493 -0.21264344926101286
0.3077539555884198 0.40599576365086015 -0.21264344926101286
0.07799747465457887 0.37498563181685995 -0.21264344926101286
0.24889617304683992 -0.04573125876754961 -0.21201986143326795
0.03116602879093641 0.13763028778207032 -0.21201986143326795
0.24250885201122424 0.21850072064304543 -0.21201986143326795
0.24933268452626128 0.16174531992071983 -0.21201986143326795
0.42795496358501994 0.24465577581817455 -0.21201986143326795
0.3382919423528417 0.38043757111085824 -0.21201986143326795
0.4714101267813008 0.12468638615759389 -0.21201986143326795
0.5101438392817985 0.1584135792410541 -0.21201986143326795
0.2578758377663665 0.48660785298319814 -0.21201986143326795
0.4676775082123705 0.45559772114919794 -0.21201986143326795
0.19679986423752263 0.1608188465766417 -0.21201986143326795
0.4420213232994373 0.1984568261798163 -0.21201986143326795
0.19071542871824015 0.36589906632686264 -0.21201986143326795
0.10943520957046131 0.3771236472262711 -0.21201986143326795
0.4280707727530298 0.39031698398184544 -0.21201986143326795
0.6152094798592761 0.35314224105070985 -0.21201986143326795
0.2059220633176767 0.5109455950603279 -0.21201986143326795
0.1459952730713912 0.22751601895272894 -0.21201986143326795
0.04926789259061707 0.20006924613441382 -0.21201986143326795
0.22124450708512294 0.020021623469381102 -0.21201986143326795
0.3499797599242891 0.02379878402600745 -0.21201986143326795
0.3703087231087731 0.09505705594217172 -0.21201986143326795
0.49167673118301003 0.17243539696777527 -0.21201986143326795
0.17945521422867503 0.39384470940737365 -0.21201986143326795
0.47585541715336804 -7.527595920634165E-4 -0.21201986143326795
0.6473598865782957 0.21774350685221225 -0.21201986143326795
0.4573081334767267 0.2691004186657749 -0.21201986143326795
0.5989516543502122 0.45281830111696336 -0.21201986143326795
0.3905842359080217 0.6064257998856121 -0.21201986143326795
0.13122514995137616 0.5452429255862976 -0.21201986143326795
0.01929113487116557 0.3791636702627508 -0.21201986143326795
-0.02838660875870212 0.27905109871707573 -0.21201986143326795
0.21222920877543944 0.5455369027050918 -0.21086176975317028
0.07005118404960085 0.17299662601274568 -0.21086176975317028
0.557064369120833 0.1441868683709311 -0.21086176975317028
0.4615663475004704 0.38128386887708343 -0.21086176975317028
0.4078219851463988 0.5753622176663766 -0.21023818192542537
0.4141469473992399 0.5064379459054861 -0.21023818192542537
0.5995663337804181 0.4568805303948444 -0.21023818192542537
0.5605386441611262 0.36115089043846227 -0.21023818192542537
0.530410443683508 0.14935373894367457 -0.21023818192542537
0.6599919942888994 0.19843010098719868 -0.21023818192542537
0.46523660728662614 -0.039397388117169224 -0.21023818192542537
0.285545320523162 0.18158432124054696 -0.21023818192542537
0.4135500847641127 0.38522138058941563 -0.21023818192542537
0.3282076363384528 0.41736287891089596 -0.21023818192542537
0.13001360788604321 0.22814851517801302 -0.21023818192542537
0.36923080700652827 0.034390868700131576 -0.21023818192542537
0.2991573519630793 0.42274355102458044 -0.21023818192542537
0.38264685370058293 0.1408996696789615 -0.21023818192542537
0.3123595971161929 0.4671697295526353 -0.21023818192542537
0.4810579213162684 0.24609002782198786 -0.21023818192542537
0.17537516815571552 0.3585140047668552 -0.21023818192542537
0.35268791277620987 0.08203297873984237 -0.21023818192542537
0.4848618070655123 0.27766138870095863 -0.21023818192542537
0.10819694231251076 0.1908579630788677 -0.21023818192542537
0.4412284759184473 0.19042145159944623 -0.21023818192542537
0.16926400744381537 0.4135857183542696 -0.21023818192542537
0.5110079538431023 0.32265770467152305 -0.21023818192542537
0.3499797599242891 0.048002900140048994 -0.21023818192542537
0.21328039968506654 -0.06584642041109239 -0.21023818192542537
0.19349484875047468 0.2642809755970607 -0.21023818192542537
0.054889091437860436 0.13394221120083616 -0.21023818192542537
-0.025785356677251927 0.32809182717044294 -0.21023818192542537
0.09478089561845607 0.3813818612500148 -0.21023818192542537
0.21253209429177275 0.5052442206352314 -0.21023818192542537
0.14033844063399095 0.5507394068679919 -0.21023818192542537
0.21309332333674305 0.3665761045398429 -0.2090800902453277
0.2011382538391193 0.13854785272860934 -0.2090800902453277
0.43027114694521523 0.42896161250695114 -0.2090800902453277
0.5079256482945346 -0.01455186738030432 -0.2084565024175828
0.3901922664162964 -0.02188347855507651 -0.2084565024175828
0.2382684547825589 0.24944849369427122 -0.2084565024175828
0.46885341668754665 0.28117129733140844 -0.2084565024175828
0.16623515228048308 0.2782671597336251 -0.2084565024175828
0.501502693668762 0.2970727869389035 -0.2084565024175828
0.28885033601020993 0.10866017898454988 -0.2084565024175828
0.2720490982512544 0.39033480077692373 -0.2084565024175828
0.4432328653647702 0.3232545673066504 -0.2084565024175828
0.47972166168538644 0.16085448016679846 -0.2084565024175828
0.1244547678215744 0.3609727224876779 -0.2084565024175828
0.21714664421708493 0.09937762874869 -0.2084565024175828
0.48526268495477676 0.29246714541113045 -0.2084565024175828
0.16196802985920009 0.37678512811978093 -0.2084565024175828
0.41819135988204265 0.2779909994099094 -0.2084565024175828
0.4326140554980283 0.20498668157605943 -0.2084565024175828
0.2020201851955014 0.3267199339494042 -0.2084565024175828
0.4216834517174141 0.41313139007976984 -0.2084565024175828
0.2079888115467741 0.044350457148971595 -0.2084565024175828
0.21674576632782044 -0.020734295272518122 -0.2084565024175828
0.05507616778618392 0.12336794332179042 -0.2084565024175828
0.05850590083878095 0.14767896020630253 -0.2084565024175828
0.02053831052665539 0.3842147316674846 -0.2084565024175828
0.10852655302146157 0.38025049476253486 -0.2084565024175828
0.23638878290178497 0.5370115662600649 -0.2084565024175828
0.12835664594374957 0.5479243532456006 -0.2084565024175828
0.3958312820586181 0.5622134228984983 -0.2084565024175828
0.5877092566557256 0.48791738742146235 -0.2084565024175828
0.5812328516447179 0.4207302531807183 -0.2084565024175828
0.4873472499789526 0.1362851197536492 -0.2084565024175828
0.6179087243136575 0.1879271002884666 -0.2084565024175828
0.2774475871600174 0.5078187475240641 -0.2072984107374851
0.09179658244281966 0.239399821270039 -0.2072984107374851
0.5640574611891152 0.1531665330904577 -0.2072984107374851
0.2425623023964595 0.2639513648881099 -0.2072984107374851
0.42944266597406855 0.5359425585553592 -0.20667482290974018
0.4661185386430081 0.4899663188554815 -0.20667482290974018
0.582488935697747 0.323281292499268 -0.20667482290974018
0.6451149703984139 0.18992258133725032 -0.20667482290974018
0.5807517981776005 0.11652629401167487 -0.20667482290974018
0.27319828153381276 0.1877934743253784 -0.20667482290974018
0.4678556761631548 0.24567133313764486 -0.20667482290974018
0.4368277275340761 0.3554673328084444 -0.20667482290974018
0.557848308104284 0.2729488464027149 -0.20667482290974018
0.2881643893996906 0.10961337752124567 -0.20667482290974018
0.262579471667071 0.38538173174512147 -0.20667482290974018
0.4080892370725752 0.12977308115248448 -0.20667482290974018
0.4126681534077306 0.44081868963164345 -0.20667482290974018
0.1846131764038794 0.3958134652635398 -0.20667482290974018
0.1647118163012776 0.0962775064050439 -0.20667482290974018
0.4821536542135915 0.2679245101905988 -0.20667482290974018
0.13050356975069988 0.41544757343996513 -0.20667482290974018
0.31798970436097546 0.030168288266544604 -0.20667482290974018
0.23460710339394236 0.13729176867558027 -0.20667482290974018
0.4412552011110648 0.22705278228068979 -0.20667482290974018
0.11254424031164667 0.2702050599606374 -0.20667482290974018
0.3514852791084162 0.4124899854569465 -0.20667482290974018
0.4025660305982631 0.03929048734669866 -0.20667482290974018
0.4619137750044998 -0.0357004031383958 -0.20667482290974018
0.20600223889552963 -0.011193401508021082 -0.20667482290974018
0.1826533289452524 0.041980823403541034 -0.20667482290974018
0.06051919868264306 0.20291102494942279 -0.20667482290974018
0.04953514451679347 0.06690651971825885 -0.20667482290974018
0.10183634646951273 0.39785348830001965 -0.20667482290974018
0.3188181853321223 0.39028135039168843 -0.20667482290974018
0.19173098603771047 0.5352922455349969 -0.20667482290974018
0.1945282228650234 0.07170814599189465 -0.20622940303277956
0.5054936557663294 0.14688611282531258 -0.2055167312296425
0.2269547899077585 0.514508954076013 -0.2055167312296425
0.11847723307276245 0.22875428621067947 -0.2055167312296425
0.39554621333736334 0.5990674635182223 -0.20489314340189763
0.4189040316851797 0.5137339234901014 -0.20489314340189763
0.46204740096758784 0.42322460449169796 -0.20489314340189763
0.5928761272284692 0.3920095795142959 -0.20489314340189763
0.510999045445563 0.31628820043098593 -0.20489314340189763
0.49274573888771567 0.16107719010527882 -0.20489314340189763
0.5440848339061999 0.11944824840453674 -0.20489314340189763
0.5172616489156298 -0.014926020076951277 -0.20489314340189763
0.3848115943026118 -0.005474210287846285 -0.20489314340189763
0.350015393514446 0.08715530732488984 -0.20489314340189763
0.3551466304970326 0.1904927187797599 -0.20489314340189763
0.16607480112477724 0.2961374051972862 -0.20489314340189763
0.44273399510257416 0.36435791355257896 -0.20489314340189763
0.2957721608981784 0.11971550033071314 -0.20489314340189763
0.24728375309224238 0.39957280902508757 -0.20489314340189763
0.39887795401702897 0.15610630427839794 -0.20489314340189763
0.4320171928629012 0.20109371185142327 -0.20489314340189763
0.3695247841253223 0.3749945402143991 -0.20489314340189763
0.1906708867305441 0.348465332342623 -0.20489314340189763
0.2482636768215558 0.14099766205189282 -0.20489314340189763
0.16127317485114143 0.07881704722818646 -0.20489314340189763
0.20946760553828342 -0.009367180012482445 -0.20489314340189763
0.0377315177773363 0.14146089872393194 -0.20489314340189763
0.029990120315760257 0.17651544304073488 -0.20489314340189763
-0.007442966144012504 0.33736546900876374 -0.20489314340189763
0.10571149939907025 0.38147094522540703 -0.20489314340189763
0.14027608185121654 0.41413803900170093 -0.20489314340189763
0.2882178397849258 0.48876368518768754 -0.20489314340189763
0.1894593446652112 0.5460535897623661 -0.20489314340189763
0.18295621446158572 0.32261316268382706 -0.20373505172179993
0.5472294982375421 0.28917994671916086 -0.20373505172179993
0.43026223854767626 0.56525118645937 -0.20311146389405502
0.4170510849970234 0.5193996643250408 -0.20311146389405502
0.5996108757681141 0.4467605907902985 -0.20311146389405502
0.5344370393712322 0.3454810191669867 -0.20311146389405502
0.4958993116165971 0.2891888551167001 -0.20311146389405502
0.5371362838256137 0.16188785428134717 -0.20311146389405502
0.6086350824753369 0.157112953200329 -0.20311146389405502
0.37713255562381015 0.03091659365983852 -0.20311146389405502
0.3723754713378705 0.10814349192727547 -0.20311146389405502
0.2975360236109425 0.18490715352267342 -0.20311146389405502
0.3573648214842967 0.13054811173839603 -0.20311146389405502
0.17453777878702956 0.3060079096707341 -0.20311146389405502
0.4133006496330147 0.329053934104678 -0.20311146389405502
0.3370625834924304 0.14888159387409633 -0.20311146389405502
0.3750123570094775 0.3775156167179964 -0.20311146389405502
0.25843706681133694 0.14947845650922353 -0.20311146389405502
0.3544428670914348 0.13397784479099306 -0.20311146389405502
0.2835142058842214 0.394860266726844 -0.20311146389405502
0.22396156833458283 0.15892135790078926 -0.20311146389405502
0.17109913733689328 0.01385701237224581 -0.20311146389405502
0.03417706715919045 0.0768126577818636 -0.20311146389405502
0.0707282222625811 0.17993626769579255 -0.20311146389405502
-0.009598798348501948 0.341311889118635 -0.20311146389405502
0.11560872906513586 0.3956085721201379 -0.20311146389405502
0.15867192276969125 0.3534807601571999 -0.20311146389405502
0.2468472416128209 0.4993735866568902 -0.20311146389405502
0.19114303180012238 0.5418042841361614 -0.20311146389405502
0.4841224100697576 0.269563655337814 -0.20195337221395734
0.18031932878997864 0.31635946761129957 -0.20195337221395734
0.42024029131606155 0.14901521983718452 -0.20195337221395734
0.48928037224496196 -0.019861272313675266 -0.20132978438621243
0.3668700816586368 0.02453818102176211 -0.20132978438621243
0.39755951118122546 0.2226342171012402 -0.20132978438621243
0.17416362609038258 0.2906854659032878 -0.20132978438621243
0.3715024483790276 0.37862916641039795 -0.20132978438621243
0.4403554529596043 0.17514354981969601 -0.20132978438621243
0.18724115367794708 0.17163364118924618 -0.20132978438621243
0.3035670087449897 0.3763931586280555 -0.20132978438621243
0.2872557328506908 0.40609375602379144 -0.20132978438621243
0.3773107235745945 0.15194608262758552 -0.20132978438621243
0.24407672997812574 0.14165688346979455 -0.20132978438621243
0.1904749019846814 0.059316565014849394 -0.20132978438621243
0.21166797973046902 -0.033589112921602375 -0.20132978438621243
0.03663578488001319 0.19450149767240574 -0.20132978438621243
0.18675119181329045 0.2649401970149624 -0.20132978438621243
0.065828603616014 0.36392140207315743 -0.20132978438621243
0.3184618494305537 0.39105638097760015 -0.20132978438621243
0.24204561533918512 0.5498663839091492 -0.20132978438621243
0.4390637353164186 0.5407620016240736 -0.20132978438621243
0.4657443859463614 0.510286373642426 -0.20132978438621243
0.5958960739942624 0.39843253414006846 -0.20132978438621243
0.5069100909750642 0.29969185581543223 -0.20132978438621243
0.45135732392053246 0.1214882714410165 -0.20132978438621243
0.5928137684456947 0.16156715196993549 -0.20132978438621243
0.332234232026177 0.11438827860226382 -0.2008843645092518
0.5190611452185507 0.297259863287227 -0.20017169270611476
0.06562371047261202 0.1704310075214524 -0.20017169270611476
0.32778894165410966 0.4273491925523535 -0.20017169270611476
0.03937066292455158 0.13983957037179517 -0.19954810487836985
0.11209882043468604 0.2557021887667987 -0.19954810487836985
0.10947975155815734 0.3852124721918764 -0.19954810487836985
0.17157128240647151 0.38342188428649465 -0.19954810487836985
0.2663566322236972 0.49320006716221576 -0.19954810487836985
0.4769511500506911 0.43262296389556765 -0.19954810487836985
0.41710453538225867 0.5501514526304039 -0.19954810487836985
0.5553628651908433 0.3138205743126239 -0.19954810487836985
0.5127183661706313 0.25767094462296475 -0.19954810487836985
0.5357020318218004 0.14789276174724364 -0.19954810487836985
0.4125790694323384 -0.008547607438874739 -0.19954810487836985
0.3712975552356257 0.07071931386504197 -0.19954810487836985
0.28403089294149575 0.3444298282573595 -0.19954810487836985
0.20384640669104004 0.21927575122895698 -0.19954810487836985
0.2818305187493102 0.3907267702686492 -0.19954810487836985
0.4312956126622248 0.283701282232545 -0.19954810487836985
0.2994156954917164 0.14355437214564698 -0.19954810487836985
0.2814207324625063 0.3731415935262428 -0.19954810487836985
0.31938832277463186 0.17245321376285377 -0.19954810487836985
0.24442415748215504 0.21059897202576355 -0.19954810487836985
0.21381490353741933 0.10719920178811895 -0.19954810487836985
0.1777269851060677 0.03792750252319916 -0.19954810487836985
0.2327630651033252 0.34843860715000535 -0.19839001319827215
0.40391119862668423 0.35781024136125744 -0.19839001319827215
0.046942800832882534 0.13812915804426623 -0.19776642537052724
0.1450153493420778 0.25298512751733865 -0.19776642537052724
0.09888766688403322 0.4054078094132721 -0.19776642537052724
0.1381826084295015 0.4148685275999163 -0.19776642537052724
0.23010836263663986 0.505849991667898 -0.19776642537052724
0.4141469473992399 0.5655629803732424 -0.19776642537052724
0.4696908060562326 0.402138427516381 -0.19776642537052724
0.5697410188191331 0.31403437585356503 -0.19776642537052724
0.5157739465265812 0.2713987852308919 -0.19776642537052724
0.5212169774230402 0.13199127213974857 -0.19776642537052724
0.4414511858569277 -0.009981859442688035 -0.19776642537052724
0.3827270292784359 0.06477741270638693 -0.19776642537052724
0.3827982964587497 0.3206711320202786 -0.19776642537052724
0.3455701031423788 0.12842791312406335 -0.19776642537052724
0.1678475722350806 0.23448238582839342 -0.19776642537052724
0.27773265588127216 0.38522138058941563 -0.19776642537052724
0.44119284232829054 0.2836300150522312 -0.19776642537052724
0.350558805764338 0.3788162427587216 -0.19776642537052724
0.4284805590398336 0.20020287209750204 -0.19776642537052724
0.18383814581796784 0.2973311304675408 -0.19776642537052724
0.2136545523817135 0.02377205883338981 -0.19776642537052724
0.305669390564244 0.38551535770820955 -0.19660833369042957
0.47142794357637907 0.3460778818021139 -0.19660833369042957
0.05866625199448679 0.38128386887708343 -0.1959847458626847
0.13050356975069988 0.3714489979937924 -0.1959847458626847
0.12952364602138647 0.28493954949049555 -0.1959847458626847
0.03961118965811034 0.13204472252498387 -0.1959847458626847
0.2099575674029402 0.14097093685927517 -0.1959847458626847
0.2791490910900071 0.34345881292558533 -0.1959847458626847
0.21765442287682008 0.1989735132370906 -0.1959847458626847
0.2980081686805209 0.37427296001372296 -0.1959847458626847
0.4339681319239888 0.2844495876258389 -0.1959847458626847
0.3589237910536589 0.11897610333495848 -0.1959847458626847
0.2114898117796848 0.305001260748803 -0.1959847458626847
0.2448963025517333 0.20997538419801856 -0.1959847458626847
0.4237591083440508 0.19948129189682576 -0.1959847458626847
0.3649815013803238 0.08391265062061629 -0.1959847458626847
0.47373521853903533 0.11109217151275498 -0.1959847458626847
0.5282724282740968 0.14895286105440997 -0.1959847458626847
0.5308113215727726 0.32441265898674804 -0.1959847458626847
0.5994594330099475 0.3741126088580171 -0.1959847458626847
0.4276164444785299 0.37563594483722257 -0.1959847458626847
0.26638335741631486 0.46357073694679335 -0.1959847458626847
0.2567979216641218 0.5197470918290702 -0.1959847458626847
0.28001320565131066 0.4655394928029594 -0.194826654182587
0.3048320011955579 0.136570188474904 -0.194826654182587
0.28326477075312345 0.4837304405780323 -0.19420306635484208
0.3055446729986949 0.45884928625101046 -0.19420306635484208
0.42617328407717747 0.4772273103744069 -0.19420306635484208
0.5686631027168885 0.32747714774023734 -0.19420306635484208
0.5207181071608444 0.1393852420972953 -0.19420306635484208
0.4665105081347336 0.13613367699548262 -0.19420306635484208
0.36453608150336303 0.10209468999814987 -0.19420306635484208
0.38435726602811193 0.31897853648782815 -0.19420306635484208
0.25131925717750586 0.15042274664838018 -0.19420306635484208
0.2979636266928247 0.3751816165627226 -0.19420306635484208
0.467276630323106 0.24091424885170523 -0.19420306635484208
0.3272009874165217 0.151046334476125 -0.19420306635484208
0.21271026224255696 0.3013399093601865 -0.19420306635484208
0.3836713194175925 0.19918731477803173 -0.19420306635484208
0.16578973240352232 0.08941804029984997 -0.19420306635484208
0.04929461778323471 0.15289037276674217 -0.19420306635484208
0.08751164322645828 0.2511054556365648 -0.19420306635484208
0.17239976337761836 0.39941245786938173 -0.19420306635484208
0.47142794357637907 0.35781024136125744 -0.1930449746747444
0.365997058699794 0.14120255519529468 -0.1930449746747444
0.15463641868442776 0.3286886898055703 -0.1930449746747444
0.14748297546043979 0.3652665701015786 -0.1924213868469995
0.14950518170184116 0.23935527928234288 -0.1924213868469995
0.1815754128430077 0.04652410614853955 -0.1924213868469995
0.21419796463160554 0.10643307959974665 -0.1924213868469995
0.34233635483564445 0.3426392403519778 -0.1924213868469995
0.4175588636567584 0.19889333765923767 -0.1924213868469995
0.20871039174745037 0.223836850769034 -0.1924213868469995
0.2433640581749887 0.3673956771134505 -0.1924213868469995
0.4392686284598205 0.3558949358903266 -0.1924213868469995
0.42636036042550085 0.2836032898596135 -0.1924213868469995
0.3215085213889646 0.08848265855823258 -0.1924213868469995
0.4875165095321977 0.11374687397944046 -0.1924213868469995
0.50911046516725 0.29686789379550166 -0.1924213868469995
0.5784267064198657 0.33777525529556746 -0.1924213868469995
0.46372217970496005 0.42867654378569625 -0.1924213868469995
0.2620271510196398 0.5137161066950231 -0.1924213868469995
0.19711165815139506 0.2542055779802109 -0.19126329516690183
0.3741749676407915 0.1444630286946466 -0.19126329516690183
0.3306307204691186 0.3910652893751394 -0.19126329516690183
0.26563505202302107 0.4661719890282435 -0.19063970733915692
0.45465343101004124 0.4093453211256043 -0.19063970733915692
0.5621332473206454 0.32734352177714915 -0.19063970733915692
0.496104204759999 0.1368018068109235 -0.19063970733915692
0.3846067011592098 0.031299654754024735 -0.19063970733915692
0.27633403746761576 0.1860296116126143 -0.19063970733915692
0.22327562172406346 0.32929446083823677 -0.19063970733915692
0.4175588636567584 0.3299269570635208 -0.19063970733915692
0.39962625941032287 0.15052073902131147 -0.19063970733915692
0.24543971480162524 0.17417253448792183 -0.19063970733915692
0.3087695129078901 0.1587164647573874 -0.19063970733915692
0.2058418877398238 0.1356169899382082 -0.19063970733915692
0.19286235252519046 0.036653601675091706 -0.19063970733915692
0.14496189895684253 0.23125754591919837 -0.19063970733915692
0.09535103306096562 0.3786113496153197 -0.19063970733915692
0.5552915980105299 0.2639513648881099 -0.18948161565905922
0.3697920360514987 0.3848115943026119 -0.18948161565905922
0.4368989947143899 0.4399456666728007 -0.18948161565905922
0.17073389303778555 0.3926777093297368 -0.1888580278313143
0.0609111681743684 0.19419861215607256 -0.1888580278313143
0.2056904449816572 0.10741300332906006 -0.1888580278313143
0.4001607632626757 0.2734744418575284 -0.1888580278313143
0.4281064063431867 0.22937787403842447 -0.1888580278313143
0.2655281512525505 0.1602843427242889 -0.1888580278313143
0.2051381243342259 0.3035046499622153 -0.1888580278313143
0.3516634470592004 0.40735874847435966 -0.1888580278313143
0.38264685370058293 0.17107241214427574 -0.1888580278313143
0.36113307364338376 0.08277237573559702 -0.1888580278313143
0.4790980738576416 0.1509305253081152 -0.1888580278313143
0.5108119690972397 0.3058564669125675 -0.1888580278313143
0.44709020149924933 0.46609181345039075 -0.1888580278313143
0.3090723984242233 0.42783915441701026 -0.1888580278313143
0.25660193691825905 0.5029280372750362 -0.1888580278313143
0.3718053338953608 0.3829497392169164 -0.18769993615121663
0.32743260575254124 0.1348865013399928 -0.18769993615121663
0.27677054894703723 0.4609783932628824 -0.18707634832347175
0.43325546012085164 0.42249411589348257 -0.18707634832347175
0.45348643093240437 0.2678888766004419 -0.18707634832347175
0.4384312390911345 0.14863215874299832 -0.18707634832347175
0.3192457884140045 0.08662971187007629 -0.18707634832347175
0.3597255468321881 0.3390758813362925 -0.18707634832347175
0.41077957312941743 0.331815537341834 -0.18707634832347175
0.3569817603901105 0.16150479318716107 -0.18707634832347175
0.24400546279781193 0.15666753332336839 -0.18707634832347175
0.20914690322687174 0.32361090320821884 -0.18707634832347175
0.4339146815387535 0.23841098914318634 -0.18707634832347175
0.22063873605245649 0.20160149051115842 -0.18707634832347175
0.1752771757827842 0.12694021073501477 -0.18707634832347175
0.15060091459916428 0.25699390640998454 -0.18707634832347175
0.1971205665489343 0.3808295406025837 -0.18707634832347175
0.44656460604443576 0.27568372444725325 -0.18591825664337405
0.3916265184201097 0.2874160840063968 -0.18591825664337405
0.4932624259449902 0.17089424419349153 -0.18591825664337405
0.30541104703560673 0.42647616959351076 -0.18529466881562914
0.44365156004911316 0.4646753782416557 -0.18529466881562914
0.44275181189765267 0.15423554079516327 -0.18529466881562914
0.3420423777168504 0.0990747432323567 -0.18529466881562914
0.39195612912906047 0.3010904742290886 -0.18529466881562914
0.19980199420823744 0.29193264155877763 -0.18529466881562914
0.25963970047913076 0.36922189860898913 -0.18529466881562914
0.39447720563265776 0.3638501348928438 -0.18529466881562914
0.43811944517726187 0.229484774808895 -0.18529466881562914
0.25384033368110304 0.16842661807512954 -0.18529466881562914
0.4161067948578668 0.19846573457735556 -0.18529466881562914
0.20589533812505906 0.11041513329977486 -0.18529466881562914
0.17452887038949028 0.3594404781109333 -0.18529466881562914
0.2866588702155636 0.4811737304842781 -0.18413657713553147
0.43700589548486024 0.1348865013399928 -0.18413657713553147
0.21671904113520282 0.35167235545673964 -0.18413657713553147
0.18436374127278138 0.12982653153771975 -0.18351298930778656
0.13445889825811044 0.24452214985508636 -0.18351298930778656
0.2791312742949287 0.46847035559336053 -0.18351298930778656
0.4823585473569934 0.273581342627999 -0.18351298930778656
0.4819754862628072 0.14930919695597855 -0.18351298930778656
0.34267487394213453 0.3423630800282621 -0.18351298930778656
0.21690611748352628 0.20030977286797258 -0.18351298930778656
0.20048794081875682 0.27849877806964457 -0.18351298930778656
0.27286867082486194 0.37110157048976306 -0.18351298930778656
0.3407773852662821 0.37886969314395685 -0.18351298930778656
0.3847759607124549 0.35956519567648226 -0.18351298930778656
0.24430834831414525 0.18935244389474062 -0.18351298930778656
0.19643461993841493 0.17666688579890147 -0.1823548976276889
0.5302590009253414 0.31561116221800567 -0.1823548976276889
0.18531693980947714 0.2732428235215089 -0.1823548976276889
