0.29345921865623636 0.31408995040171084 -0.10450932210371769
0.15497450749880054 0.4314361722581682 -0.10450932210371769
0.252306208235395 0.4436026348502425 -0.10450932210371769
0.24409335301724436 0.35775710017504725 -0.10450932210371769
0.31279344324542413 0.25650137017455854 -0.10322760400244567
0.2966832326494359 0.54217661620807 -0.10322760400244567
0.330293825012792 0.35697820994427415 -0.10253744810176073
0.3809709868630853 0.32930295832680867 -0.10253744810176073
0.22493659708823274 0.3200647286276403 -0.10253744810176073
0.16203381642580647 0.4122892756991663 -0.10253744810176073
0.510158312101294 0.5203578303764164 -0.10253744810176073
0.37375392801592294 0.526559374112571 -0.10253744810176073
0.38236115803446485 0.1839364069025432 -0.10253744810176073
0.4780069064993862 0.3263155692138438 -0.10253744810176073
0.39231912174434747 0.6223727318676585 -0.10253744810176073
0.4003347895623024 0.5414667415673654 -0.10253744810176073
0.43852012961019843 0.24701665622514563 -0.10253744810176073
0.48160557655295755 0.25166041949975426 -0.10204447960127151
0.47580826698720424 0.5551614065109562 -0.10125573000048874
0.46326714833475807 0.32142532168899063 -0.10125573000048874
0.38861199862066836 0.4631833436896749 -0.10056557409980381
0.2628064372958158 0.28643441752426485 -0.10056557409980381
0.12062446238471075 0.4661904515426593 -0.10056557409980381
0.6535332707835828 0.4264670497732367 -0.10056557409980381
0.3255021711880366 0.21297225158135905 -0.10056557409980381
0.4682559895597091 0.2596169310976504 -0.10056557409980381
0.3817498770938582 0.28340759093126094 -0.10056557409980381
0.3390489455814807 0.5303848096763673 -0.10056557409980381
0.6238269889441018 0.3430272013804289 -0.10056557409980381
0.4119195493237994 0.6007018365861517 -0.10056557409980381
0.36877494616098155 0.5134266932595377 -0.09928385599853179
0.7023667304420464 0.3473949022947635 -0.09928385599853179
0.36298749596523794 0.4613396414978452 -0.09859370009784686
0.22336895725667705 0.3169787458145778 -0.09859370009784686
0.17389463854757747 0.31122087372886353 -0.09859370009784686
0.17209037383578682 0.4760103840724048 -0.09859370009784686
0.31878794021137324 0.5769111767525414 -0.09859370009784686
0.4979721307692001 0.26904248882700454 -0.09859370009784686
0.3701946954423906 0.6178571404031771 -0.09859370009784686
0.5216740562727225 0.2672283647452042 -0.09859370009784686
0.5181936986592687 0.28817952601599667 -0.09859370009784686
0.31922175249180373 0.5709659766366412 -0.09859370009784686
0.4964833658977227 0.4918050948280799 -0.09731198199657486
0.3817893145738974 0.29328667968106514 -0.09731198199657486
0.3798470186819698 0.4623255784988236 -0.09662182609588993
0.28683372200966106 0.310234936727885 -0.09662182609588993
0.16579023639953444 0.3255563977230904 -0.09662182609588993
0.18097366621460279 0.4848838170812111 -0.09662182609588993
0.4171055779489461 0.5349102605108584 -0.09662182609588993
0.3640818860363241 0.18859002954716153 -0.09662182609588993
0.6429640261330939 0.35097385360831534 -0.09662182609588993
0.32525568693779194 0.5965116043319934 -0.09662182609588993
0.5649369718756577 0.2847583246226014 -0.09662182609588993
0.332719230035199 0.5418709757377665 -0.09662182609588993
0.3406560228930757 0.2084566601168777 -0.09662182609588993
0.44482026704645095 0.46426787439075123 -0.09534010799461791
0.5854937583460589 0.2669818804949595 -0.09534010799461791
0.37970898750183285 0.6189219523642339 -0.094649952093933
0.3241120000166569 0.5438428497397234 -0.094649952093933
0.17851868308216645 0.4959756083422188 -0.094649952093933
0.26381209303681374 0.2799469520578265 -0.094649952093933
0.2279338455712073 0.3125617480501942 -0.094649952093933
0.2946127649473812 0.3508358224281784 -0.094649952093933
0.6726308704925359 0.4010200157779825 -0.094649952093933
0.48068865514204756 0.32751841235503754 -0.094649952093933
0.4829070133942492 0.32411692970166184 -0.094649952093933
0.5106315618617637 0.320814040748384 -0.094649952093933
0.3958093387278112 0.516207035602297 -0.09415698359344375
0.3777272541298661 0.29545574108321776 -0.09336823399266098
0.40076860184273294 0.536813118922747 -0.09267807809197605
0.31485405157746915 0.5935242152190287 -0.09267807809197605
0.3535816569759034 0.45184506817842246 -0.09267807809197605
0.39163882521367227 0.326167678663697 -0.09267807809197605
0.4730279246444448 0.2627916482408011 -0.09267807809197605
0.4967692876280064 0.5372962280532265 -0.09267807809197605
0.4877775421790828 0.5430146626589014 -0.09267807809197605
0.6466908679967924 0.4368292476535204 -0.09267807809197605
0.20640098146983757 0.4500802409466711 -0.09267807809197605
0.15840556826220561 0.34853858921589853 -0.09267807809197605
0.23337621781660853 0.29302047669080095 -0.09267807809197605
0.29384373408661796 0.5314693403774436 -0.09139635999070404
0.6634025001633774 0.31892104170650526 -0.09139635999070404
0.40978006603167616 0.6051286937205451 -0.09070620409001912
0.3396602265220873 0.5343285576802812 -0.09070620409001912
0.24629199252942635 0.44643227404305075 -0.09070620409001912
0.19533876831885916 0.4698088403362502 -0.09070620409001912
0.26810091899107014 0.2888006663266131 -0.09070620409001912
0.22014494326347733 0.2935726014113489 -0.09070620409001912
0.11183976370599254 0.5306411532966218 -0.09070620409001912
0.37206797574424966 0.18805762356663314 -0.09070620409001912
0.6460993057962053 0.3506386350279826 -0.09070620409001912
0.6309848915712055 0.32936211454686737 -0.09070620409001912
0.5288911151198848 0.32908605218659337 -0.09070620409001912
0.29080704812360425 0.5671405410728446 -0.09021323558952987
0.3777272541298661 0.29385852314163274 -0.0894244859887471
0.3382700553507078 0.6027920230282262 -0.08873433008806217
0.34121800698363336 0.5148168644309172 -0.08873433008806217
0.3076567114703263 0.5609981535567489 -0.08873433008806217
0.34945058094180365 0.45747476845400964 -0.08873433008806217
0.1699213124336342 0.33259598791007666 -0.08873433008806217
0.21859702217194119 0.3260493662235796 -0.08873433008806217
0.12559358486964228 0.534338417050291 -0.08873433008806217
0.24648917992962213 0.3010065663987266 -0.08873433008806217
0.36368751123593274 0.19054218480909885 -0.08873433008806217
0.6384582940386221 0.3410849054885013 -0.08873433008806217
0.6203170532206183 0.3187731511563585 -0.08873433008806217
0.5526226187334367 0.41124418247812916 -0.08873433008806217
0.311748350024387 0.516207035602297 -0.08824136158757294
0.32577823354831065 0.32142532168899063 -0.08745261198679016
0.41840701479023773 0.5738744907895275 -0.08676245608610524
0.31559350432820304 0.5955453860710344 -0.08676245608610524
0.3160963321987021 0.5719026167875707 -0.08676245608610524
0.25000897502311525 0.44960699118620145 -0.08676245608610524
0.2009191717443973 0.4543690669009273 -0.08676245608610524
0.16339440948715667 0.3916831923787164 -0.08676245608610524
0.29489868667766495 0.27975962402764054 -0.08676245608610524
0.12309916425716676 0.5279199671739211 -0.08676245608610524
0.5128006232639163 0.5300594504660444 -0.08676245608610524
0.3679960559302086 0.1850505157136489 -0.08676245608610524
0.34845478457081536 0.18959568528815962 -0.08676245608610524
0.5347771590157264 0.29413458550190663 -0.08676245608610524
0.35832401395060975 0.26641989640440195 -0.08676245608610524
0.32577823354831065 0.32142532168899063 -0.08548073798483323
0.6504177098604912 0.4756850248620819 -0.08548073798483323
0.41637598456822206 0.5423047880181969 -0.0847905820841483
0.30786375824053175 0.5402638984261716 -0.0847905820841483
0.2562795343493383 0.4492717726058687 -0.0847905820841483
0.18174269707536603 0.49383612505009544 -0.0847905820841483
0.2105123387639178 0.32528033536281653 -0.0847905820841483
0.16210283201587486 0.34111448359853064 -0.0847905820841483
0.1708480932145539 0.3769434342140882 -0.0847905820841483
0.5160147778871063 0.270807316058756 -0.0847905820841483
0.4130435175049149 0.2756384073635505 -0.0847905820841483
0.3600494037023222 0.28952040033732734 -0.0847905820841483
0.5224628058735054 0.4684186691648706 -0.0847905820841483
0.33856583645100136 0.23174449207998907 -0.0847905820841483
0.6615785167115672 0.3473949022947635 -0.08350886398287631
0.3295346535220386 0.4902374549965241 -0.08350886398287631
0.30960886673226373 0.5797999721654081 -0.08281870808219137
0.29059014198338906 0.5317946995877665 -0.08281870808219137
0.4130632362449344 0.5791098162647232 -0.08281870808219137
0.16470570569845813 0.3628741132101255 -0.08281870808219137
0.12041741561450527 0.4813640219877178 -0.08281870808219137
0.10229589353652106 0.515792942061886 -0.08281870808219137
0.2551654255382326 0.3589007870961823 -0.08281870808219137
0.2400115738331935 0.4512535059778355 -0.08281870808219137
0.3409320852533496 0.21067501836907918 -0.08281870808219137
0.45038095173196946 0.22227949687059584 -0.08281870808219137
0.42545646434723383 0.19373662069226918 -0.08281870808219137
0.5177598863788381 0.3664333457836577 -0.08281870808219137
0.3476068787499739 0.21129615867969564 -0.08281870808219137
0.33463194781709726 0.5032222452994106 -0.08153698998091934
0.5075751571587305 0.29545574108321776 -0.08153698998091934
0.4153506100872045 0.5499162216657509 -0.08084683408023441
0.38236115803446485 0.6189909679543024 -0.08084683408023441
0.4104110657123023 0.5679983062636961 -0.08084683408023441
0.16105773879483776 0.4046384045715734 -0.08084683408023441
0.1444841378083897 0.4484041480450077 -0.08084683408023441
0.10464242359884982 0.49829256029451824 -0.08084683408023441
0.3257486554382813 0.3507372287280805 -0.08084683408023441
0.2400115738331935 0.4512535059778355 -0.08084683408023441
0.5397857189806972 0.31424770032186744 -0.08084683408023441
0.3652452916974787 0.27371583021164253 -0.08084683408023441
0.3953853858173904 0.18467585965327696 -0.08084683408023441
0.4522838101438579 0.23720658306540982 -0.08084683408023441
0.47195325331337834 0.4207880526476008 -0.0803538655797452
0.30403832267673525 0.5032222452994106 -0.0795651159789624
0.5075751571587305 0.24101229988918665 -0.0795651159789624
0.3358939471783497 0.6075343800029326 -0.07887496007827748
0.37361589683578583 0.603708944439136 -0.07887496007827748
0.14748138629136429 0.5257903432518077 -0.07887496007827748
0.20800805878143244 0.43949127755616224 -0.07887496007827748
0.12682600612086536 0.5282157482742146 -0.07887496007827748
0.18302441517663812 0.3543260394116422 -0.07887496007827748
0.334730541517195 0.3506780725080218 -0.07887496007827748
0.3383390709407762 0.44028002715694514 -0.07887496007827748
0.6530403022830938 0.3576387877349298 -0.07887496007827748
0.3401926325026157 0.21339620449177987 -0.07887496007827748
0.45665151105819246 0.22082031010914774 -0.07887496007827748
0.44358784579522786 0.2709354878688833 -0.07887496007827748
0.30403832267673525 0.5032222452994106 -0.07838199157778823
0.6893720807691504 0.4537775047003404 -0.07759324197700548
0.24786949173099201 0.4902374549965241 -0.07759324197700548
0.2814998028343676 0.55040919016624 -0.07690308607632054
0.401774257583731 0.5896100453251439 -0.07690308607632054
0.18357653989718603 0.49696154534319725 -0.07690308607632054
0.2128884469362759 0.4341474990108591 -0.07690308607632054
0.10866504656284198 0.5157337858418273 -0.07690308607632054
0.25253297374562017 0.44389841595053603 -0.07690308607632054
0.3805864714327037 0.3263648660638928 -0.07690308607632054
0.48275912284410244 0.3226577429402137 -0.07690308607632054
0.463908007385394 0.2514829508395781 -0.07690308607632054
0.5488859174997284 0.5049279163111032 -0.07690308607632054
0.37971884687184254 0.2626831951706935 -0.07690308607632054
0.555817054616607 0.5049081975710837 -0.07690308607632054
0.3088003983914613 0.4829218024492638 -0.07562136797504855
0.48160557655295755 0.24316164255131975 -0.07562136797504855
0.2886577054614713 0.5427287409286178 -0.07493121207436361
0.28439845761724425 0.5234339538194692 -0.07493121207436361
0.3198724709124496 0.4957981396820427 -0.07493121207436361
0.12949789539351703 0.45806633065459657 -0.07493121207436361
0.1822159468358357 0.38030547938742476 -0.07493121207436361
0.20084029678431894 0.4339996084607123 -0.07493121207436361
0.3625931211648466 0.457957877584489 -0.07493121207436361
0.48536199652668555 0.5386075242645277 -0.07493121207436361
0.3603156066925864 0.26435928807235687 -0.07493121207436361
0.42826638480002244 0.2886922132565055 -0.07493121207436361
0.4323678827240928 0.21003415931844321 -0.07493121207436361
0.33793483677037506 0.5093153359654575 -0.07443824357387438
0.31135397522399555 0.4772526646936377 -0.07364949397309162
0.4078673482497779 0.5686194465743124 -0.07295933807240669
0.3265472644090737 0.5020884177482853 -0.07295933807240669
0.40408135016602054 0.5675447752432458 -0.07295933807240669
0.13872626572267543 0.4511154747976984 -0.07295933807240669
0.13256415946656 0.5344271513803792 -0.07295933807240669
0.1974585328709629 0.4436617910703012 -0.07295933807240669
0.3036735259863733 0.28335829408121194 -0.07295933807240669
0.5251445545161667 0.32204646199960707 -0.07295933807240669
0.4322298515439559 0.20541011478385424 -0.07295933807240669
0.6715167616814303 0.4283600488151154 -0.07295933807240669
0.4901240722414116 0.5301876222761717 -0.07295933807240669
0.3516985173040345 0.2284613218667308 -0.07295933807240669
0.2785518512014419 0.4611325947276397 -0.07167761997113466
0.4664122873678794 0.46426787439075123 -0.07167761997113466
0.3860485624181244 0.5391695083550856 -0.07098746407044972
0.3698496174920482 0.5255635777415828 -0.07098746407044972
0.18316244635677506 0.35873317780601593 -0.07098746407044972
0.1964331583899453 0.48141331883776683 -0.07098746407044972
0.11917513499327234 0.5060223063821894 -0.07098746407044972
0.3095299917721854 0.305384126683071 -0.07098746407044972
0.473067362124484 0.4603734232368863 -0.07098746407044972
0.47772098476910235 0.2567182763147737 -0.07098746407044972
0.4780660627194449 0.5363398691622773 -0.07098746407044972
0.5889445378494835 0.4976221231338528 -0.07098746407044972
0.4600135562315291 0.26170711753972475 -0.07098746407044972
0.5379913136389162 0.3084405313861043 -0.06970574596917772
0.6114633389518316 0.5187113155847823 -0.06970574596917772
0.2978466383105905 0.5779365512335588 -0.06901559006849278
0.3424800063448858 0.5952101674907018 -0.06901559006849278
0.17543270026910382 0.49551221795175887 -0.06901559006849278
0.17718766813084547 0.3630417225002918 -0.06901559006849278
0.16805789150178496 0.4993573722555749 -0.06901559006849278
0.29751141973025785 0.2992023016869359 -0.06901559006849278
0.478835093580208 0.43280662468952824 -0.06901559006849278
0.4531711534447385 0.2753722043732864 -0.06901559006849278
0.5563987574471844 0.5136140212897236 -0.06901559006849278
0.6045519205749726 0.31641676172402006 -0.06901559006849278
0.4574205419189557 0.2321881637304294 -0.06901559006849278
0.3777272541298661 0.2824709507803314 -0.06773387196722079
0.31007225712272357 0.47424555684065334 -0.06773387196722079
0.36891297734111866 0.5327806365887451 -0.06704371606653586
0.29718606051993496 0.5615009814272478 -0.06704371606653586
0.12221182095628609 0.4788400232652129 -0.06704371606653586
0.19775431397125645 0.38186325984897074 -0.06704371606653586
0.12377946078784192 0.49504882756129903 -0.06704371606653586
0.35586903081817345 0.45895367395547726 -0.06704371606653586
0.47899284350036464 0.36534881508258144 -0.06704371606653586
0.4706320977320672 0.260050743378081 -0.06704371606653586
0.5440055293448849 0.5196972525857607 -0.06704371606653586
0.5888360847793759 0.4882951591045965 -0.06704371606653586
0.28762247161044385 0.4952953118115437 -0.06655074756604662
0.339039086211471 0.36037969259765 -0.06576199796526386
0.26451210830750843 0.516207035602297 -0.06576199796526386
0.12616542833020972 0.5250114530210347 -0.06507184206457893
0.1518688059457184 0.44468716555131876 -0.06507184206457893
0.3132075367858351 0.4946544527609077 -0.06507184206457893
0.28593651933877057 0.5156450515117392 -0.06507184206457893
0.3915007940335353 0.5907340135062594 -0.06507184206457893
0.36043391913270384 0.33803836015547784 -0.06507184206457893
0.49479741362604956 0.5384990711944201 -0.06507184206457893
0.41285618947472896 0.2834864658913392 -0.06507184206457893
0.35365067256597194 0.20652422359495992 -0.06507184206457893
0.471696909693124 0.25603797978409853 -0.06507184206457893
0.6130605568934168 0.29545574108321776 -0.06379012396330692
0.5595241777402858 0.36037969259765 -0.06379012396330692
0.40044324263241 0.5551811252509758 -0.063099968062622
0.3738032248659718 0.6130950646884511 -0.063099968062622
0.32882477888133405 0.508920961165066 -0.063099968062622
0.12607669400012164 0.47201733921844197 -0.063099968062622
0.12951761413353655 0.4949896713412403 -0.063099968062622
0.2910929698538881 0.2817413573996072 -0.063099968062622
0.4869887925783001 0.4347784986914852 -0.063099968062622
0.3685383212807467 0.20523264612367811 -0.063099968062622
0.5976405021981136 0.2976050837453509 -0.063099968062622
0.6787042424185634 0.4305389695872779 -0.063099968062622
0.36347060509571744 0.2338051004120341 -0.063099968062622
0.26325996831626586 0.5032222452994106 -0.061818249961349964
0.6893720807691504 0.4537775047003404 -0.061818249961349964
0.1181793386222841 0.4871613315534713 -0.06112809406066503
0.15458013269840926 0.5027785736489703 -0.06112809406066503
0.3912641691533005 0.5899156857954473 -0.06112809406066503
0.2848519886376943 0.5711040078167782 -0.06112809406066503
0.38003434671215575 0.5962355419717191 -0.06112809406066503
0.3620114183342693 0.4622664222787649 -0.06112809406066503
0.5952348159157261 0.3012727693889908 -0.06112809406066503
0.3612621062135256 0.2091172379075332 -0.06112809406066503
0.4587121193902375 0.21177926781017517 -0.06112809406066503
0.3675129467997291 0.2474406091355663 -0.06112809406066503
0.6504177098604912 0.5032222452994106 -0.05984637595939303
0.27383907233676485 0.4772526646936377 -0.05984637595939303
0.5922671455427808 0.5015757305077765 -0.059156220058708096
0.5757625601464015 0.2934641483412413 -0.059156220058708096
0.37842726940056076 0.2673072397052824 -0.059156220058708096
0.47253495614395563 0.2598929934579244 -0.059156220058708096
0.3042059319669017 0.2886823538864957 -0.059156220058708096
0.4814182485227716 0.3249944136325326 -0.059156220058708096
0.28164769338451423 0.49797706045420503 -0.059156220058708096
0.3808329556829482 0.5892551080047916 -0.059156220058708096
0.1791398233927829 0.4882261435145281 -0.059156220058708096
0.13632057944028797 0.4770357585534224 -0.059156220058708096
0.6504177098604912 0.4772526646936377 -0.0578745019574361
0.26325996831626586 0.4965573111727961 -0.0578745019574361
0.36839043073059996 0.21118770560958805 -0.05718434605675117
0.41416748568603023 0.2834568877813098 -0.05718434605675117
0.44789639048950375 0.20168327292015564 -0.05718434605675117
0.38713309311920074 0.20412839668258215 -0.05718434605675117
0.34880972189116766 0.3344396901019065 -0.05718434605675117
0.3847076880967936 0.5937214026192241 -0.05718434605675117
0.2841618327370094 0.5724153040280794 -0.05718434605675117
0.2818153026746807 0.5496007218254377 -0.05718434605675117
0.183300477536912 0.4101004955569941 -0.05718434605675117
0.14526302803916263 0.5011419182273459 -0.05718434605675117
0.4773759068187599 0.4193978814762211 -0.05590262795547917
0.6711026681410193 0.33441011199187715 -0.05590262795547917
0.536078595857018 0.5288763260648702 -0.05521247205479424
0.4478865311194939 0.2930993516508792 -0.05521247205479424
0.41282661136469956 0.1924056057409482 -0.05521247205479424
0.3805864714327037 0.24977727982788533 -0.05521247205479424
0.348375909610737 0.46947362175591756 -0.05521247205479424
0.2778419765607374 0.5494824093853203 -0.05521247205479424
0.3129610525355904 0.47837663287475307 -0.05521247205479424
0.30515243148784094 0.500264434296475 -0.05521247205479424
0.19552609634904497 0.42775862724451846 -0.05521247205479424
0.14828985463216657 0.48613595707245366 -0.05521247205479424
0.4686207862500712 0.3473949022947635 -0.05393075395352224
0.36521571358744936 0.5108336789469643 -0.05393075395352224
0.4905381657818226 0.2574675884355174 -0.053240598052837304
0.48271968536406323 0.2552196520732864 -0.053240598052837304
0.35784090482013037 0.235915005594128 -0.053240598052837304
0.3716637415738485 0.24097286240914761 -0.053240598052837304
0.35243797005476835 0.46051145441702324 -0.053240598052837304
0.48553946518686164 0.3384918911759279 -0.053240598052837304
0.3675129467997291 0.5348116668107606 -0.053240598052837304
0.3004495119931737 0.5634136992091462 -0.053240598052837304
0.18583433562942672 0.45147041211805067 -0.053240598052837304
0.16239861311616843 0.4684482472749 -0.053240598052837304
0.41668162503852546 0.41232871317920544 -0.05195887995156527
0.3777272541298661 0.516207035602297 -0.05195887995156527
0.1372572195912175 0.4920515790783244 -0.05126872405088034
0.2687614967817258 0.5074716337736278 -0.05126872405088034
0.34674911355912263 0.5137224743598313 -0.05126872405088034
0.33214738657463155 0.5935537933290578 -0.05126872405088034
0.5085216566796698 0.33233964428982227 -0.05126872405088034
0.6166099300969394 0.4869641441532756 -0.05126872405088034
0.6123112447726732 0.31498715307260117 -0.05126872405088034
0.4080842543899932 0.28235263834021396 -0.05126872405088034
0.41647457826831996 0.20371430314217132 -0.05126872405088034
0.26325996831626586 0.4853077699916317 -0.050775755550391134
0.6763872904662639 0.3319058320093918 -0.049987005949608344
0.3119060999445435 0.47169198000811907 -0.049987005949608344
0.16651982978025848 0.45477330107132863 -0.04929685004892341
0.2804941470933695 0.5636108866093417 -0.04929685004892341
0.2783842419112756 0.5400075548059171 -0.04929685004892341
0.3539858911463045 0.3438751072012704 -0.04929685004892341
0.4853324184166562 0.36864184466584954 -0.04929685004892341
0.6628010785927807 0.4490154289856143 -0.04929685004892341
0.6455274623356378 0.4684482472749 -0.04929685004892341
0.48957194752086364 0.5331848707591462 -0.04929685004892341
0.3786145974307467 0.23453469379275815 -0.04929685004892341
0.49459036685584407 0.27873424954662296 -0.04801513194765141
0.342105350284514 0.4772526646936377 -0.04801513194765141
0.17081851510452453 0.474531478570937 -0.04732497604696648
0.27642222727932847 0.48469648905102514 -0.04732497604696648
0.269707996302665 0.5044546665506336 -0.04732497604696648
0.2916549539444457 0.28621751138404955 -0.04732497604696648
0.5272840378082901 0.4786822733450565 -0.04732497604696648
0.6484852733385731 0.33950740628693576 -0.04732497604696648
0.3936895741757075 0.27932581174721005 -0.04732497604696648
0.3890260921610793 0.20000718001849221 -0.04732497604696648
0.4028193508047681 0.2072636763456938 -0.04732497604696648
0.2608542820338784 0.4775287270539116 -0.04604325794569448
0.6504177098604912 0.4927417349790094 -0.04604325794569448
0.3358052128482616 0.4981150916343421 -0.04535310204500955
0.2678741534808451 0.5227437979187843 -0.04535310204500955
0.3785160037306488 0.336431282843883 -0.04535310204500955
0.48446479385579516 0.36531923697255203 -0.04535310204500955
0.6928327196425849 0.39691851785391197 -0.04535310204500955
0.4755815014769791 0.2232259963915352 -0.04535310204500955
0.6529712866930253 0.3319945663394798 -0.04535310204500955
0.4118603931037407 0.2062974580847349 -0.04535310204500955
0.3733694125855413 0.4773512583937355 -0.04407138394373755
0.5028623782940534 0.24399968900215152 -0.04407138394373755
0.3881781863402379 0.5756787555013183 -0.04338122804305262
0.3721271319643084 0.5599234822256822 -0.04338122804305262
0.37918644089131415 0.3279719433754877 -0.04338122804305262
0.6488895075089746 0.46155654763806037 -0.04338122804305262
0.4777012660290828 0.2321881637304294 -0.04338122804305262
0.6761901030660681 0.356573975773873 -0.04338122804305262
0.686739628976538 0.3989199699658983 -0.04338122804305262
0.5075751571587305 0.23052193019877582 -0.042888259542563374
0.4296664153414118 0.5032222452994106 -0.042099509941780584
0.5111048116222334 0.5371581968730894 -0.04140935404109565
0.6781225395879859 0.4406448238473071 -0.04140935404109565
0.37631736421846684 0.22390629292221023 -0.04140935404109565
0.4834788568548166 0.267149489785126 -0.04140935404109565
0.49615800668739973 0.33999051541741515 -0.04140935404109565
0.35635213994865295 0.3469117931642841 -0.04140935404109565
0.2955099676182716 0.48039780372675894 -0.04140935404109565
0.36135084054361366 0.5829549705685394 -0.04140935404109565
0.5854937583460589 0.54217661620807 -0.04012763593982365
0.4824732011138187 0.2946472727424155 -0.04012763593982365
0.2785518512014419 0.4512830840878648 -0.04012763593982365
0.6739520260738472 0.4149020087517592 -0.039437480039138724
0.5996419543100999 0.3038855024415837 -0.039437480039138724
0.5326080976135737 0.2603859619584136 -0.039437480039138724
0.4938509141051102 0.38892256877597664 -0.039437480039138724
0.3614297155036921 0.33722989181467544 -0.039437480039138724
0.2587443768517845 0.4957587022020035 -0.039437480039138724
0.3712989448834864 0.5727801007184415 -0.039437480039138724
0.24795822606108006 0.4772526646936377 -0.03894451153864948
0.5984785486489455 0.32142532168899063 -0.03815576193786672
0.3962234322682222 0.32142532168899063 -0.03815576193786672
0.6043547331747768 0.488778268235076 -0.03746560603718179
0.4371891146588776 0.2848076214726503 -0.03746560603718179
0.6505163035605889 0.3264141629139417 -0.03746560603718179
0.42240991901421027 0.27677223491467584 -0.03746560603718179
0.4883789637496796 0.39232405142935234 -0.03746560603718179
0.3563324212086333 0.45420145761076103 -0.03746560603718179
0.3183245498209134 0.48605708211237547 -0.03746560603718179
0.3493224091316764 0.526687545922698 -0.03746560603718179
0.5232614148442978 0.553938844629743 -0.03618388793590979
0.6604545485304519 0.3753560756425129 -0.03618388793590979
0.5172274803983097 0.2435067205016622 -0.03618388793590979
0.6146873529450312 0.48645145691276676 -0.03549373203522486
0.7035498548432206 0.4031594990701058 -0.03549373203522486
0.4260973233978698 0.2022649757507329 -0.03549373203522486
0.4918691807331434 0.26239727344040975 -0.03549373203522486
0.4877775421790828 0.32611838181364816 -0.03549373203522486
0.35226050139459225 0.4555423319320917 -0.03549373203522486
0.2959142017886727 0.5776013326532262 -0.03549373203522486
0.3175949564401892 0.5809535184565531 -0.03549373203522486
0.2608542820338784 0.4512830840878648 -0.03500076353473562
0.5419744991228691 0.25650137017455854 -0.03421201393395286
0.6441668692742875 0.35015552589750326 -0.03421201393395286
0.6108126205311858 0.5038729637200563 -0.03352185803326793
0.63169476621191 0.3212971498788634 -0.03352185803326793
0.4059940679479188 0.2032509127517113 -0.03352185803326793
0.40083761743280144 0.21863152996697546 -0.03352185803326793
0.5185979328296698 0.4687341690051837 -0.03352185803326793
0.3478237848901891 0.47000602773644595 -0.03352185803326793
0.3772342856293769 0.5680476031137449 -0.03352185803326793
0.2641473116171465 0.4870035816333147 -0.03352185803326793
0.6987582010184654 0.37336448290053637 -0.03224013993199589
0.2577288617407767 0.4549409103614949 -0.03224013993199589
0.5179767925190533 0.544276662020154 -0.031549984031310964
0.41819996802003223 0.28143571692930397 -0.031549984031310964
0.5042131119853939 0.26956503543752314 -0.031549984031310964
0.4017545388437113 0.22518801102348232 -0.031549984031310964
0.48673244895804557 0.4117470103486282 -0.031549984031310964
0.3817498770938582 0.3301804422576795 -0.031549984031310964
0.25594431576900556 0.5238086098798408 -0.031549984031310964
0.261012031954035 0.5109224132770523 -0.031549984031310964
0.6114633389518316 0.33441011199187715 -0.03026826593003896
0.6893720807691504 0.34489062231227813 -0.03026826593003896
0.6058434980462544 0.49818410722441053 -0.02957811002935403
0.46688553712834907 0.29763466185538023 -0.02957811002935403
0.5576607568084366 0.28532030871315905 -0.02957811002935403
0.4818914982832413 0.231428992239676 -0.02957811002935403
0.49318047694444483 0.35120061911854034 -0.02957811002935403
0.35206331399439655 0.34661601206399056 -0.02957811002935403
0.36548191657771345 0.5720505073377173 -0.02957811002935403
0.26376279618676485 0.48073302230709164 -0.02957811002935403
0.5432364984841217 0.5476781446735297 -0.028296391928082032
0.589743146820276 0.3084405313861043 -0.028296391928082032
0.24786949173099201 0.46368617156017394 -0.028296391928082032
0.7053146820749722 0.4034355614303797 -0.0276062360273971
0.535112377596059 0.260731039908756 -0.0276062360273971
0.49432416386557987 0.24718426551531192 -0.0276062360273971
0.4904297127117148 0.43619824797289425 -0.0276062360273971
0.37804275397017917 0.4640411088805262 -0.0276062360273971
0.2608740007738979 0.5340722140600269 -0.0276062360273971
0.34934212787169605 0.5572515929530307 -0.0276062360273971
0.6114633389518316 0.2694861604774449 -0.026324517926125102
0.5725089680431724 0.26775091135572276 -0.026324517926125102
0.24786949173099201 0.4593480487558687 -0.026324517926125102
0.705728775615383 0.40345528017039933 -0.02563436202544017
0.5263178195473311 0.25808872874613387 -0.02563436202544017
0.4828478571741905 0.28622737075405935 -0.02563436202544017
0.48632821478764443 0.4808710534872286 -0.02563436202544017
0.3775596448396998 0.4718694486682952 -0.02563436202544017
0.37069752331288963 0.5327904959587547 -0.02563436202544017
0.3473702538697391 0.5722476947379131 -0.02563436202544017
0.5691370634998262 0.54217661620807 -0.02435264392416817
0.5595241777402858 0.4902374549965241 -0.02435264392416817
0.5261206321471356 0.5377694778136962 -0.02366248802348324
0.46492352249640195 0.29754592752529213 -0.02366248802348324
0.5226501339036913 0.2732622991911924 -0.02366248802348324
0.40423910008617714 0.24234331484050764 -0.02366248802348324
0.48240418552375014 0.36513190894236625 -0.02366248802348324
0.2635754681565789 0.5307890438467686 -0.02366248802348324
0.2986452472813831 0.47589207163228736 -0.02366248802348324
0.5640397692047673 0.54217661620807 -0.023169519522994
0.5239022738949338 0.2824709507803314 -0.022380769922211205
0.337895399290336 0.37336448290053637 -0.022380769922211205
0.696983514416704 0.405663779052591 -0.021690614021526274
0.4594515721409714 0.29678675603453875 -0.021690614021526274
0.49404810150530587 0.27964131158752314 -0.021690614021526274
0.48908883839038414 0.4703609650567981 -0.021690614021526274
0.3611930906234572 0.45927903316580015 -0.021690614021526274
0.2626684061156787 0.45415216076071213 -0.021690614021526274
0.34436314601675466 0.5275946079635982 -0.021690614021526274
0.5595241777402858 0.25650137017455854 -0.02119764552103707
0.7023667304420464 0.3473949022947635 -0.020408895920254275
0.3348882914373516 0.39933406350630923 -0.020408895920254275
0.686739628976538 0.42908964219583945 -0.019718740019569345
0.42699452606876015 0.21302154843140794 -0.019718740019569345
0.49517206968642136 0.2797892021376699 -0.019718740019569345
0.4841690127555016 0.32294366467049745 -0.019718740019569345
0.31475545787737125 0.4888571431951542 -0.019718740019569345
0.34801111292037507 0.5782323323338524 -0.019718740019569345
0.26628679490926976 0.4621086723586084 -0.019718740019569345
0.24786949173099201 0.44851260111511526 -0.018437021918297342
0.5595241777402858 0.2435067205016622 -0.018437021918297342
0.571562468522233 0.522842391618882 -0.01774686601761241
0.5297193022007068 0.263432507291437 -0.01774686601761241
0.43452708475623564 0.20763833240606558 -0.01774686601761241
0.45010488937169557 0.21897660791731788 -0.01774686601761241
0.35189570470423015 0.40706380959398053 -0.01774686601761241
0.3476068787499739 0.5138900836499976 -0.01774686601761241
0.2887760179015887 0.5560783279218664 -0.01774686601761241
0.662870094182849 0.369677078516877 -0.01725389751712317
0.6114633389518316 0.27996667079784604 -0.01725389751712317
0.39562201069762526 0.3202816347678556 -0.01725389751712317
0.6836043493134263 0.3598078491370824 -0.015774992015655482
0.6474894769675849 0.326355006693883 -0.015774992015655482
0.41966901415149016 0.23221774184045876 -0.015774992015655482
0.4935551330048166 0.4339897490907024 -0.015774992015655482
0.2800701941829487 0.5498176279656529 -0.015774992015655482
0.2805434439434184 0.43600106057269844 -0.015774992015655482
0.2908464856036434 0.46077765740728743 -0.015774992015655482
0.40369683473563894 0.3473949022947635 -0.01528202351516624
0.6424907763726242 0.4902374549965241 -0.01528202351516624
0.34848436268084476 0.5273974205634024 -0.01380311801369855
0.3022241985949349 0.46607213910254186 -0.01380311801369855
0.46689539649835876 0.2992614579069946 -0.01380311801369855
0.6485838670386711 0.32682825645435265 -0.01380311801369855
0.5038976121450807 0.24418701703233736 -0.01380311801369855
0.3906134507326547 0.34273142028013537 -0.01380311801369855
0.6022842654727223 0.5014376993276395 -0.01380311801369855
0.5865684296771255 0.2694861604774449 -0.013310149513209309
0.536680017427615 0.3084405313861043 -0.013310149513209309
0.3376982118901402 0.4512830840878648 -0.013310149513209309
0.6403118556004618 0.4793132730256826 -0.011831244011741585
0.4217099037435155 0.22784018155611432 -0.011831244011741585
0.40402219394596184 0.24397997026213186 -0.011831244011741585
0.4353454124670479 0.22412319906242553 -0.011831244011741585
0.5299559270809416 0.32017318169774805 -0.011831244011741585
0.2704573084234087 0.5380159620639405 -0.011831244011741585
0.3129117556855415 0.453698629740262 -0.011831244011741585
0.3569437021492399 0.5278509515838528 -0.011831244011741585
0.28874643979155934 0.423341629480135 -0.011338275511252379
0.31591886353852594 0.4382982937849783 -0.010549525910469586
0.5595241777402858 0.2435067205016622 -0.010549525910469586
0.5075751571587305 0.4107610733476498 -0.010549525910469586
0.6836043493134263 0.4411180736077768 -0.009859370009784653
0.4118801118437602 0.2650198658630124 -0.009859370009784653
0.5094188593505602 0.2845216997423666 -0.009859370009784653
0.48775782343906315 0.37457718541173995 -0.009859370009784653
0.3608874501531538 0.4595748142660937 -0.009859370009784653
0.24897374117208784 0.4656580455621309 -0.009859370009784653
0.3179104562805024 0.5543726569101736 -0.009859370009784653
0.6150225715253641 0.28992463450772865 -0.009366401509295413
0.6864241291362247 0.4524662084890389 -0.008577651908512654
0.3295346535220386 0.37336448290053637 -0.008577651908512654
0.6504177098604912 0.29545574108321776 -0.008577651908512654
0.25467245703774344 0.4567747531833148 -0.007887496007827724
0.31952739296210714 0.5448682242207411 -0.007887496007827724
0.5981433300686125 0.286789354844617 -0.007887496007827724
0.48987758799116693 0.3047531270024447 -0.007887496007827724
0.5105329681616658 0.24602085985415736 -0.007887496007827724
0.35556339034787016 0.4549409103614949 -0.007887496007827724
0.48748176107878927 0.42351909814031113 -0.007887496007827724
0.6674349824973795 0.43625740419295295 -0.007887496007827724
0.48160557655295755 0.4156907583525421 -0.007394527507338482
0.27071365204366304 0.40898638674588844 -0.006605777906555723
0.5691370634998262 0.3084405313861043 -0.006605777906555723
0.5628566448035933 0.25650137017455854 -0.006605777906555723
0.6724829799423893 0.3475427928449103 -0.005915622005870792
0.46461788202609855 0.3030080185107129 -0.005915622005870792
0.4450174544466466 0.2794539835573372 -0.005915622005870792
0.5205993849416561 0.46940460616584906 -0.005915622005870792
0.3518168297441519 0.46338053108987054 -0.005915622005870792
0.3276120763701305 0.4840852081104185 -0.005915622005870792
0.31566251991827143 0.5584840142042539 -0.005915622005870792
0.531454551322429 0.3118321546694701 -0.005422653505381551
0.4111012216129873 0.4490154289856143 -0.0046339039045987926
0.5130668262541805 0.30919970287685766 -0.0046339039045987926
0.6244481292547182 0.29126550882905927 -0.0046339039045987926
0.29183242260462183 0.560120669625878 -0.003943748003913862
0.31382867709645157 0.551148642916974 -0.003943748003913862
0.34591106710829084 0.4351432953818473 -0.003943748003913862
0.514190794435296 0.3280310995955464 -0.003943748003913862
0.6891157371488958 0.4287741423555264 -0.003943748003913862
0.6188578664591702 0.2986698957064077 -0.003943748003913862
0.4807675301021259 0.21467792259305182 -0.003943748003913862
0.5382673759991903 0.2814751544093432 -0.003943748003913862
0.5984785486489455 0.32142532168899063 -0.002662029902641827
0.4296664153414118 0.42531350348209196 -0.002662029902641827
0.4626854455041808 0.31616041810376555 -0.002662029902641827
0.2594049546424401 0.5241536878301836 -0.0019718740019568958
0.3027171670954241 0.552923329518735 -0.0019718740019568958
0.3447575208171461 0.4151090555219647 -0.0019718740019568958
0.49481713236606906 0.3706925936278847 -0.0019718740019568958
0.6195973192099041 0.49975174705596637 -0.0019718740019568958
0.5351320963360786 0.25729997914535097 -0.0019718740019568958
0.5133527479844643 0.3199957130375719 -0.0019718740019568958
0.5411660307820668 0.28389070006174033 -0.0019718740019568958
0.6405189023706671 0.49237693828864737 -0.0014789055014676894
0.5725089680431724 0.4018383434887946 -6.90155900684896E-4
0.42389868388568785 0.43114039115787467 -6.90155900684896E-4
0.676298556136176 0.46426787439075123 -6.90155900684896E-4
0.5193472449504134 0.30893349988659347 3.5027518698117496E-17
0.5324700664334366 0.3388764066063095 3.5027518698117496E-17
0.6052223577356382 0.3003657073480906 3.5027518698117496E-17
0.6535924270036416 0.4573958934939312 3.5027518698117496E-17
0.37943292514155885 0.33495237734241523 3.5027518698117496E-17
0.30557638439826174 0.4302431884869843 3.5027518698117496E-17
0.24114540138431884 0.474906134631309 3.5027518698117496E-17
0.3186992058812852 0.48920222114549666 3.5027518698117496E-17
0.39452762062653923 0.4509380061375223 4.929685004892765E-4
0.3958684949478699 0.4676003414540585 0.0012817181012720349
0.2998086529425378 0.38322385291032107 0.0012817181012720349
0.5241980549952273 0.4649284521814069 0.001971874001956966
0.5021623630233587 0.22703171321531204 0.001971874001956966
0.5257952729368125 0.30325450276095745 0.001971874001956966
0.5898811780004131 0.2917683366995583 0.001971874001956966
0.636220217046401 0.3078686879255367 0.001971874001956966
0.35151118927384867 0.43140659414813887 0.001971874001956966
0.2819434744848078 0.5442963807601734 0.001971874001956966
0.2950860147078509 0.4355278108122289 0.001971874001956966
0.35502112499733196 0.4104850109873757 0.002464842502446207
0.6893720807691504 0.4512830840878648 0.0032535921032289658
0.6114633389518316 0.3863492732034229 0.0032535921032289658
0.27049674590344785 0.39933406350630923 0.0032535921032289658
0.5254699137264898 0.2440095483721612 0.0039437480039138965
0.50759487589875 0.3056306109333155 0.0039437480039138965
0.45685855782839796 0.28719358901501824 0.0039437480039138965
0.6271101591573601 0.49451642158077064 0.0039437480039138965
0.37934419081147075 0.33058467642808065 0.0039437480039138965
0.2674304818304048 0.5248438437308683 0.0039437480039138965
0.28526608217810523 0.40600885700293354 0.0039437480039138965
0.3257092179582421 0.41618372685303134 0.0039437480039138965
0.5538451806146499 0.31680127715440165 0.0044367165044031385
0.5465393874373996 0.33441011199187715 0.005225466105185896
0.32509793701763545 0.4406842613273463 0.005225466105185896
0.5229952118540337 0.4676102008240682 0.005915622005870828
0.5453464036662156 0.2552985270333648 0.005915622005870828
0.5438872169047675 0.2641818194121808 0.005915622005870828
0.6397202933998747 0.31959147886717076 0.005915622005870828
0.702849839572526 0.38254355637964593 0.005915622005870828
0.3930980119751204 0.42132045862812917 0.005915622005870828
0.24667650795980797 0.45642967523297234 0.005915622005870828
0.30234251103505233 0.4521309899087063 0.005915622005870828
0.29894102838167663 0.3863492732034229 0.006408590506360069
0.6711026681410193 0.4772526646936377 0.006408590506360069
0.47305750275447417 0.45858887726511527 0.007197340107142862
0.7130542875326531 0.3863492732034229 0.007197340107142862
0.5162415433973312 0.32744939676496915 0.007887496007827793
0.5623735356731138 0.26574945924373644 0.007887496007827793
0.4400680507017347 0.25222240359031184 0.007887496007827793
0.6502796786803541 0.48179783426814843 0.007887496007827793
0.39101768490305583 0.458184643094714 0.007887496007827793
0.2830970207759526 0.41045543287734637 0.007887496007827793
0.3404785542328996 0.4369278413536183 0.007887496007827793
0.3408729290332909 0.41782038227465557 0.007887496007827793
0.6711026681410193 0.32142532168899063 0.008380464508317
0.7283363110478195 0.41232871317920544 0.009169214109099794
0.45344721580501257 0.46426787439075123 0.009169214109099794
0.49157339963284985 0.47132718331775714 0.009859370009784724
0.5757428414063818 0.2877358543655563 0.009859370009784724
0.5619693015027126 0.2793455304872296 0.009859370009784724
0.6568065816268316 0.4624340315689313 0.009859370009784724
0.3561746712884768 0.3376637040951061 0.009859370009784724
0.3106835380633302 0.4772033678435887 0.009859370009784724
0.40735466100926904 0.41783024164466537 0.009859370009784724
0.34391947436631437 0.4219908957887945 0.009859370009784724
0.3304910124129877 0.42229653625909774 0.009859370009784724
0.431490398793222 0.45327467682984135 0.010352338510273966
0.5742343577948849 0.33775243842519415 0.011141088111056723
0.4977650839989946 0.4288431579455948 0.011141088111056723
0.4849577623562844 0.22786975966614367 0.011831244011741656
0.4728800340942981 0.2995178015272491 0.011831244011741656
0.5331010661140632 0.3102447960978948 0.011831244011741656
0.6637870155937591 0.45507894154163187 0.011831244011741656
0.3509097677032517 0.3500963696774445 0.011831244011741656
0.3853386877774199 0.4439181346905557 0.011831244011741656
0.24878641314190186 0.4312784223380116 0.011831244011741656
0.3427363499651403 0.40435248284128966 0.011831244011741656
0.3046989004673909 0.5192732996753401 0.011831244011741656
0.4160309066178796 0.4747483847111524 0.013112962113013655
0.5465393874373996 0.33441011199187715 0.013112962113013655
0.516704933787791 0.47275679196917586 0.013803118013698585
0.5851585397657263 0.3116842641193234 0.013803118013698585
0.4479259685995331 0.2596662279476994 0.013803118013698585
0.6685688100485045 0.4484041480450077 0.013803118013698585
0.3600494037023222 0.3358988768633546 0.013803118013698585
0.4059546304678796 0.4633509529798412 0.013803118013698585
0.2420919009052582 0.46495803029143623 0.013803118013698585
0.32143025137399556 0.40695535652387277 0.013803118013698585
0.2643149209073128 0.5052828536314555 0.013803118013698585
0.5589424749097086 0.33441011199187715 0.014296086514187827
0.4977650839989946 0.42150778665831495 0.015084836114970586
0.7179839725375454 0.39933406350630923 0.015084836114970586
0.6806268195704713 0.44250824477915646 0.015774992015655517
0.5265741631675857 0.31901963540660316 0.015774992015655517
0.5332193785541806 0.33367065924114325 0.015774992015655517
0.5760977787267341 0.2938388044016131 0.015774992015655517
0.41547878189733173 0.437903918984587 0.015774992015655517
0.33996586699239073 0.449488678746084 0.015774992015655517
0.3668523690090736 0.41300900970988064 0.015774992015655517
0.30540877510809544 0.4795203197958881 0.015774992015655517
0.5075751571587305 0.41232871317920544 0.016267960516144757
0.43930887921098133 0.4661017172125712 0.01705671011692755
0.48365632551499277 0.467117232323579 0.01774686601761248
0.6988370759785435 0.40062564097759107 0.01774686601761248
0.44521464184684223 0.2533956686214762 0.01774686601761248
0.4621530395236524 0.2540759651521514 0.01774686601761248
0.3459406452183202 0.3486569016560159 0.01774686601761248
0.338122164800561 0.44493364980156347 0.01774686601761248
0.2455032429286436 0.4415420265181976 0.01774686601761248
0.2732869476162168 0.5132097871193224 0.01774686601761248
0.5487478863195914 0.3288592866763683 0.01823983451810169
0.5465393874373996 0.41232871317920544 0.019028584118884483
0.5171781835482607 0.472934260629352 0.019718740019569414
0.6927045478324576 0.42866568928541865 0.019718740019569414
0.44713721899875036 0.2568661668649205 0.019718740019569414
0.585119102285687 0.31291668537054645 0.019718740019569414
0.3817400177238484 0.4574649090839998 0.019718740019569414
0.24988080321298803 0.4856134104619351 0.019718740019569414
0.3780624727101988 0.47604982155244396 0.019718740019569414
0.3562338275085355 0.39829882965528185 0.019718740019569414
0.4296664153414118 0.5032222452994106 0.021000458120841413
0.5691370634998262 0.3473949022947635 0.021000458120841413
0.2802772409531542 0.4021538433291077 0.021690614021526344
0.39435015196636314 0.45776069018429333 0.021690614021526344
0.3946557924366664 0.4457815556224049 0.021690614021526344
0.32700079542952387 0.39060852104764976 0.021690614021526344
0.45053870165212606 0.2696044729175623 0.021690614021526344
0.5366504393175855 0.3355340801729925 0.021690614021526344
0.6868776601566747 0.3667389862539611 0.021690614021526344
0.6490669761691507 0.4576127996341466 0.021690614021526344
0.3311713089436628 0.4785048046848803 0.022972332122798342
0.32577823354831065 0.3473949022947635 0.022972332122798342
0.34324903720564903 0.45085913117744403 0.023662488023483273
0.38926271704131415 0.402370749469323 0.023662488023483273
0.31664845691925 0.390509927347552 0.023662488023483273
0.3547450626370579 0.344259622631652 0.023662488023483273
0.5883036787988475 0.3358594393833154 0.023662488023483273
0.47567023580706713 0.2389714102971613 0.023662488023483273
0.6608193452208138 0.34920902637656387 0.023662488023483273
0.5946333943451292 0.3477596989851256 0.024155456523972517
0.357811326710101 0.44605761798267896 0.025634362025440206
0.29518460840794863 0.5147182707308195 0.025634362025440206
0.46439111651587356 0.45523669146178847 0.025634362025440206
0.3970220412390148 0.4208866463476985 0.025634362025440206
0.4600135562315291 0.24961952990772873 0.025634362025440206
0.519081041960149 0.3315114572090003 0.025634362025440206
0.4604868059919988 0.263432507291437 0.025634362025440206
0.7110528354206668 0.40370176442064387 0.025634362025440206
0.4674968180689557 0.30411226795180873 0.02691608012671224
0.34988439322223414 0.38709858532416647 0.02760623602739717
0.34659136363896603 0.4575142059340487 0.02760623602739717
0.26470929570770424 0.48405563000038915 0.02760623602739717
0.37870333176083476 0.33427208081174004 0.02760623602739717
0.5169021211879868 0.2361220523643335 0.02760623602739717
0.4885761511498754 0.24520253214334525 0.02760623602739717
0.6971412643368605 0.419309147146133 0.02760623602739717
0.33279810499527723 0.36183887935909814 0.02888795412866917
0.2688699498518333 0.4986967944649194 0.029578110029354104
0.4812900767126445 0.44225190115890195 0.029578110029354104
0.4310467271427817 0.43737151300405863 0.029578110029354104
0.36771013419992493 0.39706640840405877 0.029578110029354104
0.48888179162017864 0.32262816483018436 0.029578110029354104
0.5178880581889653 0.3349326586023957 0.029578110029354104
0.695977858675706 0.3847323365218182 0.029578110029354104
0.4906761969619595 0.48256686512891156 0.029578110029354104
0.36618193184840825 0.45960439237612305 0.03154998403131103
0.26827838765124623 0.5013095275175123 0.03154998403131103
0.5002003483914115 0.43313198389985114 0.03154998403131103
0.33425729175672547 0.4472998986039117 0.03154998403131103
0.4969467562881825 0.2965402717842941 0.03154998403131103
0.5971869711776636 0.2947853039225524 0.03154998403131103
0.5127907638939065 0.24307290822123168 0.03154998403131103
0.5342053155551589 0.47981610089618165 0.03154998403131103
0.7020117931216941 0.39127895820831526 0.033521858033267966
0.2763039148392111 0.4018284841187848 0.033521858033267966
0.44488928263651933 0.45987059536638725 0.033521858033267966
0.2622247344652384 0.4348968111316026 0.033521858033267966
0.3886810142107369 0.3292733802167793 0.033521858033267966
0.5307939735317734 0.32762686542514524 0.033521858033267966
0.5241388987751686 0.2463659378044998 0.033521858033267966
0.5465393874373996 0.46426787439075123 0.034803576134539965
0.5385237196194446 0.24525182899339415 0.03549373203522489
0.4774843598888676 0.25990285282793424 0.03549373203522489
