0.5798165215303077 0.49202651458276864 -0.2358384257745126
0.49663137021881004 0.1643476570035971 -0.23511971920924418
0.4240830760732851 0.20009817500737825 -0.23511971920924418
0.4188673198567657 0.3098857364704546 -0.23511971920924418
0.4836946520439782 0.5356109341479757 -0.23511971920924418
0.5110568377074122 0.1430431409617114 -0.23511971920924418
0.5799191938967746 0.40013474659487636 -0.23511971920924418
0.42863146190776963 0.28235927502067365 -0.23511971920924418
0.4250892652646609 0.4174966437644322 -0.23511971920924418
0.40992455673749695 0.4874267925650507 -0.2346063573769096
0.5994269435254892 0.28458726537300577 -0.23378497844517424
0.3379101588976001 0.3927628706825515 -0.23378497844517424
0.4900090025816938 0.1593064438100714 -0.2330662718799058
0.41762498422251587 0.38267017705885337 -0.2330662718799058
0.5781224274836035 0.4794902186371579 -0.2330662718799058
0.5804941591489893 0.14395692502326696 -0.2330662718799058
0.4834893073110444 0.10967462185996277 -0.2330662718799058
0.5824757358218009 0.40904670800420484 -0.2330662718799058
0.5848577347238334 0.4319529129629744 -0.2330662718799058
0.4230358179353225 0.34849054626201614 -0.2330662718799058
0.47952615396542136 0.14218069308338926 -0.2330662718799058
0.3784760108886798 0.10879163950834728 -0.23173153111583586
0.4190418628797594 0.6226565664386297 -0.23173153111583586
0.3820284747684351 0.3521970186914718 -0.23173153111583586
0.41077673737917253 0.36071882510822617 -0.23101282455056743
0.504064849551015 0.5370996834617462 -0.23101282455056743
0.5957102038593868 0.3081505734771637 -0.23101282455056743
0.48205189418050753 0.13528111005681234 -0.23101282455056743
0.5831841751504225 0.3079246942709364 -0.23101282455056743
0.5024939623440711 0.15672936741175167 -0.23101282455056743
0.41825128565796416 0.4148271622362924 -0.23101282455056743
0.6624575092995308 0.4349612133004552 -0.23049946271823282
0.4325638135434527 0.6091346157749363 -0.23049946271823282
0.4630164374375408 0.0817374709443141 -0.23049946271823282
0.47678480178075455 0.5198712603685972 -0.22895937722122905
0.5842108988150918 0.4641201653770602 -0.22895937722122905
0.5937286271865752 0.28514169615192714 -0.22895937722122905
0.5073606325146031 0.104037908940929 -0.22895937722122905
0.41948335405556725 0.3949908610348837 -0.22895937722122905
0.47978283488158857 0.1566985657018116 -0.22895937722122905
0.5811615295310244 0.30710331533920104 -0.22895937722122905
0.5222275911790129 0.0817374709443141 -0.22844601538889447
0.5677935874170315 0.5550365458835167 -0.22844601538889447
0.4325638135434527 0.6091346157749363 -0.22844601538889447
0.5580294453660276 0.10625563205661438 -0.2269059298918907
0.427019505754239 0.1331249903610071 -0.2269059298918907
0.40603327404840084 0.34703259865818575 -0.2269059298918907
0.42040740535376936 0.37634555928449115 -0.2269059298918907
0.4110847544785731 0.3641583493848679 -0.2269059298918907
0.5038492375814344 0.12634861417419035 -0.2269059298918907
0.5910796801317287 0.3963358690356003 -0.2269059298918907
0.5542716367533383 0.6226565664386297 -0.2263925680595561
0.5586660140381224 0.07920146349258121 -0.2263925680595561
0.5473617864901147 0.5277975670598433 -0.2248524825625523
0.6057104923532646 0.42537161427244496 -0.2248524825625523
0.5903301718565203 0.2596994837414246 -0.2248524825625523
0.501764988542156 0.09413002557687129 -0.2248524825625523
0.585638044708982 0.2928010546903593 -0.2248524825625523
0.42601331656286323 0.2996595687703495 -0.2248524825625523
0.4205511466668232 0.4348072047507548 -0.2248524825625523
0.44270784335038427 0.10308305593278662 -0.22433912073021772
0.49012194218480737 0.09526968884465399 -0.22351774179848236
0.5272277354259519 0.6632224184297092 -0.22351774179848236
0.4688687623261551 0.09800077379267409 -0.22279903523321393
0.4151300457173698 0.26319034420129983 -0.22279903523321393
0.4018545087331973 0.4324765420319557 -0.22279903523321393
0.5407907550362319 0.5353747877051018 -0.22279903523321393
0.41835395802443115 0.43481747198740156 -0.22279903523321393
0.4149349682210826 0.3487061582315967 -0.22279903523321393
0.5895395946347248 0.3322888468335363 -0.22279903523321393
0.5845702520977261 0.5177254079094386 -0.22146429446914398
0.40551991221606626 0.14935749149942687 -0.22146429446914398
0.4580265604272485 0.10266209923027228 -0.22074558790387555
0.4154277955801238 0.23771733008085733 -0.22074558790387555
0.40429811105510993 0.41390311093809007 -0.22074558790387555
0.5617153833221898 0.524943275272063 -0.22074558790387555
0.4567739575563521 0.12136900440054478 -0.22074558790387555
0.604498958428955 0.42624432938741375 -0.22074558790387555
0.5961927639817813 0.0910703890561571 -0.2194108471398056
0.5677935874170315 0.6522980786376291 -0.2194108471398056
0.36495406022498655 0.18992334349050657 -0.2194108471398056
0.4233130333247832 0.13892597906638798 -0.21869214057453717
0.4098834877909103 0.30081976651142567 -0.21869214057453717
0.43910404328739544 0.5082898174311286 -0.21869214057453717
0.5916443781472968 0.4903324205360645 -0.21869214057453717
0.44810840982654415 0.501913863473533 -0.21869214057453717
0.5944267992785504 0.3498047525527927 -0.21869214057453717
0.5851246828766474 0.5030432595046691 -0.21817877874220257
0.5851246828766474 0.5157951674198603 -0.2173573998104672
0.40146435374062284 0.24401114614527947 -0.2173573998104672
0.41715269133676813 0.24404194785521954 -0.2166386932451988
0.4011152676946354 0.3711606047779118 -0.2166386932451988
0.46478240214077177 0.5348100896895337 -0.2166386932451988
0.5967471947607027 0.46060877044389154 -0.2166386932451988
0.4469995482687014 0.11592736897779807 -0.2166386932451988
0.5727526627173837 0.10778545031697148 -0.2166386932451988
0.5057794780710125 0.0817374709443141 -0.21530395248112885
0.4190418628797594 0.6226565664386297 -0.21530395248112885
0.5888208880694564 0.15235552460026092 -0.2145852459158604
0.5786665910258781 0.09996181599219227 -0.2145852459158604
0.5019087298552096 0.10084479834380775 -0.2145852459158604
0.4201199227276621 0.11176913813588799 -0.2145852459158604
0.44944315059061407 0.5068524043005918 -0.2145852459158604
0.42296394727879577 0.18081630458489087 -0.2145852459158604
0.5983180819676465 0.5144706938924372 -0.21325050515179048
0.3379101588976001 0.36571896935516507 -0.21325050515179048
0.4185593027573649 0.20127890722174777 -0.21253179858652202
0.40191611215307743 0.33190895907760865 -0.21253179858652202
0.4770825516435087 0.5509091167515467 -0.21253179858652202
0.5862848806177235 0.5118833502574707 -0.21253179858652202
0.6015625287480011 0.29718516473849677 -0.21253179858652202
0.5568076442050712 0.504378000268739 -0.21253179858652202
0.6061211818191323 0.47390484190135745 -0.2111970578224521
0.3379101588976001 0.43333898991027786 -0.2111970578224521
0.40701892876648327 0.4381953928441631 -0.21047835125718367
0.4982227918990473 0.5585890097632722 -0.21047835125718367
0.5866134321904177 0.4928273590412106 -0.21047835125718367
0.6133801181283435 0.3379460942258635 -0.21047835125718367
0.40466773157439073 0.40866682024827716 -0.21047835125718367
0.5949196266375913 0.24732746358216087 -0.21047835125718367
0.3963307354172769 0.24537668861928943 -0.20914361049311372
0.4325638135434527 0.6091346157749363 -0.20914361049311372
0.6251463713254524 0.3013639300537003 -0.20914361049311372
0.44853963376570527 0.5183927782914735 -0.2084249039278453
0.5715513960297207 0.5157746329465671 -0.2084249039278453
0.6147764623122937 0.3811095570885562 -0.2084249039278453
0.5224842720951802 0.10247728897063182 -0.2084249039278453
0.4962925514094692 0.5579216393812372 -0.2084249039278453
0.5267246408302639 0.5651292395072149 -0.2079115420955107
0.36495406022498655 0.21859973544471695 -0.20709016316377532
0.5103175966688503 0.5807457064468334 -0.20709016316377532
0.5797754525837209 0.09985914362572529 -0.2063714565985069
0.42678335931136513 0.11144058656319374 -0.2063714565985069
0.39304521969033557 0.40882082879797754 -0.2063714565985069
0.5357598090793527 0.5518742369963358 -0.2063714565985069
0.5980100648682457 0.281414689249178 -0.2063714565985069
0.49439311262983116 0.14530193302398361 -0.2063714565985069
0.4419275333652356 0.5093884117523246 -0.2063714565985069
0.3784760108886798 0.0817374709443141 -0.20503671583443694
0.44608576420714585 0.5669362731570325 -0.20503671583443694
0.6354136079721442 0.21696724481789303 -0.20503671583443694
0.5172479814053673 0.09382200847747052 -0.20431800926916854
0.39966758732745183 0.2679646092420116 -0.20431800926916854
0.4300483405650131 0.5256825163106248 -0.20431800926916854
0.6184315985585159 0.43506388566692217 -0.20431800926916854
0.45511066521958804 0.5237933447676333 -0.20431800926916854
0.41688574318395416 0.1779004093772303 -0.20431800926916854
0.5161699215574648 0.13263216300196587 -0.20431800926916854
0.4311674693595025 0.09391441360729075 -0.2038046474368339
0.391997961552373 0.07913986007270106 -0.20298326850509857
0.5542716367533383 0.56855849654721 -0.20298326850509857
0.4136002274570127 0.1902929640097875 -0.20226456193983014
0.3922546424685403 0.422568658667898 -0.20226456193983014
0.5323510865126511 0.5531371071038788 -0.20226456193983014
0.6242736562104836 0.34465059975615325 -0.20226456193983014
0.5873937421755664 0.15130826646229845 -0.20226456193983014
0.49088171769666256 0.11671794619959347 -0.20226456193983014
0.48039886908039015 0.5477776095743057 -0.20226456193983014
0.4026758876649326 0.12231359017204042 -0.20092982117576022
0.633319091696219 0.3521970186914718 -0.20092982117576022
0.4325638135434527 0.5415145952198235 -0.20092982117576022
0.604129337909674 0.3111178048680577 -0.20021111461049176
0.577742539727676 0.09400681873711099 -0.20021111461049176
0.40130007795427586 0.21743953770364077 -0.20021111461049176
0.4975451542803656 0.5786511901709082 -0.20021111461049176
0.5115496650664534 0.1320263960398111 -0.20021111461049176
0.5360472917054602 0.5449438522598186 -0.20021111461049176
0.5108001567912448 0.06821552028062096 -0.19969775277815718
0.46308830809406765 0.0817374709443141 -0.19887637384642184
0.4596179821074857 0.6226565664386297 -0.19887637384642184
0.5128638713572299 0.10808320017972552 -0.19815766728115342
0.5408010222728784 0.5493792984911896 -0.19815766728115342
0.6204337097046208 0.3622691778418766 -0.19815766728115342
0.5124634491280089 0.0879799508255028 -0.19815766728115342
0.384667154586635 0.3796310750114326 -0.19815766728115342
0.6037802518636864 0.24485305955030812 -0.19815766728115342
0.41498630440431616 0.4734017473056696 -0.19815766728115342
0.6016035976945879 0.32691908206731646 -0.19815766728115342
0.6354136079721442 0.21696724481789303 -0.19682292651708344
0.5030997293062258 0.6004588008084817 -0.19682292651708344
0.4293090995264513 0.07848275692731285 -0.19682292651708344
0.5179769552072824 0.09540316292106103 -0.19610421995181498
0.3988154066857764 0.2915587190561096 -0.19610421995181498
0.5528034219128614 0.5530241675007651 -0.19610421995181498
0.6102178092411624 0.20323994942126594 -0.19610421995181498
0.42046900877364957 0.08362664248730539 -0.19610421995181498
0.590935938818675 0.13474721375118442 -0.19610421995181498
0.6121480497307406 0.2867639195421045 -0.19610421995181498
0.4865078748851718 0.5568949157165681 -0.19610421995181498
0.4789409214765599 0.5784253109646808 -0.19559085811948043
0.6354136079721442 0.18992334349050657 -0.19559085811948043
0.3784760108886798 0.4571281772206629 -0.19559085811948043
0.5321149400697772 0.08791834740562265 -0.19405077262247666
0.39604325279116964 0.261188233055195 -0.19405077262247666
0.493335587255222 0.5753759416806133 -0.19405077262247666
0.6194377877498917 0.31482427729751333 -0.19405077262247666
0.48716497803056014 0.08901694172681869 -0.19405077262247666
0.3924907889114142 0.3926088621328511 -0.19405077262247666
0.5576700920833932 0.524902206325476 -0.19405077262247666
0.5608734699171612 0.516811623847883 -0.19405077262247666
0.6354136079721442 0.12231359017204042 -0.19353741079014203
0.391997961552373 0.4874267925650507 -0.19353741079014203
0.5093319419507678 0.10578333917086649 -0.19199732529313826
0.5504522247207689 0.5520282455460359 -0.19199732529313826
0.6140577557470251 0.2628001892087256 -0.19199732529313826
0.45829350858006257 0.09317517256872891 -0.19199732529313826
0.4177995272455097 0.5128176687923197 -0.19199732529313826
0.6065216040483533 0.2616707931775895 -0.19199732529313826
0.4096781430579765 0.17178113633580205 -0.19199732529313826
0.4921959239874391 0.5684866258906831 -0.19199732529313826
0.47618930205524646 0.10220007358117113 -0.19199732529313826
0.3379101588976001 0.40791731197306874 -0.19148396346080368
0.6354136079721442 0.43333898991027786 -0.19148396346080368
0.5286754157931354 0.08498191772466876 -0.18994387796379988
0.395499089248895 0.278714406011098 -0.18994387796379988
0.5302771047100193 0.5755504847036074 -0.18994387796379988
0.6113780069822385 0.20725443895012252 -0.18994387796379988
0.40556098116265293 0.11255971535768325 -0.18994387796379988
0.41762498422251587 0.11186154326570807 -0.18994387796379988
0.39956491496098484 0.28437165340342524 -0.18994387796379988
0.6152384879613947 0.42485825244011044 -0.18994387796379988
0.3784760108886798 0.14772500087260293 -0.18943051613146528
0.5137057847622586 0.6632224184297092 -0.18943051613146528
0.4993213862202433 0.13286830944483974 -0.1878904306344615
0.4998450152892246 0.5869573846180819 -0.1878904306344615
0.6152384879613947 0.264453214308843 -0.1878904306344615
0.4409316114105066 0.08652200322167261 -0.1878904306344615
0.40387715435259547 0.5023142857027539 -0.1878904306344615
0.4158384850459916 0.1320982666963378 -0.1878904306344615
0.4219474908507732 0.5022013460996403 -0.1878904306344615
0.4721748125263899 0.5659608856755969 -0.1878904306344615
0.5467765540012532 0.0817374709443141 -0.18737706880212693
0.51696049877926 0.6123893297919377 -0.18737706880212693
0.5199174629335073 0.12626647628101687 -0.1858369833051231
0.6201564943151602 0.41752744547437226 -0.1858369833051231
0.559713272176085 0.09552636976082135 -0.1858369833051231
0.3866076623128597 0.32864397782396065 -0.1858369833051231
0.54681762294784 0.5646364121481737 -0.1858369833051231
0.4509010981944443 0.0945099133327988 -0.1858369833051231
0.6017062700610547 0.20084768328258668 -0.1858369833051231
0.5580705143126142 0.536904605965459 -0.1858369833051231
0.6044784239556616 0.4762457718568033 -0.1858369833051231
0.44608576420714585 0.6345460264754987 -0.18450224254105319
0.5112108462571126 0.06821552028062096 -0.18450224254105319
0.4930789063390546 0.12153328018689191 -0.18378353597578478
0.48751406407654757 0.5787025263541417 -0.18378353597578478
0.6242428545005435 0.3599179806497842 -0.18378353597578478
0.5121656992652549 0.08338022880778492 -0.18378353597578478
0.37133001418258216 0.40902617353091153 -0.18378353597578478
0.5788822029954587 0.09207657824753289 -0.18378353597578478
0.4176660531691027 0.5022424150462271 -0.18378353597578478
0.5645388734000302 0.5273868775939756 -0.18378353597578478
0.5798165215303077 0.5550365458835167 -0.18327017414345015
0.464474385041371 0.06957079551798419 -0.1824487952117148
0.5033974791689799 0.09519781818812724 -0.18173008864644638
0.6181851848789953 0.44962282723193114 -0.18173008864644638
0.6095401716224808 0.15428576508983902 -0.18173008864644638
0.4072448079727104 0.10561906338451951 -0.18173008864644638
0.39850738958637566 0.5042034572457452 -0.18173008864644638
0.6079590171788902 0.4594075037562286 -0.18173008864644638
0.4766410604677009 0.5736715803972625 -0.18173008864644638
0.40125900900768907 0.22911338577092946 -0.18173008864644638
0.5691385954177481 0.07206573402313042 -0.18039534788237643
0.4872060469771468 0.6091346157749363 -0.18039534788237643
0.6217376487587507 0.3233050147676809 -0.179676641317108
0.5168372919394997 0.08695322716083369 -0.179676641317108
0.38447207709034775 0.2974829146012508 -0.179676641317108
0.5130178799069303 0.5960849579969911 -0.179676641317108
0.4088362296529477 0.21102251479945833 -0.179676641317108
0.5671570187449366 0.5344918053534862 -0.179676641317108
0.5362629036750407 0.5956126651112431 -0.17834190055303806
0.5648982266826644 0.07408837964252875 -0.17834190055303806
0.5178024121842887 0.11953116904078692 -0.17762319398776963
0.46557297936256703 0.5799448619883915 -0.17762319398776963
0.6135033249681038 0.17204808448861603 -0.17762319398776963
0.4039592922457691 0.11048573355505151 -0.17762319398776963
0.3992466306249375 0.5084438259808292 -0.17762319398776963
0.40615648088816114 0.48357657882254124 -0.17762319398776963
0.6211216145599492 0.3617763504828354 -0.17762319398776963
0.40551991221606626 0.5550365458835167 -0.17710983215543502
0.37569358975742634 0.48185168306589693 -0.17628845322369965
0.5165292748400989 0.1080318639964921 -0.17556974665843122
0.45541868231898885 0.5619258616734469 -0.17556974665843122
0.6232880014924012 0.2623586980329178 -0.17556974665843122
0.4675032198521451 0.08885266594047156 -0.17556974665843122
0.3702622215713262 0.4040876327038526 -0.17556974665843122
0.5820547791192865 0.3059123158881848 -0.17556974665843122
0.4844646947924801 0.5802939480343788 -0.17556974665843122
0.5542716367533383 0.6226565664386297 -0.17423500589436128
0.3784760108886798 0.12231359017204042 -0.17423500589436128
0.6031231487182983 0.11611217923743854 -0.17351629932909288
0.4053453691930724 0.11465423163360833 -0.17351629932909288
0.4718770626636359 0.5860744022664662 -0.17351629932909288
0.6348489099565761 0.39198256069740284 -0.17351629932909288
0.53055432009948 0.25452479647149195 -0.17351629932909288
0.38395871525801323 0.4419121325102655 -0.17351629932909288
0.5208312469950628 0.586587764098801 -0.17351629932909288
0.6099508610883483 0.1799127877599819 -0.17351629932909288
0.6489355586358375 0.4874267925650507 -0.17218155856502293
0.3379101588976001 0.28458726537300577 -0.17218155856502293
0.4898344595586999 0.11382258546522625 -0.17146285199975447
0.38440020643382106 0.4567380222280886 -0.17146285199975447
0.6358345646746586 0.41190099979198525 -0.17146285199975447
0.603102614245005 0.09321624151531573 -0.17146285199975447
0.39058108289512944 0.13645157503453526 -0.17146285199975447
0.4573694572818603 0.5552932267996841 -0.17146285199975447
0.5444253568091608 0.1787731244921992 -0.17146285199975447
0.42038687088047605 0.5205078290406919 -0.17146285199975447
0.3734655994050942 0.4793259428508108 -0.17012811123568455
0.6489355586358375 0.1764013928268133 -0.17012811123568455
0.5063236416132872 0.0990480319306367 -0.16940940467041612
0.3736196079547946 0.4308235169318383 -0.16940940467041612
0.6305366705649657 0.42562829518861217 -0.16940940467041612
0.6178360988330077 0.1380532639514191 -0.16940940467041612
0.42038687088047605 0.08766166648945531 -0.16940940467041612
0.6080308878354169 0.19386596236283626 -0.16940940467041612
0.6092937579429601 0.33500966454490966 -0.16940940467041612
0.4732015361910592 0.09509514582166027 -0.16940940467041612
0.40151568992385644 0.14255031360267018 -0.16940940467041612
0.45829350858006257 0.34415777239711204 -0.16940940467041612
0.5794879699576135 0.5401182510358734 -0.16940940467041612
0.5272277354259519 0.6361785171023226 -0.16807466390634618
0.46803711615777316 0.06821552028062096 -0.16807466390634618
0.5107488206080114 0.11874059181899166 -0.16735595734107775
0.41772765658898287 0.5316683152756462 -0.16735595734107775
0.6158545221601962 0.4856197589152329 -0.16735595734107775
0.6274051633877246 0.2360540377440932 -0.16735595734107775
0.4857070304267298 0.07529991356683834 -0.16735595734107775
0.5774037209183351 0.4367066435303928 -0.16735595734107775
0.6111829294859514 0.22123841526291682 -0.16735595734107775
0.5145887671138741 0.28321145566234907 -0.16735595734107775
0.5914801023609497 0.513402901281181 -0.16735595734107775
0.48741139171008074 0.32569728090636013 -0.16735595734107775
0.40569445523906 0.22757330027392575 -0.16735595734107775
0.36495406022498655 0.47390484190135745 -0.16602121657700777
0.6489355586358375 0.16287944216312014 -0.16602121657700777
0.4100888325238441 0.5594309231683008 -0.16602121657700777
0.5208107125217695 0.11041386289852462 -0.16530251001173935
0.398764070502543 0.15120559409583148 -0.16530251001173935
0.37334239256533386 0.4465015872913368 -0.16530251001173935
0.5291990448621167 0.6020194207787788 -0.16530251001173935
0.4492891420409137 0.09926364390021723 -0.16530251001173935
0.45122964976713853 0.31394129494589784 -0.16530251001173935
0.5027711777335317 0.13396690376603576 -0.16530251001173935
0.5852478897164077 0.2830471798760019 -0.16530251001173935
0.5525672754699874 0.22258342326363345 -0.16530251001173935
0.5864594236407173 0.36723852037887544 -0.16530251001173935
0.4356337173008135 0.5467303514363431 -0.16530251001173935
0.49487567275222566 0.6228208422249766 -0.16478914817940477
0.37522129687167843 0.18992334349050657 -0.16396776924766943
0.48318129021164363 0.639433231119324 -0.16396776924766943
0.5789951425985724 0.2779340960259495 -0.16324906268240097
0.5199687991167407 0.10229247871099136 -0.16324906268240097
0.38405112038783346 0.2512290135079039 -0.16324906268240097
0.40753229059881785 0.5250356804018831 -0.16324906268240097
0.6227335707134798 0.47856616733895563 -0.16324906268240097
0.4396276723563766 0.14745805271978898 -0.16324906268240097
0.3756833225207796 0.3767562487503589 -0.16324906268240097
0.517627869161295 0.3371041808208347 -0.16324906268240097
0.6081951636217641 0.4872625167787036 -0.16324906268240097
0.5976199098756714 0.16725328497461092 -0.16324906268240097
0.5900734909403529 0.3763968954677246 -0.16324906268240097
0.5040853840243084 0.2848850152357598 -0.16324906268240097
0.4482829528495379 0.1933628677671483 -0.16324906268240097
0.548347441208197 0.14313554609153165 -0.16324906268240097
0.3833837500057985 0.0817374709443141 -0.1627357008500664
0.5340657150326487 0.6214861014609068 -0.16191432191833102
0.41524298532048337 0.06821552028062096 -0.16191432191833102
0.4985924124183282 0.2489804886822783 -0.1611956153530626
0.5643335286670963 0.19420478117217713 -0.1611956153530626
0.5759047043679182 0.2391650104480408 -0.1611956153530626
0.4878734173591819 0.11535240372558335 -0.1611956153530626
0.4037128785662485 0.1379300571116588 -0.1611956153530626
0.4058176620788203 0.40479607203247436 -0.1611956153530626
0.6338735224751404 0.40277342641307606 -0.1611956153530626
0.48265766114266234 0.07095687246528765 -0.1611956153530626
0.36885561015072943 0.33679616372143395 -0.1611956153530626
0.49215485504085227 0.6217838513236608 -0.1611956153530626
0.4094727983250426 0.09603973159315592 -0.1611956153530626
0.4510653739807914 0.1536389291810974 -0.1611956153530626
0.5401028501809034 0.15733513437390648 -0.1611956153530626
0.4774624393994362 0.34472247041268017 -0.1611956153530626
0.5708840256476857 0.36434315964450836 -0.1611956153530626
0.5871575957326923 0.4371789364161406 -0.1611956153530626
0.37453339201635016 0.4339242223991393 -0.1611956153530626
0.43042822832094063 0.19303431619445421 -0.1611956153530626
0.6100946024014021 0.12336084831000303 -0.1611956153530626
0.6018910803206952 0.13337140404052772 -0.1611956153530626
0.36745926596677936 0.4874267925650507 -0.160682253520728
0.3554465990901498 0.3727828281680891 -0.15986087458899265
0.6354136079721442 0.5415145952198235 -0.15986087458899265
0.4329231668260869 0.09691244670812481 -0.15914216802372422
0.4024602756953521 0.315501914916195 -0.15914216802372422
0.4400486290588911 0.2074187147364695 -0.15914216802372422
0.5525364737600473 0.13637970437800837 -0.15914216802372422
0.5994577452354293 0.3896621652152505 -0.15914216802372422
0.601634399404528 0.14709869943715465 -0.15914216802372422
0.41586928675593166 0.5477160061544255 -0.15914216802372422
0.6365738057132204 0.30629220364411247 -0.15914216802372422
0.5045576769100563 0.08444802141904087 -0.15914216802372422
0.3639170693236707 0.35801854187014615 -0.15914216802372422
0.46658943579058954 0.17644246177340012 -0.15914216802372422
0.5172171796954272 0.31403370007571807 -0.15914216802372422
0.42590037695974964 0.4479390004218737 -0.15914216802372422
0.43312851155902066 0.2381793557299585 -0.15914216802372422
0.5101019846992697 0.6061468499107491 -0.15914216802372422
0.5883075262371219 0.38947735495561003 -0.15914216802372422
0.6295510158468832 0.32667266838779585 -0.15914216802372422
0.6043962860624881 0.12045522033898921 -0.15914216802372422
0.6274873012808981 0.4343349118650069 -0.15914216802372422
0.6624575092995308 0.44686094057397097 -0.15780742725965427
0.3551693837006891 0.36571896935516507 -0.15780742725965427
0.45220503724857425 0.19792152083827952 -0.15708872069438584
0.4692486500820828 0.35547226718176655 -0.15708872069438584
0.44533625593193743 0.21570437471034987 -0.15708872069438584
0.5892931809552043 0.10228221147434462 -0.15708872069438584
0.6355060131019646 0.33292541550563115 -0.15708872069438584
0.3951294687296141 0.09654282618884388 -0.15708872069438584
0.4407057322042793 0.2241235087606373 -0.15708872069438584
0.6095504388591274 0.20679241330102135 -0.15708872069438584
0.4900706060015739 0.6202026968800702 -0.15708872069438584
0.6424158633651883 0.3642610217513349 -0.15708872069438584
0.5744570240007345 0.08048486807341769 -0.15708872069438584
0.581171796767671 0.40767089829354813 -0.15708872069438584
0.4281078328387883 0.31144635644075175 -0.15708872069438584
0.43173216737507064 0.42975572432058234 -0.15708872069438584
0.5188188686123112 0.1697892924263438 -0.15708872069438584
0.521560220796978 0.0945099133327988 -0.15708872069438584
0.6035749071307527 0.10256969410045205 -0.15708872069438584
0.6196020635362388 0.45592691053300005 -0.15708872069438584
0.40130007795427586 0.5079818003317278 -0.15708872069438584
0.6489355586358375 0.4874267925650507 -0.1557539799303159
0.3515347819277602 0.28458726537300577 -0.1557539799303159
0.39930823404481763 0.42949904340441514 -0.1557539799303159
0.4513836583168389 0.19265442843852668 -0.15503527336504747
0.44530545422199735 0.2043488109791087 -0.15503527336504747
0.6267480602423363 0.3731729831606634 -0.15503527336504747
0.5790156770718657 0.27814970799553 -0.15503527336504747
0.47802713741500436 0.3644047630643885 -0.15503527336504747
0.6275078357541916 0.4321582576959083 -0.15503527336504747
0.634119936154661 0.3293524171525824 -0.15503527336504747
0.41623890727521257 0.08369851314383228 -0.15503527336504747
0.3605802174134958 0.40789677749977543 -0.15503527336504747
0.5517048275916654 0.590756262177358 -0.15503527336504747
0.5236136681263163 0.1708365505643064 -0.15503527336504747
0.5043831338870624 0.22296331101956113 -0.15503527336504747
0.6083183704615244 0.1496449741255343 -0.15503527336504747
0.4621231878492785 0.10187152200847688 -0.15503527336504747
0.4270913764107659 0.2826262231734876 -0.15503527336504747
0.4194730868189205 0.5474285235283182 -0.15503527336504747
0.5810485899279106 0.3519300705386578 -0.15503527336504747
0.38796293755022304 0.47753944367428647 -0.15503527336504747
0.4577082760912011 0.3488088305980635 -0.15370053260097752
0.40230626714565165 0.3443425826567525 -0.15370053260097752
0.6354136079721442 0.5820804472109034 -0.15370053260097752
0.47576834535273216 0.23243997044445774 -0.1529818260357091
0.5513968104922646 0.15798197028264807 -0.1529818260357091
0.4973192750741383 0.12290908989754863 -0.1529818260357091
0.4501823916291759 0.1854570955491956 -0.1529818260357091
0.49962940331964406 0.08590596902287106 -0.1529818260357091
0.4645154539879578 0.19126835149122323 -0.1529818260357091
0.5365093173545613 0.08422214221281359 -0.1529818260357091
0.37183310877827014 0.3435725399082507 -0.1529818260357091
0.472339088312737 0.6136419326628341 -0.1529818260357091
0.6449108018703343 0.40603840766672405 -0.1529818260357091
0.4724930968624374 0.09303143125567527 -0.1529818260357091
0.43908350881410196 0.28832453951240167 -0.1529818260357091
0.4607473781386218 0.4088516305079176 -0.1529818260357091
0.4204176725904161 0.45323689453156674 -0.1529818260357091
0.4740229151227945 0.6056745570250013 -0.1529818260357091
0.47170251964064214 0.21982153660567327 -0.1529818260357091
0.5278745713346934 0.09148107852202468 -0.1529818260357091
0.615628642953969 0.19783938294510603 -0.1529818260357091
0.3988154066857764 0.45848345245802624 -0.1529818260357091
0.6382165635766911 0.4874267925650507 -0.15164708527163914
0.47552193167321155 0.329598830832103 -0.15164708527163914
0.3514321095612934 0.33704257740095456 -0.15164708527163914
0.5101122519359165 0.13313525759765368 -0.1509283787063707
0.4431288000528986 0.32470135895163094 -0.1509283787063707
0.5767568850095935 0.2698435135483562 -0.1509283787063707
0.4773494997963227 0.10232328042093143 -0.1509283787063707
0.43062330581722785 0.31431091546517875 -0.1509283787063707
0.6081746291484708 0.187110120649313 -0.1509283787063707
0.49125133821594347 0.6185702062532463 -0.1509283787063707
0.6446951899007537 0.38991884613141786 -0.1509283787063707
0.6047761738184156 0.07719935234647636 -0.1509283787063707
0.37856841601850005 0.15160601632505247 -0.1509283787063707
0.6169633837180389 0.19757243479229208 -0.1509283787063707
0.4653881691029266 0.20239803601623726 -0.1509283787063707
0.4418967316552955 0.30692877231620735 -0.1509283787063707
0.4391553794706288 0.0816142641045538 -0.1509283787063707
0.5537890766309437 0.3812224966916699 -0.1509283787063707
0.6046118980320686 0.4589968142903608 -0.1509283787063707
0.3648924568051064 0.41115149151677666 -0.1509283787063707
0.4190418628797594 0.3521970186914718 -0.14959363794230077
0.5982872802577064 0.3791177131790979 -0.14959363794230077
0.5001838340985655 0.6767443690934025 -0.14959363794230077
0.486436004228645 0.10393523657446203 -0.14887493137703234
0.5508218452400498 0.16823893969269338 -0.14887493137703234
0.6208341319338417 0.44062872792942903 -0.14887493137703234
0.4844954965024202 0.22020142436160095 -0.14887493137703234
0.4311572021228559 0.43945826295170626 -0.14887493137703234
0.634592229040409 0.39755767019655663 -0.14887493137703234
0.6389968735618395 0.402075254321101 -0.14887493137703234
0.4121936160364159 0.08051566978335777 -0.14887493137703234
0.3627774060558878 0.37573979232233634 -0.14887493137703234
0.4853784788540357 0.6244122639052139 -0.14887493137703234
0.6003407275870448 0.08894507107029179 -0.14887493137703234
0.5023194193210774 0.1885680682531432 -0.14887493137703234
0.4549361221965942 0.24284068116755653 -0.14887493137703234
0.41437027020551465 0.08343156499101832 -0.14887493137703234
0.57530920464241 0.3415909632354391 -0.14887493137703234
0.6001148483808175 0.46267248500987657 -0.14887493137703234
0.38181286279885457 0.469787680006034 -0.14887493137703234
0.40992455673749695 0.5820804472109034 -0.14836156954469773
0.489567511405886 0.3341985528498209 -0.1475401906129624
0.5883999313669421 0.38718776118339776 -0.1475401906129624
0.41465775283162204 0.2877393070235402 -0.14682148404769396
0.5398872382113229 0.09458178398932571 -0.14682148404769396
0.5103381311421437 0.3229559287216933 -0.14682148404769396
0.5580602470759677 0.20282925995539836 -0.14682148404769396
0.5057897453076592 0.09253860389663404 -0.14682148404769396
0.5088699163016667 0.6186010079631863 -0.14682148404769396
0.3920903666821932 0.15803330646588148 -0.14682148404769396
0.5669722084852962 0.3520430101417714 -0.14682148404769396
0.6213988299494099 0.14977844820194133 -0.14682148404769396
0.3775211578805375 0.12988054358065243 -0.14682148404769396
0.4017005001834969 0.5391839325010246 -0.14682148404769396
0.6149510053352873 0.10877110503505394 -0.14682148404769396
0.5150713272362686 0.18009759801962236 -0.14682148404769396
0.5812744691341379 0.5485065833762207 -0.14682148404769396
0.36621693033252967 0.40982701798935334 -0.14682148404769396
0.3887843164819584 0.11279586180055712 -0.14682148404769396
0.6213885627127631 0.47880231378182947 -0.14682148404769396
0.441783792052182 0.6042371438944643 -0.14630812221535935
0.5954535229432194 0.4364088936676388 -0.14548674328362401
0.47363276013022027 0.3668997015695346 -0.14548674328362401
0.5130794833268105 0.11879192800222521 -0.14476803671835559
0.36809583463887424 0.3847441588614851 -0.14476803671835559
0.4269784368076522 0.09838066154860176 -0.14476803671835559
0.533090327551213 0.27253352954978943 -0.14476803671835559
0.563347873949014 0.3468067194519586 -0.14476803671835559
0.444946100939363 0.27849879404151745 -0.14476803671835559
0.3722335310074911 0.23501704684277733 -0.14476803671835559
0.6339864620782539 0.4620359163377817 -0.14476803671835559
0.4879863569622955 0.07448880187174975 -0.14476803671835559
0.36262339750618744 0.32171359308744363 -0.14476803671835559
0.5412322462120396 0.6084980471028413 -0.14476803671835559
0.5325666984822316 0.22895937722122905 -0.14476803671835559
0.5675882426840977 0.08627558954215199 -0.14476803671835559
0.6073121812701486 0.4635349328881987 -0.14476803671835559
0.44156818008260146 0.57259352054936 -0.14476803671835559
0.4848548497850544 0.4245502353407096 -0.14476803671835559
0.36233591488008016 0.4152070499922199 -0.14476803671835559
0.4268552299678919 0.08468416786191474 -0.14476803671835559
0.5161083181375846 0.6429754277624328 -0.14343329595428564
0.46832459878388044 0.37472333589431384 -0.14343329595428564
0.4899371319251669 0.1134837666558854 -0.1427145893890172
0.3776546319569444 0.45589610882306 -0.1427145893890172
0.37443071964988317 0.34510235816860785 -0.1427145893890172
0.4927914237129473 0.09663523131866411 -0.1427145893890172
0.41917533695616643 0.5538866153790873 -0.1427145893890172
0.6316044631762214 0.2200576830485473 -0.1427145893890172
0.3819771385852017 0.11793974736054981 -0.1427145893890172
0.4677085645850789 0.6188268871694134 -0.1427145893890172
0.5884204658402354 0.08226110001329541 -0.1427145893890172
0.4167009329243137 0.5411552419371892 -0.1427145893890172
0.6105360935772097 0.4660709403399316 -0.1427145893890172
0.37040596288438 0.2738272013672727 -0.1427145893890172
0.4305206334507609 0.08578276218311076 -0.1427145893890172
0.5758122992380978 0.3214979811178631 -0.1427145893890172
0.5171145073289604 0.32208321360672454 -0.1427145893890172
0.4245861706689731 0.27276967599266344 -0.1427145893890172
0.5326488363754052 0.22749116238075212 -0.1427145893890172
0.5542716367533383 0.6226565664386297 -0.14137984862494726
0.45030559846893625 0.40628482134624466 -0.14137984862494726
0.4989517657009624 0.27366292558092553 -0.14137984862494726
0.5155333528853697 0.09701511907459162 -0.1406611420596788
0.4195860264220341 0.09103958734621702 -0.1406611420596788
0.4826781956159558 0.08906827791005209 -0.1406611420596788
0.36314702657516873 0.3257178153796535 -0.1406611420596788
0.6221894071712051 0.23161859151272227 -0.1406611420596788
0.36973859250234503 0.2018128035273758 -0.1406611420596788
0.6212448213997095 0.5174481925199778 -0.1406611420596788
0.5449079169315553 0.07410891411582209 -0.1406611420596788
0.4310750642296823 0.0850024521979621 -0.1406611420596788
0.3684757223948019 0.26399118865974186 -0.1406611420596788
0.5541894988601647 0.5869984535646686 -0.1406611420596788
0.5209647210714698 0.37008254493000914 -0.1406611420596788
0.4978223696698263 0.2940433903246091 -0.1406611420596788
0.542515650792876 0.20054993341983265 -0.1406611420596788
0.5814592793937784 0.3271654957468371 -0.1406611420596788
0.5171863779854872 0.31353060548003026 -0.1406611420596788
0.6541410476157103 0.44437626930547164 -0.14014778022734423
0.391997961552373 0.3927628706825515 -0.1393264012956089
0.6354136079721442 0.56855849654721 -0.1393264012956089
0.46977227915106406 0.08460202996874125 -0.13860769473034046
0.5166730161531525 0.09840119602189508 -0.13860769473034046
0.6164705563589977 0.157252996480733 -0.13860769473034046
0.6386888564624391 0.278313983781877 -0.13860769473034046
0.37608374475000056 0.19247988541553282 -0.13860769473034046
0.5901966977801132 0.5593795869850674 -0.13860769473034046
0.5612636249097355 0.39314275843847907 -0.13860769473034046
0.4970625941579711 0.07020736419007921 -0.13860769473034046
0.4011152676946354 0.5479213508873594 -0.13860769473034046
0.4315268226421367 0.08049513531006444 -0.13860769473034046
0.44709195339852165 0.43885249598955145 -0.13860769473034046
0.6174356766037868 0.47095814498375693 -0.13860769473034046
0.47340688092399297 0.2649768433778243 -0.13860769473034046
0.5560273342199226 0.29162032247598974 -0.13860769473034046
0.5290655707857096 0.3299787185880307 -0.13860769473034046
0.5093627436607079 0.31154902880721874 -0.13860769473034046
0.48278086798242265 0.2036301044138402 -0.13860769473034046
0.4789409214765599 0.3860994340988485 -0.13727295396627048
0.6218916573084511 0.5398923718296462 -0.13727295396627048
0.5264987616240366 0.22037596738459467 -0.13655424740100208
0.4825139198296087 0.2010427607788739 -0.13655424740100208
0.5791799528582128 0.33611852610275245 -0.13655424740100208
0.5305132511528933 0.21114572163921866 -0.13655424740100208
0.6295202141369433 0.17391672155831395 -0.13655424740100208
0.4064234290409751 0.5441943439846103 -0.13655424740100208
0.36186362199433225 0.36993880361695547 -0.13655424740100208
0.6197868737958793 0.2294419373436237 -0.13655424740100208
0.3550667113342223 0.2596994837414246 -0.13655424740100208
0.6298693001829307 0.5054252584067016 -0.13655424740100208
0.4552030703494083 0.5983232155859698 -0.13655424740100208
0.4894751062760658 0.42053574581185305 -0.13655424740100208
0.6324874455278371 0.2822668698908534 -0.13655424740100208
0.6044476222457216 0.082610186059283 -0.13655424740100208
0.4884483826113966 0.1178165405207895 -0.13655424740100208
0.42485311882178706 0.07682973182719544 -0.13655424740100208
0.5339938443761217 0.081809341600841 -0.13655424740100208
0.391997961552373 0.33867506802777864 -0.13521950663693214
0.5666025879660153 0.6043808852075181 -0.13521950663693214
0.4745773459017159 0.21480085788544104 -0.13450080007166368
0.5416429356779072 0.2008168815726466 -0.13450080007166368
0.44475102344307593 0.2808191895236698 -0.13450080007166368
0.5125455870211825 0.18254120034153504 -0.13450080007166368
0.4618870414064047 0.21444150460280686 -0.13450080007166368
0.49177496728492476 0.07825687772108557 -0.13450080007166368
0.4861485216025376 0.0996537988927915 -0.13450080007166368
0.637323313988429 0.34339799688525685 -0.13450080007166368
0.3632907678882225 0.4351254890868023 -0.13450080007166368
0.41017097041701756 0.45574210027335954 -0.13450080007166368
0.35589835750260423 0.41262997359390036 -0.13450080007166368
0.6464919563139249 0.4607011755737118 -0.13450080007166368
0.6317790061992155 0.4783505553693751 -0.13450080007166368
0.4471740912916951 0.44123449489158395 -0.13450080007166368
0.3392859686082568 0.3927628706825515 -0.1339874382393291
0.47303726040471206 0.41228088754791276 -0.13316605930759376
0.6378982792406436 0.270983176816139 -0.13244735274232533
0.36735659360031236 0.2792893712633127 -0.13244735274232533
0.6436171300528511 0.28333466250210937 -0.13244735274232533
0.42663961799831135 0.4409264777921832 -0.13244735274232533
0.36025166584080165 0.4650955528584959 -0.13244735274232533
0.5934822135070545 0.4618819077880813 -0.13244735274232533
0.43983301708931055 0.44610116506211583 -0.13244735274232533
0.36849625686809523 0.2875339622906064 -0.13244735274232533
0.4542584845779127 0.2436312583893518 -0.13244735274232533
0.5742003430845671 0.34436311713004597 -0.13244735274232533
0.5162725939239315 0.32595396182252734 -0.13244735274232533
0.5593641861300974 0.3004706804654381 -0.13244735274232533
0.5046706165131698 0.0845404265488611 -0.13244735274232533
0.46606580672160824 0.07174744968708291 -0.13244735274232533
0.3472225425361496 0.44686094057397097 -0.13111261197825536
0.5828042873944951 0.28610681639671615 -0.13111261197825536
0.6390687442183665 0.35491783640284513 -0.13039390541298693
0.36173014791792535 0.31618981977152344 -0.13039390541298693
0.559210177580397 0.5983745517692032 -0.13039390541298693
0.6236986909582689 0.28743128992413947 -0.13039390541298693
0.36358851775097656 0.2966512684328687 -0.13039390541298693
0.5286651485564887 0.399775393312242 -0.13039390541298693
0.646584361443745 0.43153195626046004 -0.13039390541298693
0.5687689748984672 0.33962992103592105 -0.13039390541298693
0.5491996218498726 0.3302251322675511 -0.13039390541298693
0.4300483405650131 0.30569670391860426 -0.13039390541298693
0.5210571262012901 0.19530337549337315 -0.13039390541298693
0.4969393873182108 0.08370878038047902 -0.13039390541298693
0.6169839181913322 0.5476749372078388 -0.12988054358065235
0.5161083181375846 0.3667662274931277 -0.129059164648917
0.38490330102950887 0.07998177347772988 -0.12834045808364855
0.5357700763159995 0.3379871631724502 -0.12834045808364855
0.5357495418427062 0.24181395750288742 -0.12834045808364855
0.5335318187270206 0.18515934568644157 -0.12834045808364855
0.562013133184944 0.29183593444557027 -0.12834045808364855
0.6463276805275778 0.3362725346524528 -0.12834045808364855
0.36919442896007026 0.4567996256479688 -0.12834045808364855
0.43649616517913564 0.6044835575739849 -0.12834045808364855
0.6503421700564344 0.3176375001387069 -0.12834045808364855
0.42263539570610154 0.43677851418691954 -0.12834045808364855
0.5391890661193479 0.41825641927628754 -0.12834045808364855
0.3589374595500251 0.3333361049714989 -0.12834045808364855
0.5935438169269347 0.44282591657182124 -0.1270057173195786
0.5632965377657804 0.35498970705937205 -0.1270057173195786
0.6365738057132204 0.3193623958953512 -0.1262870107543102
0.3550564440975756 0.3336954582541331 -0.1262870107543102
0.6117578947381661 0.5404570698452144 -0.1262870107543102
0.653247798027448 0.3015179386034007 -0.1262870107543102
0.36045701057373547 0.3569610164955368 -0.1262870107543102
0.509598890103582 0.4423844253960134 -0.1262870107543102
0.4987053520214418 0.11163566405948094 -0.1262870107543102
0.46134287786413003 0.20017004566390514 -0.1262870107543102
0.5878249661147275 0.30110724913753295 -0.1262870107543102
0.5321662762530106 0.33514313862131656 -0.1262870107543102
0.4676982973484323 0.2061661118655731 -0.1262870107543102
0.473139932771179 0.6615899278028853 -0.12495226999024024
0.340045744120112 0.41888272071173566 -0.12495226999024024
0.6467589044667387 0.4400229609672742 -0.1242335634249718
0.6404753556389633 0.35089307963734195 -0.1242335634249718
0.6521594709428987 0.3349583283616762 -0.1242335634249718
0.583605131852937 0.423605649569214 -0.1242335634249718
0.39492412399668014 0.47834028813272833 -0.1242335634249718
0.636522469529987 0.476718064742551 -0.1242335634249718
0.49525556050815334 0.2939407179581421 -0.1242335634249718
0.49713446481449786 0.19695640059349057 -0.1242335634249718
0.5852581569530545 0.33787422356933666 -0.1242335634249718
0.44749237562774263 0.31129234789105137 -0.1242335634249718
0.34090819199843414 0.43333898991027786 -0.12372020159263722
0.5441070724731133 0.34640629722273764 -0.12289882266090187
0.5692001988376283 0.6117322266465492 -0.12289882266090187
0.5924862915523255 0.4649826132553822 -0.12218011609563344
0.3610525102992437 0.3718074406866534 -0.12218011609563344
0.46498774687370553 0.6204285760862973 -0.12218011609563344
0.3667713611114511 0.4984640719602445 -0.12218011609563344
0.4184668976275447 0.46629681954615876 -0.12218011609563344
0.5256465809823613 0.42750719949495686 -0.12218011609563344
0.5383163510043791 0.27083943550308537 -0.12218011609563344
0.5293941223584039 0.3174732243523599 -0.12218011609563344
0.4503672018888164 0.23021198009212548 -0.12218011609563344
0.5398769709746762 0.18634007790081109 -0.12218011609563344
0.3379101588976001 0.44686094057397097 -0.12166675426329883
0.40551991221606626 0.36571896935516507 -0.12084537533156348
0.4610040590547892 0.6361785171023226 -0.12084537533156348
0.6509890059651758 0.4205870819950865 -0.12012666876629505
0.5089520541948404 0.4402796418834416 -0.12012666876629505
0.3444606558781896 0.324999108814385 -0.12012666876629505
0.47666159494099425 0.6397925844019582 -0.12012666876629505
0.5739128604584599 0.5816492232717423 -0.12012666876629505
0.5795598406141403 0.5770084323074375 -0.12012666876629505
0.5403903328070109 0.19626849573816213 -0.12012666876629505
0.4423895590143368 0.3239621179130691 -0.12012666876629505
0.5357495418427062 0.3259744962958208 -0.12012666876629505
0.43398069220069607 0.32445494527211033 -0.12012666876629505
0.6083594394081112 0.3521970186914718 -0.11879192800222511
0.6218916573084511 0.5820804472109034 -0.11879192800222511
0.5156873614350701 0.6356548880333415 -0.11807322143695667
0.3531980742645244 0.35437367286057053 -0.11807322143695667
0.614827798495527 0.5529830985541785 -0.11807322143695667
0.6342431429944213 0.36546228843899775 -0.11807322143695667
0.3949754601799137 0.4822418380584714 -0.11807322143695667
0.5815927534701855 0.576854423757737 -0.11807322143695667
0.4557677683649763 0.25601354578526225 -0.11807322143695667
0.516056981954351 0.20408186282629476 -0.11807322143695667
0.5613252283296156 0.2963535185701147 -0.11807322143695667
0.5497745871020873 0.20859944695083915 -0.11807322143695667
0.5272277354259519 0.3909147680861469 -0.11673848067288672
0.5805249608589294 0.3531621389362609 -0.11673848067288672
0.4039798267190624 0.4753319877952477 -0.11601977410761831
0.3663196026989965 0.467621293073582 -0.11601977410761831
0.5127098628075295 0.6426982123729722 -0.11601977410761831
0.6506912561024217 0.46271355395646335 -0.11601977410761831
0.6322102301383765 0.47890498614829646 -0.11601977410761831
0.5532654475619625 0.6052125313759 -0.11601977410761831
0.45096270161432445 0.22995529917595828 -0.11601977410761831
0.5102457260123234 0.2039997249331211 -0.11601977410761831
0.5722598353583425 0.2920618136517974 -0.11601977410761831
0.6611227685354606 0.33812063724885727 -0.11601977410761831
0.3458467328254929 0.45033126656055295 -0.11468503334354835
0.45244118369144815 0.3285721071674339 -0.11468503334354835
0.3674181970201925 0.4699930247389678 -0.11396632677827992
0.41760444974922256 0.44868850869708227 -0.11396632677827992
0.3449432160005841 0.433400593330158 -0.11396632677827992
0.4636119371630488 0.6360450430259159 -0.11396632677827992
0.5805557625688694 0.5754170106272003 -0.11396632677827992
0.5502058110412483 0.6088882020954157 -0.11396632677827992
0.4613736795740701 0.20595049989599254 -0.11396632677827992
0.5377721874621044 0.25782057943508 -0.11396632677827992
0.5619207280551237 0.29969037048028957 -0.11396632677827992
0.651481833324217 0.3370117756910145 -0.11396632677827992
0.5638407013080551 0.4027836936497228 -0.11263158601420997
0.5131205522733971 0.11400739572486672 -0.11191287944894154
0.4418864644186488 0.30971119344746084 -0.11191287944894154
0.5214678156671577 0.2012378382751611 -0.11191287944894154
0.570011310532717 0.29531652766879884 -0.11191287944894154
0.47443360458866213 0.6393202915162105 -0.11191287944894154
0.3528387209818902 0.44123449489158395 -0.11191287944894154
0.49376681119438304 0.6539819054476864 -0.11191287944894154
0.6633096899412062 0.43958146979146656 -0.11191287944894154
0.3867411363892667 0.48817630084025915 -0.11191287944894154
0.4733555447407596 0.6308087523361028 -0.11191287944894154
0.5272277354259519 0.3927628706825515 -0.1105781386848716
0.4677804352416058 0.2719482970609281 -0.10985943211960315
0.4940029576372569 0.29773959551741813 -0.10985943211960315
0.5732146883664848 0.31269895931164815 -0.10985943211960315
0.43213258960429163 0.3110253997382374 -0.10985943211960315
0.598235944074473 0.570529805983375 -0.10985943211960315
0.3560626332889514 0.3934918444844666 -0.10985943211960315
0.38818881675645034 0.5512479355608875 -0.10985943211960315
0.5840466230287448 0.5950376998590284 -0.10985943211960315
0.5604422459780002 0.4547564455552771 -0.10985943211960315
0.6062033197123058 0.48251905344793206 -0.10985943211960315
0.5234699268132627 0.33867506802777864 -0.10852469135553322
0.610731171073497 0.4610399943830525 -0.10852469135553322
0.65674892572397 0.4261929932041803 -0.10780598479026479
0.34488161258070393 0.39730098928038926 -0.10780598479026479
0.41315873628120503 0.5908281328338848 -0.10780598479026479
0.3391114255852631 0.42513546782957096 -0.10780598479026479
0.5570540578845918 0.43612141104153135 -0.10780598479026479
0.5147119739536344 0.4552698073876117 -0.10780598479026479
