0.6735777446508445 0.17370477460395747 -0.13186663907843696
0.6196600345381014 0.6087761164171497 -0.13058733586349688
0.11777954252315476 0.48189875987697905 -0.13058733586349688
0.5238599053270131 0.17055572053641263 -0.13058733586349688
0.10558679880537984 0.20397505682823144 -0.12989848028622147
0.3279493791498845 0.23254288169723916 -0.12989848028622147
0.3196339082527741 0.3484871161466529 -0.12989848028622147
0.14776444172255754 0.48170194399775756 -0.12989848028622147
0.14737080996411436 0.4855890576123831 -0.12989848028622147
0.2027547983770579 0.6079986936942248 -0.12989848028622147
0.18398840429328336 0.5877069765464831 -0.12989848028622147
0.14670163597476113 0.30093639972672703 -0.12989848028622147
0.3515771254504313 0.2792472898365124 -0.12989848028622147
0.6138736476889879 0.3941976040958573 -0.12989848028622147
0.6770220225372215 0.1743739485933107 -0.12989848028622147
0.4610461174734561 0.5890748469070729 -0.12989848028622147
0.31759686390283104 0.5478123978282753 -0.12989848028622147
0.10651183343772105 0.6055089728220721 -0.12989848028622147
0.5406581406185722 0.2211177199084283 -0.12861917707128143
0.48068834221976664 0.5710661939583012 -0.12861917707128143
0.14298181585747388 0.49685676669781664 -0.12861917707128143
0.31467414809639105 0.3636911428165175 -0.12861917707128143
0.3199094504836842 0.1903947611619447 -0.127930321494006
0.47353408501006333 0.19483295923839056 -0.127930321494006
0.22596923133123956 0.6073196789109102 -0.127930321494006
0.5494164472439309 0.4740556470900004 -0.127930321494006
0.35030766302945227 0.511007828413846 -0.127930321494006
0.5136254796074926 0.48112133715405403 -0.127930321494006
0.13929151812206986 0.43623747589758 -0.127930321494006
0.28708056182953007 0.49511494616670604 -0.127930321494006
0.6713242028337576 0.20924972239136894 -0.127930321494006
0.6524790823982946 0.5863194245979713 -0.127930321494006
0.4777361040314433 0.5887501007063572 -0.127930321494006
0.189666542408825 0.5877069765464831 -0.127930321494006
0.16962084511011044 0.6099471708985179 -0.12743828179595212
0.5148654196465884 0.5926076919390996 -0.1266510182790659
0.12256216838823827 0.3377704915230396 -0.1266510182790659
0.5113227338206006 0.17664717199831953 -0.1266510182790659
0.6657838358336712 0.5776103219424179 -0.12596216270179053
0.47022757823914135 0.5899113143937645 -0.12596216270179053
0.3243476485601302 0.5494754920076975 -0.12596216270179053
0.12043655689264561 0.5891929364346059 -0.12596216270179053
0.31621915274828016 0.20258750487971963 -0.12596216270179053
0.47420325899941657 0.18944020414772025 -0.12596216270179053
0.5681237965639391 0.19892672952619886 -0.12596216270179053
0.5750812378944208 0.5858470664878395 -0.12596216270179053
0.583239256088154 0.5882285386264201 -0.12596216270179053
0.22257415741466785 0.20410298714972552 -0.12596216270179053
0.13880931921797715 0.34367496789968605 -0.12596216270179053
0.4811607003298982 0.4447891258497562 -0.12596216270179053
0.6705467801108327 0.17402952080467304 -0.12596216270179053
0.5178274986288727 0.272959022495384 -0.12468285948685046
0.6263812968135174 0.6099471708985179 -0.12468285948685046
0.14849266047567725 0.6049578883602519 -0.12468285948685046
0.2853289005044583 0.17517105290415802 -0.12468285948685046
0.24002188510765804 0.4291521042456043 -0.12399400390957503
0.19667318770911213 0.5978134719445097 -0.12399400390957503
0.4410791465264301 0.5101123161633879 -0.12399400390957503
0.5634592602263886 0.19126075103051945 -0.12399400390957503
0.5812809380898998 0.18128218595398704 -0.12399400390957503
0.48104261080236543 0.4494536621873069 -0.12399400390957503
0.4093721083838388 0.2712565651401176 -0.12399400390957503
0.5186147621457589 0.2938805504566346 -0.12399400390957503
0.457218048622597 0.22974809621229314 -0.12399400390957503
0.11452223972203812 0.19528563576060018 -0.12399400390957503
0.10254599347140694 0.5481174624410687 -0.12399400390957503
0.3271522748390372 0.5291837748599558 -0.12399400390957503
0.6738926500575988 0.5684288611767324 -0.12399400390957503
0.520277856325181 0.5062645657246067 -0.12271470069463498
0.6568287133290908 0.3248101658763008 -0.12271470069463498
0.3251545936649385 0.5192248913713455 -0.12271470069463498
0.18713745836082807 0.198690550471133 -0.12271470069463498
0.1437001938166326 0.5306205307782733 -0.12271470069463498
0.20825580220130013 0.5952548655146294 -0.12202584511735956
0.30773638835383155 0.6024681674880992 -0.12202584511735956
0.5686945626136816 0.5869295538235579 -0.12202584511735956
0.6777404004963802 0.575868501411307 -0.12202584511735956
0.5824421517773068 0.18552356815121135 -0.12202584511735956
0.46175465463865367 0.2501579028875676 -0.12202584511735956
0.1499195756000334 0.4010467966927673 -0.12202584511735956
0.6314591464974333 0.3869154165646601 -0.12202584511735956
0.4039301493233629 0.2736872412485037 -0.12202584511735956
0.1415352191451956 0.46972569774712636 -0.12202584511735956
0.3385577550399258 0.43821547548375644 -0.12202584511735956
0.24616254053937028 0.19151661167350756 -0.12202584511735956
0.10415004288706253 0.20832468775902774 -0.12202584511735956
0.5418291950999404 0.1743247446235054 -0.1207465419024195
0.6232617651278558 0.5062645657246067 -0.1207465419024195
0.23448151810757145 0.5321852170180845 -0.1207465419024195
0.22629397753195513 0.20048157497204908 -0.1207465419024195
0.1925400542454596 0.5805330377488578 -0.1207465419024195
0.19727347614073779 0.5973214322464557 -0.12005768632514408
0.3153826852615887 0.5478025570343142 -0.12005768632514408
0.5281308099061207 0.5910528464932494 -0.12005768632514408
0.6698972877094016 0.5684387019706936 -0.12005768632514408
0.6800726686651555 0.17710968931449028 -0.12005768632514408
0.46368345025502483 0.2468218737347624 -0.12005768632514408
0.14604230277936903 0.4696568121893988 -0.12005768632514408
0.5078095703764959 0.49608918476885255 -0.12005768632514408
0.4713789511325873 0.5156625239574355 -0.12005768632514408
0.24958713683782519 0.34447207221053333 -0.12005768632514408
0.3152252325582114 0.21104074689228505 -0.12005768632514408
0.1940653773094266 0.18190215597353493 -0.12005768632514408
0.22805547965098785 0.269406495875435 -0.11956564662709022
0.5964948055537254 0.6040918984916769 -0.11877838311020403
0.5888780310278514 0.19762774472333658 -0.11877838311020403
0.3660234109852929 0.37824567708495094 -0.11877838311020403
0.20446709652628545 0.5111160771474178 -0.11877838311020403
0.24093707894603827 0.1777690225098824 -0.11877838311020403
0.12000356195835825 0.5278749492631327 -0.1180895275329286
0.25211622088582214 0.5877069765464831 -0.1180895275329286
0.4614987939956657 0.5734083029210376 -0.1180895275329286
0.5878841108377826 0.5982563076727581 -0.1180895275329286
0.6612373890236535 0.19722427217093244 -0.1180895275329286
0.46568113142912354 0.19810994362742942 -0.1180895275329286
0.47417373661753337 0.45156943288893864 -0.1180895275329286
0.1354831308591329 0.2983679525028857 -0.1180895275329286
0.44803658785691175 0.268127192660495 -0.1180895275329286
0.5401464193325962 0.47343567707045253 -0.1180895275329286
0.24958713683782519 0.4385992664482385 -0.1180895275329286
0.3258729716240972 0.245119416379496 -0.1180895275329286
0.10789938538623302 0.20392585285842613 -0.1180895275329286
0.5066089935132445 0.6099471708985179 -0.11759748783487473
0.5921845377987732 0.5062645657246067 -0.11681022431798854
0.2432201431450082 0.18942052255979802 -0.11681022431798854
0.38765347611174095 0.3107673528938433 -0.11681022431798854
0.28588982576023975 0.5192248913713455 -0.11681022431798854
0.11302643903995434 0.23732550756232282 -0.11612136874071313
0.23332030442016435 0.17993399718131942 -0.11612136874071313
0.3761200655893583 0.3280871502653395 -0.11612136874071313
0.4752857463351351 0.28321312980282665 -0.11612136874071313
0.14671147676872226 0.2890093574459012 -0.11612136874071313
0.5118541366944986 0.5009013330158195 -0.11612136874071313
0.4812984714453534 0.4986379504047716 -0.11612136874071313
0.5456966271266438 0.1825122851991217 -0.11612136874071313
0.6607158269437162 0.25134863895685805 -0.11612136874071313
0.574333337553379 0.5931292540190368 -0.11612136874071313
0.47636823367085357 0.5855616834629683 -0.11612136874071313
0.23251335931535594 0.5973903178041833 -0.11612136874071313
0.11294771268826577 0.5760849988784509 -0.11612136874071313
0.5083803364262384 0.5840265196050402 -0.11562932904265925
0.5352161815580964 0.5954221590119677 -0.11484206552577307
0.6444785169079387 0.19519706861495048 -0.11484206552577307
0.3619788446672901 0.3766514684632565 -0.11484206552577307
0.2640235815787257 0.16946339240673317 -0.11484206552577307
0.574185725643963 0.18502168765919638 -0.11415320994849765
0.13893724953947106 0.3958311758933963 -0.11415320994849765
0.633210807822505 0.3846618747475734 -0.11415320994849765
0.14021655275441122 0.2848959055701708 -0.11415320994849765
0.49017486759824525 0.2765410714972162 -0.11415320994849765
0.34789666850898837 0.4474855033950914 -0.11415320994849765
0.31662262530068436 0.17370477460395747 -0.11415320994849765
0.10965104671130477 0.25027599241510057 -0.11415320994849765
0.2069764989863601 0.5943593532641716 -0.11415320994849765
0.31413290442853176 0.6014152025342638 -0.11415320994849765
0.5455293336293056 0.6061781468114255 -0.11415320994849765
0.6680964224145243 0.5511681085690028 -0.11415320994849765
0.5164301058863996 0.6099471708985179 -0.11366117025044378
0.4903126387137003 0.17911721128255 -0.1128739067335576
0.49052913618084404 0.6003228744045844 -0.1128739067335576
0.28293758757191656 0.5213898660427825 -0.1128739067335576
0.11038910625838559 0.5412584290501978 -0.11218505115628218
0.23512116971504143 0.5969278004880127 -0.11218505115628218
0.46462816647528826 0.556639590011362 -0.11218505115628218
0.5757307302958519 0.5874806382853783 -0.11218505115628218
0.6785375048072274 0.5522702774926435 -0.11218505115628218
0.5621504346295652 0.18848564713349567 -0.11218505115628218
0.1416828310546116 0.3064177219630472 -0.11218505115628218
0.41839611644614666 0.263295362825606 -0.11218505115628218
0.14481220353423435 0.48234159560522755 -0.11218505115628218
0.48763594275628713 0.27802703138533885 -0.11218505115628218
0.3570387660988292 0.32927788633462984 -0.11218505115628218
0.3087598309257836 0.24814054012554676 -0.11218505115628218
0.11341023000443638 0.20672063834337215 -0.11218505115628218
0.28588982576023975 0.5840265196050402 -0.1116930114582283
0.22490642558344315 0.19762774472333658 -0.11090574794134211
0.39311511676013894 0.441453096696951 -0.11090574794134211
0.640315861062403 0.5840265196050402 -0.11090574794134211
0.6377277322506395 0.19519706861495048 -0.11090574794134211
0.20564799180161464 0.5926864182907883 -0.11021689236406669
0.469292702812839 0.5754059840951363 -0.11021689236406669
0.593906676741962 0.5897833840722705 -0.11021689236406669
0.66613810441627 0.2038176041248543 -0.11021689236406669
0.47023741903310234 0.18440171763964863 -0.11021689236406669
0.16139394135864962 0.38126680083100173 -0.11021689236406669
0.45295698483745045 0.5109684652380015 -0.11021689236406669
0.3382822128090157 0.5095907540834508 -0.11021689236406669
0.5078981375221456 0.2846400449271828 -0.11021689236406669
0.347719534217689 0.33885297885875815 -0.11021689236406669
0.3206868732066094 0.23108644419099975 -0.11021689236406669
0.1095034348018886 0.20633684737889013 -0.11021689236406669
0.33031116970054303 0.24703837120190614 -0.10972485266601283
0.21481961177333878 0.19762774472333658 -0.10893758914912664
0.3356251984395249 0.45936334170611176 -0.10893758914912664
0.6103014394811168 0.28841890980823653 -0.10893758914912664
0.11265248886943344 0.5836427286405583 -0.10824873357185122
0.2213440581695332 0.592912756551893 -0.10824873357185122
0.46998155839011435 0.5411895434924703 -0.10824873357185122
0.665006413110746 0.5960519698254768 -0.10824873357185122
0.6770515449191049 0.25071882814334906 -0.10824873357185122
0.4782379845234583 0.1967420732668396 -0.10824873357185122
0.5487177508726945 0.29529762478702964 -0.10824873357185122
0.29773814168937685 0.2731361567866834 -0.10824873357185122
0.2024005297944591 0.27831241441021004 -0.10824873357185122
0.6357792550463461 0.3906253958879862 -0.10824873357185122
0.244469923978065 0.4385697440663553 -0.10824873357185122
0.3229502558176571 0.226933629139425 -0.10824873357185122
0.12654768994247462 0.19069982577473815 -0.10824873357185122
0.22829165870605372 0.16927641732147264 -0.10696943035691117
0.4123145057782009 0.5335432465847132 -0.10696943035691117
0.6362220907745948 0.5815072763510044 -0.10696943035691117
0.5096990028170227 0.1713429840532988 -0.10696943035691117
0.656474444746492 0.5729064224290228 -0.10628057477963575
0.4704539165002461 0.5511681085690028 -0.10628057477963575
0.3111216214764421 0.5288688694532016 -0.10628057477963575
0.18613369737679827 0.5988762776923058 -0.10628057477963575
0.1431786317366954 0.1914674077037021 -0.10628057477963575
0.20711427010181516 0.19176263152253442 -0.10628057477963575
0.3197815201621903 0.20135740563458496 -0.10628057477963575
0.23534750797614618 0.34663704688197033 -0.10628057477963575
0.5250998453661088 0.4971323089287269 -0.10628057477963575
0.13249152949496537 0.37357129995343924 -0.10628057477963575
0.1496243517812011 0.49529208045800543 -0.10628057477963575
0.48683883844544 0.320765599558298 -0.10628057477963575
0.4693320659886832 0.1737441377798017 -0.10628057477963575
0.6337422106964032 0.18115425563249296 -0.10628057477963575
0.2862736167247218 0.17654876405870887 -0.1050012715646957
0.26386612887534855 0.6063848034846079 -0.1050012715646957
0.49364866786650546 0.5581058683115625 -0.1050012715646957
0.5207108512594683 0.19525611337871693 -0.1050012715646957
0.6467812626948306 0.18665525945673533 -0.10431241598742028
0.4682889418288091 0.23649888086959228 -0.10431241598742028
0.4575526356172737 0.5117262063730047 -0.10431241598742028
0.4267411097251404 0.5189001451706301 -0.10431241598742028
0.32390481283188166 0.5061956801668791 -0.10431241598742028
0.617071905726338 0.42368062280324525 -0.10431241598742028
0.3229994597874626 0.4396325498141517 -0.10431241598742028
0.2994012358687989 0.18883991571609446 -0.10431241598742028
0.1160574035799661 0.23318253330470917 -0.10431241598742028
0.14248977615942005 0.5968097109604797 -0.10431241598742028
0.28391182617406313 0.5912496623724711 -0.10431241598742028
0.46538590761029125 0.5455096520413835 -0.10431241598742028
0.5949793232837195 0.5978725167082761 -0.10431241598742028
0.37699589625189417 0.24703837120190614 -0.1038203762893664
0.23021061352846386 0.17180550136946957 -0.10303311277248019
0.6206933179040146 0.1735571626945413 -0.10303311277248019
0.5110767139715735 0.5815958434966539 -0.10303311277248019
0.6478243868547048 0.1957383122828098 -0.10234425719520478
0.4636244054912584 0.22964968827268245 -0.10234425719520478
0.4899780517190236 0.2832820153605541 -0.10234425719520478
0.2822880951704854 0.27250634597317436 -0.10234425719520478
0.26049073654669896 0.2710203860850517 -0.10234425719520478
0.49538064760365513 0.4989626966054872 -0.10234425719520478
0.34297627152844967 0.3363829395745277 -0.10234425719520478
0.3151563470004838 0.17457076447253222 -0.10234425719520478
0.10996595211805921 0.22457183858876645 -0.10234425719520478
0.1328654796654864 0.5832097337062707 -0.10234425719520478
0.314792237623924 0.6048102764508355 -0.10234425719520478
0.5360132858689436 0.5877168173404442 -0.10234425719520478
0.6716095858586288 0.575848819823385 -0.10234425719520478
0.14959482939931784 0.19762774472333658 -0.10106495398026473
0.46772801657302765 0.4025721197567342 -0.10106495398026473
0.7139840446550282 0.4025721197567342 -0.10106495398026473
0.6623001947714496 0.23368441379672414 -0.1003760984029893
0.4961777519145024 0.18829867204823528 -0.1003760984029893
0.3030521704283587 0.5056347549110978 -0.1003760984029893
0.37143584766388543 0.261907810877094 -0.1003760984029893
0.4715659262178478 0.3118596810235229 -0.1003760984029893
0.28974741699298207 0.43101201430424785 -0.1003760984029893
0.3073427565953884 0.20985001082299473 -0.1003760984029893
0.18038667370352904 0.1914772484976632 -0.1003760984029893
0.1412891992961686 0.4927728372039696 -0.1003760984029893
0.1419091693157165 0.5909249161717554 -0.1003760984029893
0.30803161217266384 0.5455391744232665 -0.1003760984029893
0.46736390719646786 0.5730441935444777 -0.1003760984029893
0.6672796365157548 0.5494951735956197 -0.1003760984029893
0.20099329625802503 0.5815564803208098 -0.09909679518804926
0.39281989294130665 0.441453096696951 -0.09909679518804926
0.5831310073545822 0.19762774472333658 -0.09909679518804926
0.6250527896287718 0.603836037848689 -0.09909679518804926
0.5755831183864358 0.19178231311045668 -0.09840793961077383
0.4725204832320723 0.19464598415313017 -0.09840793961077383
0.6515540477659533 0.39053682874233653 -0.09840793961077383
0.4651989325250307 0.5093939382042293 -0.09840793961077383
0.32346197710363317 0.4325570189561371 -0.09840793961077383
0.30871062695597823 0.19971399304308501 -0.09840793961077383
0.2035715842758273 0.1867241450144628 -0.09840793961077383
0.1564440219962277 0.3905565103302588 -0.09840793961077383
0.11903916415017267 0.5866638523866089 -0.09840793961077383
0.3120761784906667 0.5484520494357453 -0.09840793961077383
0.46265016688911165 0.6020745357296562 -0.09840793961077383
0.6505502867819234 0.583888748489585 -0.09840793961077383
0.18369318047445105 0.5815958434966539 -0.09712863639583379
0.36391748107762234 0.4025721197567342 -0.09712863639583379
0.5638627327787927 0.19762774472333658 -0.09712863639583379
0.6261647993463735 0.6007361877509496 -0.09712863639583379
0.5777185706759895 0.18596640387945987 -0.09643978081855836
0.46644871335808763 0.22972841462437102 -0.09643978081855836
0.3399157846065545 0.32409178791714205 -0.09643978081855836
0.47008980712368614 0.4623155798944351 -0.09643978081855836
0.4752267015713686 0.34047670986233597 -0.09643978081855836
0.5824323109833457 0.3147823968299629 -0.09643978081855836
0.24755993328184323 0.1758795900693556 -0.09643978081855836
0.13982292099596805 0.19384887984228286 -0.09643978081855836
0.11450255813411586 0.5454702888655389 -0.09643978081855836
0.30989152223130745 0.5690389904023193 -0.09643978081855836
0.47328806516103633 0.5331004108564645 -0.09643978081855836
0.6035309732358957 0.5878053844860938 -0.09643978081855836
0.39930497616165656 0.5451455426648235 -0.09594774112050448
0.2836264431491919 0.1769719181990351 -0.09516047760361832
0.5862997430100492 0.19369142713890558 -0.09516047760361832
0.5437776723042338 0.6099471708985179 -0.09516047760361832
0.6598596778691026 0.591397274281887 -0.09447162202634289
0.4859925301647872 0.5823142214558127 -0.09447162202634289
0.316317560687891 0.6022221476390721 -0.09447162202634289
0.11778938331711575 0.5911906176087046 -0.09447162202634289
0.12099748214842705 0.20149517675004 -0.09447162202634289
0.2243848635035061 0.18702920962725625 -0.09447162202634289
0.3067523089577237 0.19450821303767513 -0.09447162202634289
0.3394139041145396 0.3339030594963362 -0.09447162202634289
0.4830894959462695 0.3457120122496291 -0.09447162202634289
0.4613708636741716 0.46694075305614147 -0.09447162202634289
0.5014228950957567 0.31120034782813066 -0.09447162202634289
0.5348422313875754 0.19047348751363327 -0.09447162202634289
0.6432090544869595 0.1900404925793459 -0.09447162202634289
0.21576432799360223 0.19519706861495048 -0.0931923188114028
0.3905663511242199 0.3118498402295618 -0.0931923188114028
0.6362220907745948 0.5710661939583012 -0.0931923188114028
0.6600761753362462 0.19033571639817823 -0.09250346323412739
0.46877114073290177 0.18004224591489124 -0.09250346323412739
0.33911868029570724 0.5157314095151632 -0.09250346323412739
0.5569840177999995 0.28241602549197936 -0.09250346323412739
0.48528399299958974 0.4546200790168725 -0.09250346323412739
0.352944995811021 0.4446808771161844 -0.09250346323412739
0.3011725787817929 0.1953151581424834 -0.09250346323412739
0.14518615370475524 0.1924219647179267 -0.09250346323412739
0.12066289515375037 0.6055680175858386 -0.09250346323412739
0.2974429178705445 0.5988861184862669 -0.09250346323412739
0.4837685107295837 0.5276584517959888 -0.09250346323412739
0.6550278480342137 0.5945266467615098 -0.09250346323412739
0.2107061598976085 0.5840265196050402 -0.09122416001918733
0.4577691330844173 0.47300268213616514 -0.09122416001918733
0.5278946308510548 0.259998696848645 -0.09122416001918733
0.6583343548051356 0.22812436520871543 -0.09053530444191192
0.5319490379630187 0.1837915884140617 -0.09053530444191192
0.4207579069968053 0.25497005113453447 -0.09053530444191192
0.3719967729196669 0.5205337169681689 -0.09053530444191192
0.5168237376448428 0.2747106838204557 -0.09053530444191192
0.3733449616923345 0.4514021393916002 -0.09053530444191192
0.28761196470342826 0.19780487901463598 -0.09053530444191192
0.12176506407739111 0.1979131277482078 -0.09053530444191192
0.12284755141310962 0.528829506277357 -0.09053530444191192
0.25211622088582214 0.6012479090369256 -0.09053530444191192
0.48448688868874246 0.5726505617860347 -0.09053530444191192
0.6557659075812944 0.5405302102970783 -0.09053530444191192
0.18657653310504677 0.198690550471133 -0.08925600122697186
0.17866453476034053 0.5815958434966539 -0.08925600122697186
0.47605332826409913 0.305138418748107 -0.08925600122697186
0.657753747961432 0.18143963865736432 -0.08856714564969645
0.5270778449522854 0.17858580840865182 -0.08856714564969645
0.38609863066589073 0.522432990202657 -0.08856714564969645
0.49580380174398153 0.49796877641541837 -0.08856714564969645
0.5054576206197984 0.2797983742983327 -0.08856714564969645
0.3470798826102188 0.450231084910232 -0.08856714564969645
0.30410513538219397 0.25444848905459744 -0.08856714564969645
0.12201108392641796 0.18163645453658583 -0.08856714564969645
0.1356602651504323 0.5853353452018636 -0.08856714564969645
0.30004088747626906 0.5567675203328557 -0.08856714564969645
0.4755514477720842 0.6015037696799137 -0.08856714564969645
0.6598990410449468 0.5572103560611044 -0.08856714564969645
0.15978005114903304 0.5809069879193786 -0.0872878424347564
0.31467414809639105 0.4025721197567342 -0.0872878424347564
0.5880317227471986 0.19369142713890558 -0.0872878424347564
0.5712236466616785 0.5840265196050402 -0.0872878424347564
0.64467533278716 0.25134863895685805 -0.08659898685748098
0.49951378106730765 0.1883183536361574 -0.08659898685748098
0.6356119615490079 0.42269654340713747 -0.08659898685748098
0.41622130098074867 0.2545862601700525 -0.08659898685748098
0.24684155532268465 0.4338461629650382 -0.08659898685748098
0.3742011107669481 0.3191812317305645 -0.08659898685748098
0.22651047499909874 0.1865962146929689 -0.08659898685748098
0.12849616714676804 0.1895582936752532 -0.08659898685748098
0.12469762067779205 0.5872543000242736 -0.08659898685748098
0.283508353621659 0.5823043806618515 -0.08659898685748098
0.525375387597019 0.5987089841949675 -0.08659898685748098
0.6609913691746265 0.6047709132749913 -0.08659898685748098
0.27061691353264755 0.20808850870396187 -0.0861069471594271
0.6232617651278558 0.2834296272699703 -0.08531968364254093
0.522688850845645 0.6055483359979166 -0.08531968364254093
0.33329293027074947 0.45441342234368987 -0.08531968364254093
0.14677052153248873 0.17758204742462189 -0.08531968364254093
0.5566789531872063 0.1877082244105706 -0.0846308280652655
0.4016175627425097 0.5245487609042884 -0.0846308280652655
0.5748745812212382 0.48528399299958963 -0.0846308280652655
0.3718786833921339 0.2500102909781515 -0.0846308280652655
0.34706020102229673 0.44035092777331036 -0.0846308280652655
0.307155781510128 0.24840624156249586 -0.0846308280652655
0.13049384832086663 0.23170641421054752 -0.0846308280652655
0.12682323217338484 0.5287606207196295 -0.0846308280652655
0.2966654951476195 0.5715975968321994 -0.0846308280652655
0.49287124514358044 0.5855026386992018 -0.0846308280652655
0.6573994793788333 0.5570430625637661 -0.0846308280652655
0.2604415325768936 0.17455108288461013 -0.08413878836721163
0.24133071070448128 0.19364222316910024 -0.08335152485032542
0.2198384166934883 0.5815958434966539 -0.08335152485032542
0.37026479318251726 0.31085592003949297 -0.08335152485032542
0.6414672339558489 0.1989956150839263 -0.08266266927305
0.520553398556091 0.1879739258475197 -0.08266266927305
0.3837958848789986 0.2559541305306423 -0.08266266927305
0.47229414497096756 0.4619613113118363 -0.08266266927305
0.6017793119108239 0.45224844767225286 -0.08266266927305
0.2417145016689633 0.434712152833613 -0.08266266927305
0.28668693007108703 0.20662223040376132 -0.08266266927305
0.12743336139897163 0.20639589214265658 -0.08266266927305
0.12026926339530734 0.5549272918621344 -0.08266266927305
0.29987359397893065 0.5723061339973969 -0.08266266927305
0.4706999363492731 0.5522899590805657 -0.08266266927305
0.6450788053395642 0.5991813423050992 -0.08266266927305
0.3121942680181996 0.3248101658763008 -0.08138336605810995
0.5388375937357728 0.5840265196050402 -0.08138336605810995
0.6232617651278558 0.3118498402295618 -0.08138336605810995
0.6521543361975791 0.18673398580842393 -0.08069451048083454
0.49597109524131977 0.25134863895685805 -0.08069451048083454
0.6600269713664408 0.3899660626925941 -0.08069451048083454
0.4493847766295794 0.5279339940268992 -0.08069451048083454
0.24392868031020568 0.4291521042456043 -0.08069451048083454
0.35539535350732937 0.33684545689069845 -0.08069451048083454
0.22660888293870957 0.18194151914937928 -0.08069451048083454
0.1615317124741048 0.19179215390441764 -0.08069451048083454
0.13249152949496537 0.5930702092552704 -0.08069451048083454
0.25410406126595975 0.5876774541645999 -0.08069451048083454
0.4773818354488445 0.6042690327829763 -0.08069451048083454
0.638820060380319 0.5864079917436208 -0.08069451048083454
0.5386703002384345 0.5192248913713455 -0.07941520726589447
0.48620902763193097 0.49330424007786783 -0.07941520726589447
0.19810010283346832 0.5815171171449655 -0.07941520726589447
0.6484345160802917 0.5449192044037188 -0.07872635168861906
0.5016590741508226 0.5876971357525219 -0.07872635168861906
0.2970689677000236 0.5408254341159106 -0.07872635168861906
0.11898011938640621 0.5464937314374911 -0.07872635168861906
0.17117569055596055 0.18115425563249296 -0.07872635168861906
0.2761868029146174 0.19113282070902554 -0.07872635168861906
0.35637943290343704 0.446786807023855 -0.07872635168861906
0.48269586418782634 0.45305539277706125 -0.07872635168861906
0.4738194680349345 0.46575985778081214 -0.07872635168861906
0.5149244644103549 0.188534851103301 -0.07872635168861906
0.5797162518500882 0.18400808588120549 -0.07872635168861906
0.2655292230547706 0.17699159978695736 -0.077447048473679
0.3413131773490275 0.4639393108980128 -0.077447048473679
0.5350292064728359 0.5215866819220042 -0.077447048473679
0.6319019822256816 0.6099471708985179 -0.077447048473679
0.580060679638726 0.5948710745501475 -0.0767581928964036
0.4931566281684516 0.583623047052636 -0.0767581928964036
0.22941350921761658 0.5898227472481148 -0.0767581928964036
0.13464666337244138 0.5564427741321403 -0.0767581928964036
0.13313118110243538 0.23631190578433175 -0.0767581928964036
0.291774620548964 0.2394708006458376 -0.0767581928964036
0.3392466106172013 0.454807054102133 -0.0767581928964036
0.4711821352533658 0.4632307737328152 -0.0767581928964036
0.4563717403419444 0.23936255191226577 -0.0767581928964036
0.48233175481126644 0.22878369840410756 -0.0767581928964036
0.6543980372207046 0.1993498836665251 -0.0767581928964036
0.2807627721065184 0.17065412847602346 -0.07626615319834971
0.6103014394811168 0.2988796737888618 -0.07547888968146353
0.46772801657302765 0.41553244540347317 -0.07547888968146353
0.3640355706051553 0.428492771050212 -0.07547888968146353
0.1421945523405877 0.5786436053083309 -0.07479003410418812
0.29549444066625125 0.533002002916854 -0.07479003410418812
0.49589236888963106 0.577393824475274 -0.07479003410418812
0.6514457990323815 0.5567576795388949 -0.07479003410418812
0.6515146845901088 0.24542448099228945 -0.07479003410418812
0.49421943391624806 0.22368616713226946 -0.07479003410418812
0.43169102908756235 0.24862273902963963 -0.07479003410418812
0.47462641313974296 0.46567129063516244 -0.07479003410418812
0.6310851963269122 0.43272431245347537 -0.07479003410418812
0.24958713683782519 0.44234860894740896 -0.07479003410418812
0.2894029892043444 0.18535627465387308 -0.07479003410418812
0.1257309040437052 0.23010236479489193 -0.07479003410418812
0.6268142917478047 0.5192248913713455 -0.07429799440613424
0.1727403767957719 0.5451455426648235 -0.07351073088924803
0.4564701482815551 0.3083268359914961 -0.07351073088924803
0.6268142917478047 0.25745977200668707 -0.07351073088924803
0.6539158383166117 0.5313782719132762 -0.07282187531197261
0.49871667675646036 0.5788601027754745 -0.07282187531197261
0.29963741492386475 0.5815663211147708 -0.07282187531197261
0.1276006548963099 0.5709874676066128 -0.07282187531197261
0.1274235206050105 0.2479043610704809 -0.07282187531197261
0.29963741492386475 0.1976572671052198 -0.07282187531197261
0.3372686110310247 0.3405947993898689 -0.07282187531197261
0.4350172174464064 0.25070898734938807 -0.07282187531197261
0.502613631165047 0.3119384073752115 -0.07282187531197261
0.5167745336750373 0.3103048355776727 -0.07282187531197261
0.48906285788064346 0.2386441739531072 -0.07282187531197261
0.6393022592844119 0.1862911500801754 -0.07282187531197261
0.27061691353264755 0.25745977200668707 -0.07232983561391877
0.4566276009849323 0.47093611540433883 -0.07154257209703256
0.22578225624597903 0.1725730832984335 -0.07154257209703256
0.6362220907745948 0.4556828847646689 -0.07154257209703256
0.17134298405329895 0.5948415521682642 -0.07085371651975714
0.2907807003588952 0.6016218592074467 -0.07085371651975714
0.510240246484882 0.5782106103740433 -0.07085371651975714
0.6552640270892793 0.5283374665793034 -0.07085371651975714
0.6229567005150624 0.1986019833254833 -0.07085371651975714
0.4880984600724579 0.17415745112616696 -0.07085371651975714
0.4712707023990155 0.31492016794541794 -0.07085371651975714
0.4862779131896586 0.325597429393187 -0.07085371651975714
0.24021870098687953 0.43085456160087066 -0.07085371651975714
0.25572779226953757 0.18432299128795993 -0.07085371651975714
0.13828775713803992 0.1737244561918796 -0.07085371651975714
0.16220088646345804 0.6015923368255632 -0.07036167682170327
0.5942215821487165 0.5710661939583012 -0.06957441330481709
0.27061691353264755 0.5217638162133036 -0.06957441330481709
0.5229053483127886 0.25787308535305237 -0.06957441330481709
0.20573655894726434 0.17639131135533156 -0.06957441330481709
0.1611085583337784 0.5868606682658306 -0.06888555772754167
0.2812843341864555 0.6046429829534973 -0.06888555772754167
0.49889381104775976 0.5693735773969959 -0.06888555772754167
0.6428843082862441 0.5364758031851143 -0.06888555772754167
0.6407193336148072 0.22456199779480535 -0.06888555772754167
0.49485908552371805 0.23460944842906536 -0.06888555772754167
0.5885139216512915 0.4830009288006197 -0.06888555772754167
0.4881968680120686 0.37151457401557403 -0.06888555772754167
0.3428483412069556 0.45424612884635157 -0.06888555772754167
0.28708056182953007 0.23692203500991854 -0.06888555772754167
0.14450713892144088 0.23592811481984974 -0.06888555772754167
0.6166389107920507 0.16927641732147264 -0.0683935180294878
0.1586778822253923 0.6085694597439671 -0.0683935180294878
0.24426326730488235 0.6003228744045844 -0.06760625451260162
0.3121942680181996 0.41954748933959274 -0.06760625451260162
0.26887509300153695 0.17064428768206236 -0.06760625451260162
0.6129289314687244 0.5905312844133124 -0.06691739893532621
0.49450481694111925 0.6055188136160332 -0.06691739893532621
0.2868739051563474 0.6055188136160332 -0.06691739893532621
0.16991606892894265 0.5916924981007194 -0.06691739893532621
0.14328688047026733 0.232395269787823 -0.06691739893532621
0.28750371596985647 0.22069456576810192 -0.06691739893532621
0.23745343788381687 0.3394335857024617 -0.06691739893532621
0.5111948034991065 0.3102064276380619 -0.06691739893532621
0.5515026955636795 0.3147036704782743 -0.06691739893532621
0.4906865888842212 0.20471311637531228 -0.06691739893532621
0.6264797047531281 0.20672063834337215 -0.06691739893532621
0.2553538420990165 0.6029011624223867 -0.06642535923727233
0.25680043881129494 0.17718841566617888 -0.06642535923727233
0.18049492243710086 0.5777284114699508 -0.06563809572038615
0.42884703963281096 0.4828336353032814 -0.06563809572038615
0.5259658352346837 0.1764011521492927 -0.06563809572038615
0.19151661167350756 0.5957665868006056 -0.06494924014311074
0.1455207406994318 0.5877463397223273 -0.06494924014311074
0.2763639372059168 0.5594146939083856 -0.06494924014311074
0.5008127658701698 0.5405892550608448 -0.06494924014311074
0.6308293356839244 0.5699443434467383 -0.06494924014311074
0.6322562508082804 0.19928099810879765 -0.06494924014311074
0.5050639888613552 0.24215733739721182 -0.06494924014311074
0.6088253203869551 0.46937142916452756 -0.06494924014311074
0.5245093977284441 0.45851703342545913 -0.06494924014311074
0.3767105132270229 0.45830053595831555 -0.06494924014311074
0.23870321871687367 0.1924613278937709 -0.06494924014311074
0.13679195645595615 0.17503328178870284 -0.06494924014311074
0.2603529654312439 0.259998696848645 -0.06445720044505686
0.5325296448067223 0.5713023730133671 -0.06445720044505686
0.31467414809639105 0.41553244540347317 -0.06366993692817065
0.16962084511011044 0.6099471708985179 -0.06366993692817065
0.3121942680181996 0.3118498402295618 -0.06366993692817065
0.6880633933615504 0.4025721197567342 -0.06366993692817065
0.14790221283801258 0.5475959003611317 -0.06298108135089522
0.26793037678127346 0.5861127679247885 -0.06298108135089522
0.501855890030044 0.5523588446382932 -0.06298108135089522
0.6359563893376455 0.5946348954950816 -0.06298108135089522
0.6276802816163793 0.2338517072940624 -0.06298108135089522
0.49892333342964296 0.22207227692265274 -0.06298108135089522
0.4767421838413745 0.46184322178430337 -0.06298108135089522
0.5440433737411827 0.37699589625189417 -0.06298108135089522
0.24270842185903213 0.4373002816453764 -0.06298108135089522
0.25790260773493556 0.18996176622765734 -0.06298108135089522
0.1904833283075944 0.18872182618856154 -0.06298108135089522
0.2525688974080316 0.5235745223021417 -0.06248904165284139
0.4715856078057699 0.41553244540347317 -0.06248904165284139
0.24009077066538548 0.1788219874637177 -0.061701778135955176
0.2122413237555365 0.5969868452517791 -0.061701778135955176
0.47159544859973107 0.360571611130856 -0.061701778135955176
0.7139840446550282 0.3766514684632565 -0.061701778135955176
0.6289497440373586 0.5455883783930718 -0.06101292255867976
0.49944489550958004 0.5856896137844624 -0.06101292255867976
0.27854859346527594 0.5486291837270447 -0.06101292255867976
0.1718153421634307 0.5776201627363787 -0.06101292255867976
0.1344104843173755 0.19221530804474404 -0.06101292255867976
0.26825512298198906 0.2528444396389418 -0.06101292255867976
0.24568034163527755 0.3402798939831143 -0.06101292255867976
0.46963713060147666 0.25153561404211844 -0.06101292255867976
0.51177541034281 0.27233905247583606 -0.06101292255867976
0.5505973425192603 0.4119799187835242 -0.06101292255867976
0.49953346265522974 0.23918541762096637 -0.06101292255867976
0.6359268669557625 0.2383292685463526 -0.06101292255867976
0.604731550099147 0.5217638162133036 -0.06052088286062588
0.2350030801875085 0.20815739426168947 -0.06052088286062588
0.24405661063169973 0.5236237262719471 -0.059733619343739705
0.2232630129919432 0.16927641732147264 -0.059733619343739705
0.5845776040668604 0.20243005217634233 -0.059733619343739705
0.5682910900612774 0.5984039195821743 -0.059733619343739705
0.6158418064812032 0.5919778811255907 -0.05904476376646429
0.541533971281108 0.5826783308323725 -0.05904476376646429
0.23671537833673603 0.5835344799069861 -0.05904476376646429
0.1401181448148004 0.5499478501178292 -0.05904476376646429
0.20730124518707568 0.1858975183217324 -0.05904476376646429
0.2855650795595242 0.22445374906123353 -0.05904476376646429
0.2785977974350814 0.34819189232782055 -0.05904476376646429
0.24293476012013687 0.3326434378693183 -0.05904476376646429
0.6753687691517605 0.3859903819323189 -0.05904476376646429
0.553214993712907 0.4885314550067453 -0.05904476376646429
0.5573874903524036 0.18949924891148673 -0.05904476376646429
0.5067664462166216 0.22043870512511393 -0.05904476376646429
0.6293433757958016 0.21803755139861106 -0.05904476376646429
0.16962084511011044 0.5212422541333664 -0.05855272406841041
0.5861029271308275 0.23415677190685588 -0.05855272406841041
0.19429171557053135 0.5735362332425317 -0.057765460551524234
0.17946163907118784 0.16927641732147264 -0.057765460551524234
0.6311344002967175 0.3118498402295618 -0.057765460551524234
0.6346475637408222 0.2378470696422599 -0.05707660497424882
0.5928143486122824 0.19736204328638748 -0.05707660497424882
0.4649824350578871 0.5361805793662819 -0.05707660497424882
0.5596705545513736 0.28224873199464107 -0.05707660497424882
0.24958713683782519 0.43101201430424785 -0.05707660497424882
0.3387250485372642 0.45527941221226476 -0.05707660497424882
0.4996318705948406 0.572552153846424 -0.05707660497424882
0.5139108626323639 0.5835147983190643 -0.05707660497424882
0.2763639372059168 0.5798638637595044 -0.05707660497424882
0.27353962933908754 0.5908363490261058 -0.05707660497424882
0.20889545380877028 0.19069982577473815 -0.05707660497424882
0.2696820381063452 0.2392149400028496 -0.05707660497424882
0.22482769923175458 0.5755634367985135 -0.05658456527619494
0.533661336112246 0.17065412847602346 -0.05658456527619494
0.20706506613200984 0.24723518708112766 -0.05579730175930876
0.6362220907745948 0.46737374799042886 -0.05579730175930876
0.3121942680181996 0.45441342234368987 -0.05579730175930876
0.27558651448299176 0.5822846990739295 -0.055108446182033345
0.25141752451458566 0.5862997430100491 -0.055108446182033345
0.2423935164522777 0.19503961591157318 -0.055108446182033345
0.26637553133542324 0.2435153669638404 -0.055108446182033345
0.6326794049486067 0.20636636976077335 -0.055108446182033345
0.5485799797572395 0.1987200728530162 -0.055108446182033345
0.6170915873142602 0.19875943602886043 -0.055108446182033345
0.4806292974560002 0.24339727743630746 -0.055108446182033345
0.4882657535697962 0.4516284776527051 -0.055108446182033345
0.23599700037757732 0.43526323729543326 -0.055108446182033345
0.5634198970505441 0.5867130563564142 -0.055108446182033345
0.5060874314333073 0.593808268802351 -0.055108446182033345
0.2095547870041624 0.2211177199084283 -0.05461640648397947
0.4690663645517341 0.3592824671219549 -0.05461640648397947
0.7139840446550282 0.3766514684632565 -0.053829142967093256
0.21184769199709347 0.5257296561796176 -0.053829142967093256
0.5486882284908113 0.1872752294762831 -0.05314028738981784
0.622533546374736 0.19843468982814486 -0.05314028738981784
0.5710268307824571 0.49504606060897843 -0.05314028738981784
0.618085507504329 0.3218087237181721 -0.05314028738981784
0.3546769755481706 0.4430473053186456 -0.05314028738981784
0.14514679052891089 0.17716873407825676 -0.05314028738981784
0.18203008629502898 0.18739331900381603 -0.05314028738981784
0.27587189750786295 0.5530083370397244 -0.05314028738981784
0.1721892923339516 0.5932768659284529 -0.05314028738981784
0.5889173942036956 0.5790372370667739 -0.05314028738981784
0.5085476299235766 0.5675235081323134 -0.05314028738981784
0.5708398556971966 0.16927641732147264 -0.052648247691763995
0.527018800188519 0.4952822396640443 -0.05186098417487779
0.5509220887199759 0.24363345649137333 -0.05117212859760237
0.5147571709130164 0.20024539591698323 -0.05117212859760237
0.48811814166038003 0.25686932436902243 -0.05117212859760237
0.46547447475594095 0.5223247414690848 -0.05117212859760237
0.35543471668317356 0.45143166177348343 -0.05117212859760237
0.15326544554679977 0.22682538040585318 -0.05117212859760237
0.2642892830156748 0.19433107874637573 -0.05117212859760237
0.15882549413480845 0.5972919098645726 -0.05117212859760237
0.15952419050604494 0.5820780424007468 -0.05117212859760237
0.17963877336248724 0.5376271760785603 -0.05117212859760237
0.6317543703162656 0.5513452428603022 -0.05117212859760237
0.617445855896859 0.5543270034305087 -0.05117212859760237
0.42884703963281096 0.4828336353032814 -0.04989282538266232
0.19205785534136677 0.1801898578243074 -0.049203969805386896
0.2619963780227439 0.2202025260700481 -0.049203969805386896
0.5149638275861991 0.23244447375762833 -0.049203969805386896
0.6148380454971736 0.1931698650589685 -0.049203969805386896
0.571558233656355 0.18902689080135499 -0.049203969805386896
0.5626818375034633 0.5097580475807891 -0.049203969805386896
0.4763879152587757 0.4665668028856204 -0.049203969805386896
0.1527635650547848 0.5985515314915903 -0.049203969805386896
0.18663557786881324 0.5893799115198664 -0.049203969805386896
0.5126807633872291 0.5424196427376049 -0.049203969805386896
0.5284063521370308 0.5439351250076108 -0.049203969805386896
0.4943867274135863 0.5403235536238955 -0.04792466659044685
0.31361134234859467 0.35536583112544595 -0.04792466659044685
0.1603606579927366 0.5264086709629322 -0.04723581101317143
0.26496829779898917 0.5896062497809711 -0.04723581101317143
0.15641449961434445 0.2286360864946914 -0.04723581101317143
0.2602545574916331 0.20036348544451615 -0.04723581101317143
0.6264305007833227 0.22750439518916754 -0.04723581101317143
0.6042690327829764 0.1842836281121157 -0.04723581101317143
0.5949005969320307 0.48691756479712855 -0.04723581101317143
0.469686334571282 0.45391154185167504 -0.04723581101317143
0.6214805814209007 0.5684190203827714 -0.04723581101317143
0.521429229218627 0.5752386905977981 -0.04723581101317143
0.5513354020663412 0.5880514043351207 -0.04723581101317143
0.39078284859136353 0.45441342234368987 -0.04595650779823138
0.6228582925754517 0.5517683970006286 -0.04526765222095596
0.6022910331967999 0.5456179007749552 -0.04526765222095596
0.5196677270995942 0.22321380902213772 -0.04526765222095596
0.5317325404958749 0.20859038919597683 -0.04526765222095596
0.6056073807616829 0.2399431587559693 -0.04526765222095596
0.6818636931660715 0.38775188405135175 -0.04526765222095596
0.47955665091424265 0.36243152118949956 -0.04526765222095596
0.3557200997080448 0.33538901938445886 -0.04526765222095596
0.23924446238473285 0.18488391654374134 -0.04526765222095596
0.24320046155708597 0.2079408967945457 -0.04526765222095596
0.2713451322857673 0.5730638751324 -0.04526765222095596
0.25511766304395067 0.5404613247393507 -0.04526765222095596
0.1846378966947145 0.5506465464890657 -0.04526765222095596
0.49960234821295735 0.23498339859958642 -0.04398834900601587
0.5128775792664507 0.5462575523824252 -0.043299493428740454
0.5452734729863175 0.5947529850226145 -0.043299493428740454
0.6143263242111974 0.22715012660656875 -0.043299493428740454
0.5489736115156826 0.23047631496541285 -0.043299493428740454
0.5849417134434204 0.4898009174277242 -0.043299493428740454
0.5833967087915312 0.4872226294099219 -0.043299493428740454
0.34589898733488966 0.45135293542179483 -0.043299493428740454
0.1585696334918205 0.1998616049525012 -0.043299493428740454
0.21336317426709936 0.23007284241300868 -0.043299493428740454
0.1624075431366407 0.5700919553561546 -0.043299493428740454
0.20546101671635425 0.5704954279085588 -0.043299493428740454
0.5024857008435529 0.5392410662881771 -0.0420201902138004
0.6110591806161197 0.5845776040668607 -0.04133133463652498
0.5360624898387489 0.5797752966138549 -0.04133133463652498
0.595953561885866 0.5809955550650284 -0.04133133463652498
0.5450668163131349 0.21413075619606342 -0.04133133463652498
0.5997324267669198 0.22497531114117061 -0.04133133463652498
0.5874806382853784 0.28605711925757804 -0.04133133463652498
0.4834240829409461 0.4126687743607997 -0.04133133463652498
0.3730202154916189 0.3180692220129628 -0.04133133463652498
0.23424533905250558 0.18447060319737607 -0.04133133463652498
0.1922940343964326 0.22467024652837728 -0.04133133463652498
0.2589850950706541 0.6024878490760214 -0.04133133463652498
0.24951825128009775 0.572188044469864 -0.04133133463652498
0.5067467646286995 0.5469857711355448 -0.040052031421584935
0.5313093863555488 0.5686453586438763 -0.03936317584430951
0.5596311913755293 0.541268269844159 -0.03936317584430951
0.6058927637865541 0.23187370770788593 -0.03936317584430951
0.548146984822952 0.1894008409718759 -0.03936317584430951
0.6800825094591166 0.3874172970566751 -0.03936317584430951
0.6105769817120269 0.46902700137588976 -0.03936317584430951
0.3458005793952788 0.4514513433614057 -0.03936317584430951
0.2605202589285822 0.19979271939477358 -0.03936317584430951
0.2386638555410293 0.19470502891689662 -0.03936317584430951
0.17175629739966422 0.5742742927896124 -0.03936317584430951
0.24975443033516362 0.5384242803894077 -0.03936317584430951
0.42884703963281096 0.4828336353032814 -0.038083872629369464
0.5557440777609037 0.5251588901298753 -0.03739501705209404
0.6064733706302576 0.24674314738307382 -0.03739501705209404
0.5054379390318763 0.5284555561068363 -0.03739501705209404
0.524489716140522 0.5156625239574355 -0.03739501705209404
0.4658681065143841 0.31052133304481633 -0.03739501705209404
0.17992415638735842 0.2069863397803211 -0.03739501705209404
0.1790778481067058 0.5401857825084403 -0.03739501705209404
0.23732550756232282 0.593650816098974 -0.03739501705209404
0.5973411138343778 0.259998696848645 -0.03611571383715399
0.5327756646557493 0.6017596303229016 -0.03542685825987857
0.5327756646557493 0.2506105794097772 -0.03542685825987857
0.6048004356568746 0.3059748862347987 -0.03542685825987857
0.5134089821403488 0.25994949287883967 -0.03542685825987857
0.4885708181825895 0.322930574229735 -0.03542685825987857
0.2357805029104337 0.252362240734849 -0.03542685825987857
0.22975793700625424 0.6003130336106233 -0.03542685825987857
0.6103014394811168 0.49330424007786783 -0.03414755504493849
0.33194474149808184 0.45441342234368987 -0.03414755504493849
0.5820780424007469 0.5923124681202675 -0.03345869946766307
0.5839871564291959 0.2378470696422599 -0.03345869946766307
0.5634395786384663 0.5036075513551158 -0.03345869946766307
0.6334371460836098 0.3400732373099317 -0.03345869946766307
0.3498451457132816 0.33694386483030914 -0.03345869946766307
0.22530005734188616 0.206327006584929 -0.03345869946766307
0.23286762789795473 0.5614812606402119 -0.03345869946766307
0.5268023027213753 0.43005745729002337 -0.032179396252723015
0.5141372008934687 0.5371252955865454 -0.032179396252723015
0.20907258810006968 0.5860438823670612 -0.0314905406754476
0.21585289513925193 0.1950494567055343 -0.0314905406754476
0.48033407363716785 0.4491387567805525 -0.0314905406754476
0.6375899611351844 0.32228108182830384 -0.0314905406754476
0.5572792416188318 0.2397660244646699 -0.0314905406754476
0.5652896479031491 0.21101122451040183 -0.0314905406754476
0.563784006427104 0.5592375596170862 -0.0314905406754476
0.6573404346150667 0.3225074200894086 -0.030211237460507544
0.48322726706172453 0.3061421797321369 -0.030211237460507544
0.5244306713767556 0.2621243083442378 -0.029522381883232127
0.4917690762199397 0.5202089707674532 -0.029522381883232127
0.471073886519794 0.32475112111253435 -0.029522381883232127
0.20715363327765954 0.21019443861163242 -0.029522381883232127
0.6573404346150667 0.46737374799042886 -0.02903034218517825
0.5189395083464744 0.24294460091409797 -0.028243078668292076
0.38058778604768734 0.3297305628568395 -0.027554223091016655
0.5317325404958749 0.26362010902632155 -0.027554223091016655
0.4972307168683377 0.5329724805349708 -0.027554223091016655
0.6751030677148114 0.3477588973935332 -0.02706218339296278
0.4690663645517341 0.3766514684632565 -0.026274919876076604
0.380538582077882 0.4495225477450344 -0.025586064298801184
0.511913181458265 0.25538336448089977 -0.025586064298801184
0.6308490172718464 0.46463800726924925 -0.025586064298801184
0.3121942680181996 0.3118498402295618 -0.0243067610838611
0.6438191837125464 0.3118498402295618 -0.0243067610838611
0.4894564896390865 0.31956502269504655 -0.023617905506585678
0.6498220680288035 0.3338046515567254 -0.023617905506585678
