0.3969578072795212 0.535273728992701 -0.04467783457970136
0.39060785121585295 0.5427834075709911 -0.04467783457970136
0.39093105257238703 -0.002894553325429631 -0.044202538467151345
0.3525271266783458 0.3045364781941709 -0.043442064687071305
0.4007601761799212 -0.027933152534564402 -0.043442064687071305
0.5187286713148349 0.2655241732760657 -0.043442064687071305
0.3095888758705775 0.2721402951627619 -0.04277665012950128
0.5375789151385685 0.23600828468670976 -0.04277665012950128
0.3901800847145579 0.1001021142641586 -0.04277665012950128
0.29019679447853686 0.3034242852908038 -0.04277665012950128
0.5755645804535657 0.29919414988910875 -0.04277665012950128
0.46277681294544715 0.019824600854461073 -0.04277665012950128
0.4677008806714653 0.0655195691150195 -0.04277665012950128
0.46033379092694016 0.3011428639505638 -0.04277665012950128
0.37574058881528855 0.4326572982931529 -0.04277665012950128
0.4007601761799212 -0.027933152534564402 -0.042301354016951294
0.489241300492232 0.2592122409014015 -0.041540880236871254
0.3350077119697522 0.34767435336921015 -0.041540880236871254
0.4267208498474031 -0.07801035095283382 -0.041540880236871254
0.31911380996607974 0.24463015616836697 -0.040875465679301226
0.32114807732779377 0.24260539472890397 -0.040875465679301226
0.3906553808271079 0.07675556921570185 -0.040875465679301226
0.35330661230292787 0.17234712337176078 -0.040875465679301226
0.5268372229949382 0.21027575315325203 -0.040875465679301226
0.42080816620728095 -0.036897237217257656 -0.040875465679301226
0.44499123241382565 -0.039663460592298715 -0.040875465679301226
0.5072169994688734 0.2694311073212268 -0.040875465679301226
0.37559799998152354 0.42591759941719365 -0.040875465679301226
0.422652315123975 0.3177877338120652 -0.0396396957866712
0.4056842439059394 0.4611180295126478 -0.0396396957866712
0.5167704513311289 0.2659804575441137 -0.0396396957866712
0.3466999963384826 0.24850857244677513 -0.0396396957866712
0.5728934163010345 0.22247185140128542 -0.0396396957866712
0.3249124225391899 0.23129334725021367 -0.038974281229101175
0.5729029222232856 0.3053825052745099 -0.038974281229101175
0.4570257299835921 -0.01658308136687003 -0.038974281229101175
0.42642616625762203 -0.0718315014896837 -0.038974281229101175
0.42563717471078905 -0.044929741519352896 -0.038974281229101175
0.39513267020732906 0.06339024253079553 -0.038974281229101175
0.4490787789817557 0.30413722945962884 -0.038974281229101175
0.41287072112769563 0.2937757742060385 -0.038974281229101175
0.3700275295424374 0.405422831044037 -0.038974281229101175
0.5144415003796338 0.3241947254092395 -0.037738511336471145
0.3850944163102728 0.3351550537646429 -0.037738511336471145
0.5138141095110677 0.2495352120498832 -0.037738511336471145
0.3417854345347155 0.2421681223053579 -0.037738511336471145
0.3868149882377038 0.05299076358820113 -0.037073096778901124
0.5677792301299963 0.29497352040966457 -0.037073096778901124
0.5291661739464333 0.19241412524362242 -0.037073096778901124
0.48658914818420296 0.11388570152810906 -0.037073096778901124
0.39219534023177 0.05943577887437931 -0.037073096778901124
0.44328967233089656 -0.048532486052481914 -0.037073096778901124
0.5034336424129754 0.2729007689428419 -0.037073096778901124
0.4636038281812842 0.2933765254714965 -0.037073096778901124
0.4981388437191682 0.43631707835978795 -0.037073096778901124
0.5187286713148349 0.24019089047714987 -0.035837326886271094
0.3811019289648526 0.24319476190846598 -0.035837326886271094
0.5121410671948916 0.41027085139204705 -0.035837326886271094
0.30155637156848225 0.29908958474434766 -0.03517191232870107
0.326832618833892 0.22427797662897545 -0.03517191232870107
0.3825183113802517 0.01940634027541709 -0.03517191232870107
0.40224310005107733 -0.02317068548681321 -0.03517191232870107
0.3551507612196218 0.19044639933766544 -0.03517191232870107
0.45130316478848986 -0.027267737976994312 -0.03517191232870107
0.5069128099568415 0.3090993208746511 -0.03517191232870107
0.4502289955741268 0.2975020957284307 -0.03517191232870107
0.3833548325383398 0.4246628176800616 -0.03517191232870107
0.4852488131468119 0.34917628908486825 -0.03393614243607101
0.4523583221583509 0.23582767216394068 -0.03393614243607101
0.5038043733807644 0.4603480498103166 -0.03393614243607101
0.34293565112708646 0.20603611182930592 -0.03327072787850099
0.38068366838580864 0.019064127074381064 -0.03327072787850099
0.3812635296431196 0.08656568097873413 -0.03327072787850099
0.3418424700682215 0.2034790187437868 -0.03327072787850099
0.47387973013461554 0.0717744659561777 -0.03327072787850099
0.49352847142743306 0.31656146984168626 -0.03327072787850099
0.4948212768535692 0.4328949463494277 -0.03327072787850099
0.3224884123651849 0.17239465298301587 -0.03203495798587096
0.3350077119697522 0.24751045061042018 -0.03203495798587096
0.4351716147285423 -0.0855485472978771 -0.03203495798587096
0.5261623025151172 0.2011880914812957 -0.031369543428300936
0.3876705212402939 0.09897090951628958 -0.031369543428300936
0.3156916779557196 0.22851761795292155 -0.031369543428300936
0.5090231246965636 0.1804841928186171 -0.031369543428300936
0.4005700577349013 -3.32707278785248E-5 -0.031369543428300936
0.4136121830632737 0.3046505492611829 -0.031369543428300936
0.37536035192524847 0.42559439806065946 -0.031369543428300936
0.3638486800792871 0.40646848249164685 -0.031369543428300936
0.5182153515132809 0.30349082674656086 -0.030133773535670906
0.3684305346042693 0.1306066187676186 -0.030133773535670906
0.5295559167587243 0.20064625391298868 -0.029468358978100885
0.36071172573645705 0.16411499470239452 -0.029468358978100885
0.29279191125306003 0.2929867826592055 -0.029468358978100885
0.44019074167707056 -0.06681237454115549 -0.029468358978100885
0.4635562985700292 0.3027968944222378 -0.029468358978100885
0.5109623328357676 0.26646525957891476 -0.029468358978100885
0.49121853232044005 0.4247578769025715 -0.029468358978100885
0.43025705292477523 0.31447016694646623 -0.028232589085470855
0.3532020471581668 0.27254904981955497 -0.028232589085470855
0.4333464776563503 -0.07008241179549968 -0.027567174527900834
0.5665624720818684 0.3044129012049078 -0.027567174527900834
0.5758022285098408 0.2895931684155984 -0.027567174527900834
0.5389762857094655 0.1970149916131065 -0.027567174527900834
0.4362933135541603 -0.06501575523571651 -0.027567174527900834
0.3967581829122502 0.310686809890568 -0.027567174527900834
0.49523003151036216 0.42407345050049944 -0.027567174527900834
0.5102969182781977 0.14742259522963802 -0.026331404635270804
0.4852488131468119 0.36019365297377764 -0.026331404635270804
0.3866723994039388 0.07443612418645779 -0.025665990077700783
0.5325883059567934 0.20069378352424364 -0.025665990077700783
0.4836613241308948 0.02818981243534142 -0.025665990077700783
0.4418162543819915 -0.0736281207951227 -0.025665990077700783
0.5060097473429965 0.16877289660538475 -0.025665990077700783
0.5057625933644705 0.3044699367384138 -0.025665990077700783
0.489906715049802 0.4315165876230328 -0.025665990077700783
0.5780836498500806 0.27254904981955497 -0.024430220185070718
0.34752701157431964 0.4227901509966145 -0.024430220185070718
0.38007528936174456 0.146918781350335 -0.023764805627500697
0.5635586006505523 0.27108513779290083 -0.023764805627500697
0.47560030206204656 -0.006041013590510622 -0.023764805627500697
0.44067554371187145 -0.0736851563286287 -0.023764805627500697
0.422081959788915 0.1576604734939653 -0.023764805627500697
0.392499529743802 0.29956488085689775 -0.023764805627500697
0.3751797394024794 0.42636437776299063 -0.023764805627500697
0.4309699970936003 -0.08486412089580506 -0.022529035734870667
0.3350077119697522 0.3226357541600754 -0.022529035734870667
0.35659566140177384 0.17506581713554686 -0.021863621177300643
0.5255919471800571 0.18870681556573232 -0.021863621177300643
0.43456323570447836 -0.0738752747736488 -0.021863621177300643
0.40014229123360623 -0.03155490891219551 -0.021863621177300643
0.3943436786604961 0.148240104543224 -0.021863621177300643
0.4680811175615054 0.3065612396336339 -0.021863621177300643
0.38425789515218484 0.4329995114941889 -0.021863621177300643
0.5088995477073006 0.146101272036749 -0.021388325064750625
0.30996911276061745 0.20844111015880884 -0.020627851284670616
0.44769091433310965 0.3226357541600754 -0.020627851284670616
0.4973688640168373 0.16171950229514248 -0.01996243672710059
0.3663867613203042 0.1547041316739043 -0.01996243672710059
0.29101430379212284 0.2870931108635853 -0.01996243672710059
0.36744191869016524 0.17355437549763789 -0.01996243672710059
0.37759424365423355 0.29549634613346953 -0.01996243672710059
0.5006198894266793 0.27934578422902007 -0.01996243672710059
0.489488454470758 0.39550815413624363 -0.01996243672710059
0.34752701157431964 0.41027085139204705 -0.01948714061455057
0.5728934163010345 0.20995255179671796 -0.01948714061455057
0.5016275171852854 0.15961869347767138 -0.01806125227690054
0.3423462839475245 0.19808916082746955 -0.01806125227690054
0.5339571587609373 0.20859320491482491 -0.01806125227690054
0.5114756526373216 0.15699505893639534 -0.01806125227690054
0.4927965154141061 0.2953442513774536 -0.01806125227690054
0.5108577676910067 0.2648302409517426 -0.01806125227690054
0.49362353064994313 0.43694446922835395 -0.01806125227690054
0.34752701157431964 0.39775155178747973 -0.01758595616435052
0.522093767791689 0.1598753533784484 -0.01758595616435052
0.4855434967365929 0.07749703115127991 -0.01616006782670049
0.35815463265093794 0.16914362757317378 -0.01616006782670049
0.3680312858697272 0.1641625243136496 -0.01616006782670049
0.5499080962981158 0.24977286010615823 -0.01616006782670049
0.42344130667080804 -0.05787680762521524 -0.01616006782670049
0.5124167389401707 0.3069319706014229 -0.01616006782670049
0.49362353064994313 0.433398760228731 -0.01616006782670049
0.44769091433310965 0.3226357541600754 -0.015019357156580445
0.29128997553740194 0.27254904981955497 -0.015019357156580445
0.38169129614441466 0.11936111274468517 -0.014258883376500404
0.524051987775395 0.18418199657425618 -0.014258883376500404
0.5134243666987768 0.16391537033512352 -0.014258883376500404
0.49261590289133717 0.005955460290251751 -0.014258883376500404
0.42758588877224407 -0.06724014104245052 -0.014258883376500404
0.46885109726383645 0.30163717190761574 -0.014258883376500404
0.4355518516185824 0.2952016625436886 -0.014258883376500404
0.5069128099568415 0.4069152608374441 -0.014258883376500404
0.3528027984236247 0.27254904981955497 -0.012357698926300353
0.37594021318255955 0.1445327948653339 -0.012357698926300353
0.5334058152703793 0.19827927927248964 -0.012357698926300353
0.5762395009333867 0.2936046676055205 -0.012357698926300353
0.5255919471800571 0.1727653839508049 -0.012357698926300353
0.42786156051752305 -0.06532945066999953 -0.012357698926300353
0.391767573730475 0.29956488085689775 -0.012357698926300353
0.37498962095745947 0.4334653016844877 -0.012357698926300353
0.2984669468369071 0.2852014323356362 -0.010456514476100302
0.5043937405603264 0.1584684768853004 -0.010456514476100302
0.5399078660900636 0.20056070061272968 -0.010456514476100302
0.49542965587763316 0.1380497558901518 -0.010456514476100302
0.49091434280840807 0.04547157908765993 -0.010456514476100302
0.3615102232055411 0.30795861020453097 -0.010456514476100302
0.3762824263835956 0.4283606214357008 -0.010456514476100302
0.5792243605202008 0.2716745049724628 -0.009886159141040296
0.3574987240156189 0.41027085139204705 -0.009886159141040296
0.5294513516139633 0.19094070729471738 -0.008555330025900249
0.3020411736032833 0.2675964643267838 -0.008555330025900249
0.37551244668126454 0.15859205387456332 -0.008555330025900249
0.5429212434436306 0.2318066670517677 -0.008555330025900249
0.3673373535454043 0.2938423156617956 -0.008555330025900249
0.5099547050771617 0.3033292260682939 -0.008555330025900249
0.4988327760434913 0.4371916232068798 -0.008555330025900249
0.36715674102263524 0.2570068669391694 -0.0073195601332702205
0.28493051355148263 0.27254904981955497 -0.0073195601332702205
0.4202758345612249 -0.050405152735929 -0.006654145575700198
0.5669617208164104 0.2781480380253941 -0.006654145575700198
0.29102380971437386 0.28469761845633323 -0.006654145575700198
0.4273102170269651 0.1348557660138156 -0.006654145575700198
0.44095121545715055 0.30536349343000796 -0.006654145575700198
0.3772520304531975 0.2914658350990455 -0.006654145575700198
0.36653885607632025 0.4003276567175008 -0.006654145575700198
0.3350077119697522 0.2975876490286896 -0.005418375683070136
0.3556450691766739 0.14773629066392102 -0.005418375683070136
0.5797566921662568 0.2913802817987865 -0.004752961125500112
0.3660730658860212 0.03997715602658174 -0.004752961125500112
0.3675179660681732 0.15510338040844632 -0.004752961125500112
0.4785186201931037 0.0993701582508316 -0.004752961125500112
0.5063994901552875 0.3028254121889908 -0.004752961125500112
0.4712656015155904 0.2938613275062975 -0.004752961125500112
0.4882907082671319 0.4242540630232685 -0.004752961125500112
0.35401955647175276 0.29894699591058266 -0.0035171912328700837
0.35454238219555784 0.14734654785163004 -0.0035171912328700837
0.5773611997590047 0.27326199398837986 -0.0028517766753000605
0.36711871733363116 0.05351358931200621 -0.0028517766753000605
0.36764154305743624 0.1500177120041612 -0.0028517766753000605
0.4924923259020741 0.04710659771483195 -0.0028517766753000605
0.5128825291304697 0.3048216558617009 -0.0028517766753000605
0.3879842166745769 0.2874543359091234 -0.0028517766753000605
0.4974258995503433 0.40434866182967394 -0.0028517766753000605
0.49762552391761417 0.12230794864249528 -0.001616006782670032
0.3350077119697522 0.3351550537646429 -0.001616006782670032
0.36299314707669705 0.1348272482470626 -0.001616006782670032
0.5706595245720494 0.2613225556411235 -9.505922251000089E-4
0.37739461928696255 0.08867599571845627 -9.505922251000089E-4
0.36275549902042215 0.1721855226934938 -9.505922251000089E-4
0.5027777337776563 0.3043938893604059 -9.505922251000089E-4
0.5104585189564647 0.3033862616017999 -9.505922251000089E-4
0.4352476621065503 0.28422232234378325 -9.505922251000089E-4
0.5042891754155655 0.4088924926656522 -9.505922251000089E-4
0.4509039160539478 0.31010694863325705 2.8517766753001955E-4
0.2862043071331167 0.24751045061042018 2.8517766753001955E-4
0.5057055578309645 0.15118694044103412 9.505922251000427E-4
0.4883762615673909 0.13722274065431475 9.505922251000427E-4
0.34516003693382064 0.18237587134656613 9.505922251000427E-4
0.4226333032794729 -0.04047146398363368 9.505922251000427E-4
0.4951539841323542 0.3033577438350469 9.505922251000427E-4
0.39089302888338295 0.2802583527651161 9.505922251000427E-4
0.48664618371770896 0.4336078905182529 9.505922251000427E-4
0.5019697303863214 0.1348272482470626 0.002186362117730071
0.5102969182781977 0.4353094506011819 0.002186362117730071
0.5666385194598765 0.2616837806866616 0.0028517766753000944
0.3709305921562824 0.0334275755956426 0.0028517766753000944
0.490106339417073 0.11749795198348913 0.0028517766753000944
0.3455497797461116 0.19525639599667158 0.0028517766753000944
0.4024522303405994 0.2998500585244278 0.0028517766753000944
0.44356534407617554 0.2934335610050025 0.0028517766753000944
0.3677556141244483 0.405090123765252 0.0028517766753000944
0.30996911276061745 0.19893518790780856 0.004087546567930157
0.5353355174873324 0.31010694863325705 0.004087546567930157
0.5475221098131148 0.2306944741484006 0.00475296112550018
0.4937471076392062 0.024511020524204303 0.00475296112550018
0.49090483688615705 0.02522396469302935 0.00475296112550018
0.3192944224888488 0.21077006111030397 0.00475296112550018
0.4946881939420551 0.3135671043326212 0.00475296112550018
0.3744763011559054 0.43231508509211686 0.00475296112550018
0.3024594341823273 0.23366982781296372 0.005228257238050167
0.34752701157431964 0.36019365297377764 0.005988731018130208
0.5349933042862964 0.19713856860236958 0.006654145575700232
0.37290782398449046 0.06108030342380237 0.006654145575700232
0.3788775431581186 0.015252252251729983 0.006654145575700232
0.33252666626224114 0.18681513703778327 0.006654145575700232
0.4966654257702632 0.278975053261231 0.006654145575700232
0.3745238307671605 0.4339691155637907 0.006654145575700232
0.3024594341823273 0.2308560748266676 0.007129441688250253
0.522816217882765 0.4353094506011819 0.007889915468330259
0.5102969182781977 0.12230794864249528 0.007889915468330259
0.555858803627242 0.21990525239351524 0.008555330025900284
0.5031674765899474 0.04817126100694394 0.008555330025900284
0.292193038151247 0.28183633585878215 0.008555330025900284
0.36065469020295104 0.26185488728717965 0.008555330025900284
0.49596198752368914 0.4266400495082696 0.008555330025900284
0.4450007383360767 0.4478287502057494 0.009030626138450305
0.360055817101138 0.4227901509966145 0.009791099918530312
0.4986616694429733 0.12230794864249528 0.009791099918530312
0.5522180354051089 0.2522253880469163 0.010456514476100335
0.4153802846019598 -0.039216682246501725 0.010456514476100335
0.3198362600571558 0.2481853710902412 0.010456514476100335
0.5072550231578775 0.3039756287813619 0.010456514476100335
0.3744287715446505 0.43407368070855196 0.010456514476100335
0.3024594341823273 0.20995255179671796 0.010931810588650356
0.35625344820073784 0.39775155178747973 0.011692284368730363
0.49776811275137917 0.10978864903792795 0.011692284368730363
0.5174833954999539 0.17659627061795793 0.012357698926300386
0.4963992599472352 0.024663115280220225 0.012357698926300386
0.3680217799474763 0.148040480175953 0.012357698926300386
0.36711871733363116 0.3033577438350469 0.012357698926300386
0.4743360144026636 0.3040706880038718 0.012357698926300386
0.49746392323934724 0.40678217792593 0.012357698926300386
0.31720311959362874 0.20073180721324768 0.012832995038850407
0.3122885577898615 0.19743325219215063 0.013593468818930449
0.5353355174873324 0.23499115100585272 0.013593468818930449
0.5253162754347781 0.18782276479638924 0.014258883376500471
0.37828817597855663 0.081508530341202 0.014258883376500471
0.36489433152689715 0.15501782710818732 0.014258883376500471
0.37824064636730154 0.01461535546091303 0.014258883376500471
0.3574987240156189 0.3137762346221431 0.014258883376500471
0.41943931340313684 0.43418775177556396 0.014258883376500471
0.4502004778073738 0.441954090254631 0.014258883376500471
0.4351716147285423 0.31011645455550807 0.01473417948905046
0.48917475903647495 0.31010694863325705 0.01473417948905046
0.5441189896472567 0.23128384132796262 0.016160067826700524
0.4857431211038638 0.11226018882318795 0.016160067826700524
0.3377359116557893 0.20699620997665694 0.016160067826700524
0.49516349005460525 0.2726631208865668 0.016160067826700524
0.394172572059978 0.2969412463156216 0.016160067826700524
0.36488482560464613 0.40798943005180716 0.016160067826700524
0.5353355174873324 0.14734654785163004 0.01739583771933055
0.394391208271751 0.4478287502057494 0.01739583771933055
0.5422938525750647 0.20814642656902793 0.018061252276900575
0.3854556413558108 0.10342918705200865 0.018061252276900575
0.32957983036443106 0.2057319223172738 0.018061252276900575
0.37389643989859445 0.14527425680091194 0.018061252276900575
0.5071029284018614 0.3010287928835518 0.018061252276900575
0.41259504938241665 0.4353950039014408 0.018061252276900575
0.5082816627609856 0.39750439780895375 0.018061252276900575
0.5433109862559217 0.1816914449444941 0.019297022169530602
0.522816217882765 0.39775155178747973 0.019297022169530602
0.40000920832209225 0.4478287502057494 0.019297022169530602
0.49126606193169503 0.032534018904048494 0.019962436727100626
0.5058481466647295 0.16082594560354851 0.019962436727100626
0.4679290228054893 -0.0229995788862952 0.019962436727100626
0.5033290772682144 0.3006675678380138 0.019962436727100626
0.4595257875356051 0.3022645627761818 0.019962436727100626
0.4633566742027582 0.43802814436496806 0.019962436727100626
0.40000920832209225 0.4478287502057494 0.020437732839650648
0.5136334969882987 0.41027085139204705 0.021198206619730656
0.32634781679909103 0.21255717449349204 0.021863621177300677
0.38010380712849756 0.1377645782226218 0.021863621177300677
0.5146981602804108 0.17191935687046575 0.021863621177300677
0.4833856523856158 -0.009501169289874769 0.021863621177300677
0.5046313886166015 0.27819556763664904 0.021863621177300677
0.4130038040392097 0.30156112452960776 0.021863621177300677
0.40771851126765346 0.44085140327351513 0.021863621177300677
0.5368849828142455 0.17239465298301587 0.02309939106993074
0.43025705292477523 0.30808218719379404 0.02309939106993074
0.5353355174873324 0.34767435336921015 0.02309939106993074
0.5091752194525796 0.15869661901932441 0.023764805627500763
0.4915417336769741 0.023845605966634213 0.023764805627500763
0.49373760171695513 0.014006976436848943 0.023764805627500763
0.5036807963915013 0.3045364781941709 0.023764805627500763
0.4152757194571987 0.3019318554973968 0.023764805627500763
0.37069294410000736 0.438018638442717 0.023764805627500763
0.43025705292477523 0.30793009243777797 0.02424010174005075
0.426844426836666 0.31011645455550807 0.025000575520130793
0.4852488131468119 0.34767435336921015 0.025000575520130793
0.3736778036868215 0.14092054440995383 0.025665990077700814
0.4726724780087384 -0.014083023814856903 0.025665990077700814
0.49531558481062116 0.0270966313764763 0.025665990077700814
0.49545817364438616 0.2719121530287379 0.025665990077700814
0.40214804082856725 0.43413071624205796 0.025665990077700814
0.3812920474098726 0.42505256049235257 0.025665990077700814
0.359048189342532 0.1348272482470626 0.026901759970330844
0.35175714697601473 0.27254904981955497 0.026901759970330844
0.5353355174873324 0.3351550537646429 0.026901759970330844
0.5026446508661424 0.15077818578424118 0.027567174527900865
0.4816840923026868 0.10455088587762677 0.027567174527900865
0.5025400857213814 0.1392284902492758 0.027567174527900865
0.5073881060693914 0.3002778250257227 0.027567174527900865
0.4949828775318362 0.4293682491943068 0.027567174527900865
0.3830221252595547 0.43430182284257596 0.027567174527900865
0.4450007383360767 0.2543166909421363 0.028042470640450887
0.5285673008446202 0.15657679835735136 0.028802944420530895
0.4852488131468119 0.3226357541600754 0.028802944420530895
0.4925968910468351 0.1381638269571638 0.02946835897810092
0.4687370261968244 -0.017191460390933982 0.02946835897810092
0.489669066993527 0.0697497045167147 0.02946835897810092
0.3960927683546801 -0.008274905319495684 0.02946835897810092
0.4638604880820612 0.3027303529664809 0.02946835897810092
0.47621818700836155 0.438189745043235 0.02946835897810092
0.3945147852610141 0.4418780428766232 0.02946835897810092
0.5191089082048749 0.3162002447961483 0.030704128870730946
0.35448534666205184 0.14413354613079202 0.030704128870730946
0.46069501597247814 -0.01891203231836501 0.03136954342830097
0.37283177660648237 0.05080440147047103 0.03136954342830097
0.45776719191917 -0.027495880111018327 0.03136954342830097
0.36653885607632025 0.30185580811938884 0.03136954342830097
0.3569758982918139 0.31242639366250113 0.03136954342830097
0.5086143700397706 0.3978561169322407 0.03136954342830097
0.36228970883012307 0.40810350111881916 0.03136954342830097
0.4852488131468119 0.36019365297377764 0.032605313320931036
0.360055817101138 0.12381939028040438 0.032605313320931036
0.4791650229061717 0.09334340354369741 0.03327072787850106
0.4636893814815432 -0.02123147734760908 0.03327072787850106
0.5280064514318112 0.16426708945841056 0.03327072787850106
0.5050211314288925 0.2766746200764891 0.03327072787850106
0.5126448810741948 0.274839977082046 0.03327072787850106
0.39099759402814394 0.43446342352084294 0.03327072787850106
0.43011446409101023 0.4353094506011819 0.03450649777113109
0.3725751167057055 0.32112431252216644 0.03450649777113109
0.5058291348202275 0.13275495719634464 0.03450649777113109
0.37921975635915467 0.13532155620411468 0.03517191232870111
0.5246793786439611 0.1664819693428937 0.03517191232870111
0.47806233592505565 0.02865560262564036 0.03517191232870111
0.4991369655555233 0.2674158518040147 0.03517191232870111
0.45665499901580303 0.3004109079372368 0.03517191232870111
0.3738203925205865 0.43472958934387085 0.03517191232870111
0.4248006535527011 0.43380751488552377 0.03640768222133114
0.522816217882765 0.4227901509966145 0.03640768222133114
0.3717290896253663 0.145483387090434 0.03707309677890116
0.3532305649249198 0.15622507923406428 0.03707309677890116
0.46656967592359627 -0.02180183268266912 0.03707309677890116
0.4831384984070899 0.03316140977261454 0.03707309677890116
0.5125498218516847 0.26048603448303553 0.03707309677890116
0.5015609757295283 0.4096814842124852 0.03707309677890116
0.4990704240997662 0.12230794864249528 0.03754839289145115
0.3555595158764149 0.39775155178747973 0.03830886667153122
0.3616433061170551 0.1521565445106362 0.038974281229101244
0.5155061636717457 0.16092100482605845 0.038974281229101244
0.3477741655528456 0.18763264635136928 0.038974281229101244
0.40898279892703654 -0.012818736155473907 0.038974281229101244
0.4945170873415371 0.2669025320024607 0.038974281229101244
0.45423098884179786 0.30544904673026696 0.038974281229101244
0.3765105685176195 0.4318873185908217 0.038974281229101244
0.5353355174873324 0.23499115100585272 0.04021005112173124
0.5102969182781977 0.25326153357227527 0.04021005112173124
0.48455488082248876 0.032315382692275525 0.04087546567930126
0.3545518881178089 0.17913435185897497 0.04087546567930126
0.40028488006737123 -0.005242516121426702 0.04087546567930126
0.36895336032807435 0.2764845016314689 0.04087546567930126
0.3655787579289692 0.40541332512178596 0.04087546567930126
0.5060572769542514 0.40863583276487503 0.04087546567930126
0.34752701157431964 0.4353094506011819 0.042111235571931326
0.3717481014698684 0.14609176611449795 0.04277665012950135
0.4810947251231248 0.07698371134972588 0.04277665012950135
0.40140657889298925 -2.4240101740044908E-4 0.04277665012950135
0.5026446508661424 0.2696877672220038 0.04277665012950135
0.49763502983986524 0.25805251838677945 0.04277665012950135
0.37813608122254055 0.43482464856638076 0.04277665012950135
0.4852488131468119 0.3226357541600754 0.04401242002213134
0.522816217882765 0.4603480498103166 0.04401242002213134
0.5121695849616447 0.16016053104597844 0.04467783457970136
0.49578137500092023 0.05704028646712728 0.04467783457970136
0.4740128130461295 0.03270512550456651 0.04467783457970136
0.3724990693276974 0.2584612730435724 0.04467783457970136
0.4830149214178268 0.4353569802124369 0.04467783457970136
0.3838111168063877 0.43859849970002807 0.04467783457970136
0.46050489752745816 0.44903600233162627 0.04591360447233143
0.38636820989190684 0.06996834072848766 0.04657901902990145
0.3776132554987355 0.12358174222412932 0.04657901902990145
0.4595352934578561 8.792978082175378E-4 0.04657901902990145
0.5105725900234767 0.30346230897980786 0.04657901902990145
0.37487554989044747 0.42986255715135874 0.04657901902990145
0.5002016288476353 0.438636523389032 0.04657901902990145
0.46257718857817615 0.4490835319428812 0.04781478892253151
0.48704543245225085 0.1377645782226218 0.048480203480101534
0.4973688640168373 0.1350744022255887 0.048480203480101534
0.3965300407782262 0.08962658794355625 0.048480203480101534
0.40169175656051925 0.0030466480814455516 0.048480203480101534
0.3723945041829364 0.27568600416238503 0.048480203480101534
0.4946501702530512 0.4011736837978398 0.048480203480101534
0.48060992308832373 0.2740034559239579 0.04971597337273153
0.3508160606731658 0.31515459334853824 0.04971597337273153
0.37542689338100554 0.14591115359172904 0.05038138793030155
0.4779387589357926 0.13082525497939154 0.05038138793030155
0.47158880287212446 0.03512913567857154 0.05038138793030155
0.37280325883972937 0.274269621746986 0.05038138793030155
0.48875649845743097 0.43489119002213783 0.05038138793030155
0.3824612758467457 0.42740052328834977 0.05038138793030155
0.3552077967531278 0.39775155178747973 0.051617157822931616
0.46241558789990916 0.10649009401683078 0.052282572380501637
0.5074736593696505 0.1432399894391979 0.052282572380501637
0.40361195285522145 0.12804952568209946 0.052282572380501637
0.39537031826360414 0.023826594122132255 0.052282572380501637
0.5105250604122217 0.306912958756921 0.052282572380501637
0.48914624126972195 0.4269537449425525 0.052282572380501637
0.4852488131468119 0.3226357541600754 0.05351834227313163
0.5038043733807644 0.4603480498103166 0.05351834227313163
0.48671272517346587 0.1253688556073174 0.05418375683070166
0.4790604577614107 0.045842310055448955 0.05418375683070166
0.46698793650264026 0.022771436752271185 0.05418375683070166
0.3568047916912959 0.2680052189835767 0.05418375683070166
0.49537262034412716 0.4352429091454249 0.05418375683070166
0.3663107139422962 0.4397392103701479 0.05418375683070166
0.4728150668425034 0.08090015131713806 0.056084941280901746
0.39136832499593294 0.06775346084400456 0.056084941280901746
0.41442969237685967 0.001335582076265569 0.056084941280901746
0.3616813298060591 0.3003823901704838 0.056084941280901746
0.49046756446261097 0.4349006959443889 0.056084941280901746
0.3638962096905421 0.40903508149941703 0.056084941280901746
0.3850944163102728 0.3852322521829124 0.05650320185994573
0.4590599973453061 0.10552999586947975 0.057986125731101824
0.49986892156885027 0.0402433218496098 0.057986125731101824
0.4397059396422695 0.016811223500894045 0.057986125731101824
0.3984692489174302 0.07323837798283171 0.057986125731101824
0.35615838897822794 0.31033509076728105 0.057986125731101824
0.49133260338745205 0.4349577314778949 0.057986125731101824
0.3639722570685502 0.409310753244696 0.057986125731101824
0.3350077119697522 0.31010694863325705 0.059497567369010865
0.3998000780325702 0.12614834123189936 0.05988731018130185
0.4809046066781048 0.05240139640863914 0.05988731018130185
0.45668351678255603 0.08911326814200221 0.05988731018130185
0.40252827771860733 0.08757330873734025 0.05988731018130185
0.3573561351818539 0.2585373204215805 0.05988731018130185
0.4919029587225121 0.42975799200659776 0.05988731018130185
0.37767979695449255 0.39766599848722073 0.05988731018130185
0.38912492734469695 0.026573805652671353 0.06178849463150193
0.3901515669478049 0.04256276687885387 0.06178849463150193
0.4707807994807894 0.06760136608798864 0.06178849463150193
0.3718431606923783 0.2573680919847074 0.06178849463150193
0.4919504883337671 0.42981502754010376 0.06178849463150193
0.37763226734323757 0.39771352809847565 0.06178849463150193
0.34926659534625265 0.2961522547687886 0.062482426955824955
0.4621113983878772 0.013113419745254972 0.06368967908170195
0.4510274930432109 0.09988347805238564 0.06368967908170195
0.40830787844721556 0.08410364711572504 0.06368967908170195
0.37958098140469265 0.25833769605430945 0.06368967908170195
0.49912745963327226 0.25752018674072347 0.06368967908170195
0.3872522606612499 0.4357467230247279 0.06368967908170195
0.3749135735794515 0.44974894650045144 0.06559086353190204
0.44949703956079984 0.10443681481061477 0.06559086353190204
0.39798444688262913 0.06045291255523633 0.06559086353190204
0.4450672797918336 0.10758327507569576 0.06559086353190204
0.37528430454724054 0.26446901590620464 0.06559086353190204
0.48707395021900385 0.2545068093871563 0.06559086353190204
0.37832619966756054 0.42997662821837074 0.06559086353190204
0.4707047521027814 0.029663230384246477 0.06749204798210212
0.40851700873673746 0.028826709226158376 0.06749204798210212
0.3816437665331597 0.05240139640863914 0.06749204798210212
0.36861114712703835 0.2647446876514836 0.06749204798210212
0.5149643261034388 0.3005344849264997 0.06749204798210212
0.37151045341359334 0.40822707810808195 0.06749204798210212
0.5020172599975763 0.44886489573110827 0.06845214612945313
0.4071576618548444 0.024663115280220225 0.06939323243230214
0.49569582170066123 0.056042164630772204 0.06939323243230214
0.4200191746604479 0.1055109840249778 0.06939323243230214
0.37958098140469265 0.26022937458225853 0.06939323243230214
0.3607782671922141 0.39885423876859577 0.06939323243230214
0.5353355174873324 0.31010694863325705 0.07129441688250222
0.522816217882765 0.44934019184365837 0.07129441688250222
0.5001921229253844 0.043228181436423825 0.07129441688250222
0.4748208164374646 0.05247744378664709 0.07129441688250222
0.4986426575984713 0.2738893848569459 0.07129441688250222
0.38194795604519166 0.4316211527677938 0.07129441688250222
0.49017288087283 0.42625030669597863 0.07129441688250222
0.3836970457393757 0.03747709847456861 0.07319560133270224
0.43640738462117235 0.027030089920719386 0.07319560133270224
0.49768255945112017 0.25580912073554335 0.07319560133270224
0.3809878578978406 0.439881799203913 0.07319560133270224
0.4727295135422444 0.27254904981955497 0.0744313712253323
0.3350077119697522 0.24751045061042018 0.0744313712253323
0.48922228864773004 0.05376074329053218 0.07509678578290233
0.3811684704206097 0.049435548666327066 0.07509678578290233
0.5000020044803642 0.26483974687399364 0.07509678578290233
0.35582568169944295 0.26018184497100355 0.07509678578290233
0.49918449516677826 0.407228956271727 0.07509678578290233
0.3766341455068825 0.042515237267598774 0.07699797023310241
0.45577094824646 0.0436939716267229 0.07699797023310241
0.49797724304090124 0.25592319180255535 0.07699797023310241
0.3830791607930607 0.44132669938606495 0.07699797023310241
0.4727295135422444 0.24992495486217417 0.0774162308121464
0.35159554629774775 0.25368930007357027 0.0774162308121464
0.4706667284137774 0.049834797400869095 0.07889915468330243
0.44092269769039755 0.1284012448053865 0.07889915468330243
0.3745428426116625 0.2586894151775964 0.07889915468330243
0.49598099936819123 0.43588931185849306 0.07889915468330243
0.522816217882765 0.39775155178747973 0.08041059632121146
0.37548392891451154 0.4329900055719379 0.08080033913350251
0.489878197283049 0.42765718318912666 0.08080033913350251
0.37498962095745947 0.25819510722054445 0.08080033913350251
0.47329986887730446 0.055367244150951206 0.08080033913350251
0.49779663051813217 0.42857925764747373 0.08270152358370253
0.5138141095110677 0.2567882307273965 0.08270152358370253
0.39016107287005597 0.051061061371248044 0.08270152358370253
0.522816217882765 0.39775155178747973 0.08339545590802556
0.3851324399992768 0.04429284472853594 0.08460270803390262
0.5147647017361678 0.3122267692952301 0.08460270803390262
0.36410533998006417 0.39960520662642485 0.08460270803390262
0.5048215070616214 0.4398342695926581 0.08460270803390262
0.3850944163102728 0.3351550537646429 0.0865038924841027
0.4922451719235481 0.045148377731125865 0.0865038924841027
0.3832692792380808 0.2588795336226165 0.0865038924841027
0.49789168974064224 0.4286838227922347 0.0865038924841027
0.5028347693111623 0.27274867418682586 0.08840507693430272
0.3815201895438966 0.43590832370299487 0.08840507693430272
0.4921215949342851 0.43080364345420763 0.08840507693430272
0.3850944163102728 0.3852322521829124 0.08936517508165374
0.49599050529044214 0.3969340424738937 0.0903062613845028
0.36514148550542314 0.3004489316262407 0.0903062613845028
0.5127019166077008 0.3007055915270177 0.0903062613845028
0.3850944163102728 0.36019365297377764 0.09220744583470282
0.5051637202626574 0.4022668648567048 0.09220744583470282
0.36513197958317223 0.3010573106503048 0.09220744583470282
0.5131962245647527 0.3027873884999869 0.09220744583470282
0.4952205255881111 0.43328468916171897 0.0941086302849029
0.49768255945112017 0.25415509026386934 0.0941086302849029
0.5204397373200149 0.3226357541600754 0.09534440017753297
0.35652911994601694 0.32531642423485746 0.09534440017753297
0.3638391741570361 0.4002706211839948 0.09600981473510299
0.4848020348010149 0.44361762664855614 0.09600981473510299
0.3588580708975119 0.2586513914885925 0.09600981473510299
0.3350077119697522 0.3351550537646429 0.09724558462773299
0.5113710874925608 0.4353094506011819 0.09724558462773299
0.394619350405775 0.435775240791481 0.09791099918530301
0.4983384680864392 0.4273624995993456 0.09791099918530301
0.5143084174681198 0.25561900229052337 0.09791099918530301
0.522816217882765 0.3226357541600754 0.09838629529785307
0.35373437880422287 0.3812587766819942 0.09914676907793307
0.5077208133481766 0.4478287502057494 0.09914676907793307
0.4811707725011327 0.2600297502149875 0.09914676907793307
0.49071471844113707 0.43613646583701887 0.0998121836355031
0.5007244545714403 0.3162382684851522 0.0998121836355031
0.3718431606923783 0.2543737264756423 0.0998121836355031
0.5138141095110677 0.37952869883231216 0.10028747974805309
0.38261337060276174 0.37271295257834497 0.10104795352813309
0.46322359129124413 0.4603480498103166 0.10104795352813309
0.5353355174873324 0.27254904981955497 0.10104795352813309
0.3719001962258843 0.3850326278156414 0.10171336808570311
0.5077683429594315 0.3154112532493151 0.10171336808570311
0.3745428426116625 0.2568927958721574 0.10171336808570311
0.41059880570970664 0.4525722054089985 0.10218866419825318
0.35114876795195077 0.2975876490286896 0.10294913797833317
0.42566569247754205 0.4603480498103166 0.10294913797833317
0.4941558622959991 0.374500065961533 0.10294913797833317
0.39101660587264603 0.4365357145715609 0.1036145525359032
0.4984810569202042 0.42751459435536177 0.1036145525359032
0.49963127351257536 0.27135130361592885 0.1036145525359032
0.37127280535731844 0.3351550537646429 0.10408984864845319
0.490391517084603 0.374433524505776 0.10408984864845319
0.522816217882765 0.35068773072277737 0.10485032242853326
0.4204279293172409 0.4227901509966145 0.10485032242853326
0.35652911994601694 0.36949044493525585 0.10485032242853326
0.5037473378472584 0.3895669527293684 0.10551573698610328
0.391739055963722 0.44018598871594516 0.10551573698610328
0.3725941285502074 0.25356572308430736 0.10551573698610328
0.4990704240997662 0.3718003840422489 0.10599103309865328
0.37127280535731844 0.3352596189094038 0.10599103309865328
0.3811019289648526 0.3569711453306884 0.10675150687873328
0.4450007383360767 0.45162161318389826 0.10675150687873328
0.4852488131468119 0.3241376898757335 0.10675150687873328
0.5071884817021205 0.39297007289522656 0.10741692143630331
0.3640958340578131 0.3142990603459482 0.10741692143630331
0.3719287139926373 0.43212496664709676 0.10741692143630331
0.4450007383360767 0.43201089558008476 0.10789221754885336
0.37754671404297857 0.4603480498103166 0.10865269132893336
0.5213332940116089 0.2543737264756423 0.10865269132893336
0.4707332698695344 0.43635510204879185 0.1093181058865034
0.5078538962596906 0.2632807756248296 0.1093181058865034
0.3832692792380808 0.2690033408199318 0.1093181058865034
0.41929672456937184 0.44682112244714317 0.1093181058865034
0.34752701157431964 0.41027085139204705 0.11055387577913338
0.5353355174873324 0.27254904981955497 0.11055387577913338
0.5035667253244893 0.3875136735231524 0.11121929033670341
0.4962091415022153 0.3364858828797829 0.11121929033670341
0.36911496100634134 0.3770381472025501 0.11121929033670341
0.34752701157431964 0.36019365297377764 0.11245506022933346
0.38852605424288394 0.45186876716242436 0.11245506022933346
0.3655502401622162 0.2641458145496707 0.1131204747869035
0.40410626081227335 0.43862701746678096 0.1131204747869035
0.4686514728965654 0.4469256875919041 0.1131204747869035
0.3891629510337009 0.2595164304134335 0.11435624467953355
0.3717290896253663 0.4294252847278128 0.11502165923710359
0.49505892490984416 0.26057158778329453 0.11502165923710359
0.37120626390156136 0.25348016978404836 0.11502165923710359
0.4727295135422444 0.24992495486217417 0.11625742912973358
0.37630143822809753 0.436782868550087 0.1169228436873036
0.4618072088758452 0.44194458433237993 0.1169228436873036
0.35841129255171494 0.4353094506011819 0.11815861357993367
0.5126163633074418 0.4227901509966145 0.11815861357993367
0.4958289046121752 0.4339310918747868 0.11882402813750369
0.5022644139761024 0.26627514113389467 0.11882402813750369
0.3350077119697522 0.2850683494241223 0.12005979803013368
0.5144795240686378 0.39027039097594246 0.12005979803013368
0.49701714489355026 0.43699199883960893 0.1207252125877037
0.5090326306188145 0.3809260694032092 0.1207252125877037
0.5134148607765257 0.41027085139204705 0.12196098248033377
0.39761371591484024 0.27254904981955497 0.12196098248033377
0.4970646745048052 0.4370395284508639 0.12262639703790379
0.5098216221656475 0.37627767342247004 0.12262639703790379
0.3485156274884237 0.2600297502149875 0.12386216693053385
0.46302396692397324 0.4503097959132604 0.12386216693053385
0.5055249453081955 0.3392140825658199 0.12452758148810388
0.36017939409040106 0.37134409977420085 0.12452758148810388
0.3614151639830311 0.4478287502057494 0.12576335138073386
0.3549321250078488 0.38215233337358817 0.12576335138073386
0.5059812295762435 0.3592810844376816 0.12642876593830388
0.37300288320700037 0.24971582457265223 0.12642876593830388
0.4091824232943076 0.4531140429773054 0.12766453583093396
0.3896952826797569 0.2600297502149875 0.12766453583093396
0.4968460382930322 0.25560949636827235 0.12832995038850398
0.3483730386546587 0.2600297502149875 0.12956572028113397
0.5174833954999539 0.3806979272691852 0.12956572028113397
0.37737560744246057 0.435651663802218 0.130231134838704
0.38048404401853764 0.42949182618356985 0.130231134838704
0.34949473748027665 0.34767435336921015 0.13146690473133404
0.47672200088766453 0.26898432897542984 0.13146690473133404
0.5053728505521795 0.26265338475626354 0.13213231928890407
0.4990228944885113 0.43363640828500577 0.13403350373910417
0.49541064403313123 0.42809445561267256 0.13403350373910417
0.35390548540474076 0.3661253484584018 0.13438522286239116
0.4945075814192862 0.437239152818135 0.13593468818930418
0.5164092262855909 0.2546493982209213 0.13593468818930418
0.4007601761799212 0.4526007231757514 0.13729403507119722
0.49376611948370813 0.43189682451307276 0.13783587263950425
0.37144391195783644 0.2592217468236525 0.13783587263950425
0.491769875810998 0.4374958127189119 0.1397370570897043
0.3566622028575309 0.25153145572259317 0.1397370570897043
0.4499153001398438 0.4526672646315084 0.14021235320225434
0.4994791787565593 0.43913083134608394 0.14163824153990437
0.5006293953489303 0.2589936046896285 0.14163824153990437
0.34752701157431964 0.41027085139204705 0.14211353765245435
0.520877009743561 0.2850683494241223 0.14211353765245435
0.5018746711638113 0.3852987936386693 0.14353942599010444
0.5032340180457043 0.24518149965892508 0.14401472210265445
0.5027492160109034 0.2640412494049096 0.14544061044030449
0.5012567862174964 0.4129800392335821 0.14544061044030449
0.3730694246627574 0.43843689902176086 0.14544061044030449
0.3350077119697522 0.24751045061042018 0.14591590655285452
0.5050401432733944 0.41290399185557425 0.14734179489050456
0.36935260906261624 0.45102274008208537 0.14734179489050456
0.40417280226803043 0.44036660123871396 0.14734179489050456
0.3660730658860212 0.24473472131312807 0.14857756478313455
0.5046599063833545 0.3788252605857381 0.14924297934070457
0.35826870371794994 0.4433229430587751 0.14924297934070457
0.3684780642155242 0.440147965026941 0.14924297934070457
0.52286374749402 0.25319499211651836 0.15047874923333462
0.36056913690269204 0.4178090477370903 0.15114416379090467
0.5076447659701685 0.4543688247144375 0.15114416379090467
0.34752701157431964 0.2850683494241223 0.15237993368353472
0.37992319460572865 0.43008119336313166 0.15304534824110475
0.49964077943482627 0.4288169057037488 0.15304534824110475
0.5087474529512845 0.37358749742543695 0.15304534824110475
0.520810468287804 0.24751045061042018 0.15352064435365473
0.3615957765058001 0.2676820176270428 0.15494653269130476
0.5153825866824828 0.3436913719460411 0.15494653269130476
0.36626318433104127 0.4024569833017249 0.15494653269130476
0.49946967283430826 0.2615887214641516 0.15684771714150486
0.3616433061170551 0.2981104747524947 0.15684771714150486
0.3525746562896009 0.3129302075418041 0.15684771714150486
0.5236432331186021 0.27771076560184804 0.15732301325405484
0.5038328911475174 0.4557947130520876 0.15874890159170488
0.5025020620323774 0.37411982907149294 0.15874890159170488
0.4646684914733962 0.23499115100585272 0.15922419770425492
0.5230823837057931 0.28635164892800735 0.16065008604190495
0.42521891413174506 0.38222838075159626 0.16065008604190495
0.357232558192591 0.3038995814033538 0.16065008604190495
0.5067512092785745 0.34102020779350994 0.16065008604190495
0.4646684914733962 0.23499115100585272 0.16112538215445493
0.4511130463434699 0.4142063032039613 0.16255127049210505
0.5245843194214511 0.2722448603075228 0.16255127049210505
0.3678982029582133 0.3789868612640051 0.16255127049210505
0.41410649102032576 0.4335888786737508 0.16255127049210505
0.39093105257238703 0.23499115100585272 0.16302656660465503
0.42334624744829796 0.39567926073676163 0.16445245494230507
0.5257820656250771 0.25507716472221637 0.16445245494230507
0.46903170978660536 0.4272769462990867 0.16445245494230507
0.5145175477576417 0.28652275552852535 0.16445245494230507
0.4211123557193129 0.3926373656164416 0.16635363939250514
0.3479357662311126 0.2502481562187082 0.16635363939250514
0.3636870794010202 0.4228281746856184 0.16635363939250514
0.3589151064310179 0.25782437625275545 0.16635363939250514
0.44099874506840553 0.3965633115061047 0.16825482384270515
0.4112737261895276 0.4234080359429295 0.16825482384270515
0.3903226735483229 0.2587464507111024 0.16825482384270515
0.4488791546144847 0.440205000560447 0.16825482384270515
0.4189259936015828 0.41200092924172926 0.17015600829290525
0.49575285723416723 0.39283698998371264 0.17015600829290525
0.41257603753791466 0.42552785660490267 0.17015600829290525
0.5073595883026385 0.4272199107655807 0.17015600829290525
0.4485844710247038 0.42636437776299063 0.17205719274310532
0.5054679097746895 0.45382698714613035 0.17205719274310532
0.36337338396673713 0.41893074656270834 0.17205719274310532
0.46005811918166106 0.4024569833017249 0.17205719274310532
0.4380519091705954 0.3920384925146286 0.17395837719330534
0.35990372234512197 0.43427330507582285 0.17395837719330534
0.358877082742014 0.339993568190402 0.17395837719330534
0.5090801602300696 0.36679076301597174 0.17395837719330534
0.40127349598147527 0.3640625633299347 0.17395837719330534
0.5158483768727817 0.3801846074676312 0.17585956164350544
0.36272698125366915 0.39734279713068676 0.17585956164350544
0.5074641534473996 0.32720810276280665 0.17585956164350544
0.3552077967531278 0.2762848772641979 0.17585956164350544
0.35214688978830583 0.2509420885430312 0.17776074609370546
0.424201780450888 0.4338360326522769 0.17776074609370546
0.3576983483828899 0.31913757477170734 0.17776074609370546
0.39538933010810606 0.25367979415131925 0.17776074609370546
0.43012397001326114 0.4419826080213841 0.1789965159863355
0.45873679598877204 0.40437717959642683 0.17966193054390553
0.43440163502621126 0.3441761739808421 0.17966193054390553
0.5048785425951274 0.34058293536996403 0.17966193054390553
0.4376146367470494 0.4419731020991331 0.1808977004365356
0.4117395163798266 0.40385435387262186 0.18156311499410563
0.4815985390024278 0.3244228675432635 0.18156311499410563
0.4744025558584205 0.2892604611368134 0.18156311499410563
0.4727295135422444 0.42524267893737266 0.18279888488673562
0.4459703424056786 0.3944339849218806 0.18346429944430565
0.524365683209678 0.24694009527536015 0.18346429944430565
0.5124072330179197 0.2574441393627154 0.18346429944430565
0.39761371591484024 0.3852322521829124 0.1847000693369357
0.42776650129501315 0.39268489522769656 0.18536548389450572
0.52505010961175 0.24798574672297016 0.18536548389450572
0.5145270536798927 0.2881862919224504 0.18536548389450572
0.4332133947448362 0.3912399950455445 0.18726666834470573
0.34361057160690744 0.25628441684809333 0.18726666834470573
0.36121553961576003 0.26455456920646364 0.18726666834470573
0.4180894724434948 0.4228281746856184 0.18916785279490583
0.5122741501064058 0.24309970268595593 0.18916785279490583
0.42117889717506996 0.439530080080626 0.19065077666606187
0.4294490495334401 0.43620300729277595 0.1910690372451059
0.44770042025536066 0.39547963636949063 0.19297022169530592
0.46313803799098513 0.39775155178747973 0.19362613033062498
0.42554211548827897 0.4349006959443889 0.19487140614550602
0.41451524567711867 0.4109742896386212 0.19677259059570604
