0.5346559223774756 0.4813327305797508 -0.14721126569924012
0.42931808336601934 0.32146899335145834 -0.14721126569924012
0.478657911503647 0.34630247549327137 -0.14721126569924012
0.1846875977187525 0.31882303922941313 -0.14721126569924012
0.42660477768450383 0.28561872041058456 -0.14721126569924012
0.5632707135009748 0.4277978624522625 -0.14721126569924012
0.513238126465939 0.5290753645927985 -0.14673018313159558
0.47522298197066476 0.5417470794245567 -0.14673018313159558
0.452140640375078 0.3124438843824461 -0.14673018313159558
0.4868459368049577 0.4416819053544849 -0.14528693542866183
0.5374846878752257 0.3258179797629653 -0.14528693542866183
0.26767434063744183 0.3043616972460172 -0.14528693542866183
0.43689032298074487 0.4620894278739678 -0.14528693542866183
0.43293582427470645 0.31583070565866395 -0.14528693542866183
0.4740298972029061 0.3905332067625136 -0.14528693542866183
0.4679009052911142 0.3464179353095061 -0.14528693542866183
0.5276609818439234 0.4893668094594153 -0.14528693542866183
0.558642699200234 0.437419513805154 -0.14528693542866183
0.20909772720103834 0.5164036497610404 -0.14480585286101724
0.4531701570698374 0.46388867667695843 -0.14480585286101724
0.6399648964348731 0.3263183056333157 -0.14480585286101724
0.5352235998072962 0.3393075349597192 -0.14336260515808352
0.4804475386552848 0.4579232528381658 -0.14336260515808352
0.2799227028096728 0.3668543227830476 -0.14336260515808352
0.4563260587135857 0.485835663412904 -0.14336260515808352
0.4332533387693519 0.3153496230910194 -0.14336260515808352
0.47169183592415354 0.3464179353095061 -0.14336260515808352
0.46235883411184875 0.3319950799315216 -0.14336260515808352
0.4033011381078006 0.49219557495716537 -0.14336260515808352
0.5573918845243582 0.3927461865736787 -0.14336260515808352
0.252856997553989 0.362563066279658 -0.14336260515808352
0.37383964166524686 0.49349449788980576 -0.14288152259043893
0.6906517557619056 0.36280360756348023 -0.14288152259043893
0.5357912772371167 0.3400387804625389 -0.14143827488750524
0.44089292994354773 0.4570284392623469 -0.14143827488750524
0.27070516081360274 0.41071943130088 -0.14143827488750524
0.5002681404422412 0.4818234347987483 -0.14143827488750524
0.4025891359076867 0.295163398552653 -0.14143827488750524
0.48138083883651533 0.3924864019871506 -0.14143827488750524
0.29259441764143085 0.38590519246177285 -0.14143827488750524
0.5532257094885562 0.48043791700393196 -0.14143827488750524
0.5574015061757112 0.3926980783169141 -0.14143827488750524
0.3484962120017306 0.26539400926680656 -0.14095719231986065
0.5081675162029654 0.3098845251225769 -0.14095719231986065
0.5512532709612133 0.2756218246549303 -0.14095719231986065
0.4865861522184296 0.39863463720164827 -0.13951394461692693
0.43098262905006945 0.3017542297293836 -0.13951394461692693
0.5008454395234146 0.4725962711513253 -0.13951394461692693
0.42931808336601934 0.32146899335145834 -0.13951394461692693
0.47169183592415354 0.3464179353095061 -0.13951394461692693
0.47951423847405433 0.44262482718706825 -0.13951394461692693
0.2769015042848648 0.43232003858812146 -0.13951394461692693
0.546423201982062 0.3991157197692928 -0.13951394461692693
0.2594382070793667 0.36805702920215905 -0.13951394461692693
0.29634686166905855 0.35001643291548745 -0.13903286204928236
0.33403487001833465 0.4910602200975242 -0.13903286204928236
0.6019401302882459 0.3009652543184465 -0.13903286204928236
0.4762428770140712 0.34062570119506536 -0.13758961434634862
0.5105536857384824 0.4700850201482206 -0.13758961434634862
0.5247359998326444 0.34596571769592005 -0.13758961434634862
0.3983844742664731 0.48096710782834096 -0.13758961434634862
0.47848472177929496 0.2951922635067117 -0.13758961434634862
0.47131659152139077 0.3807191223825643 -0.13758961434634862
0.4714416729889784 0.4472720847905149 -0.13758961434634862
0.557670912413592 0.41001705075211897 -0.13758961434634862
0.26356589550975723 0.4122107872605782 -0.13758961434634862
0.1457391530422478 0.49349449788980576 -0.13710853177870405
0.3887628229135816 0.5037319349292823 -0.13710853177870405
0.3887628229135816 0.2756218246549303 -0.13710853177870405
0.4804475386552848 0.4579232528381658 -0.1356652840757703
0.4796104549875832 0.38220085669090953 -0.1356652840757703
0.2668853652265048 0.3116356656688032 -0.1356652840757703
0.38334583320190363 0.45201555890749034 -0.1356652840757703
0.43274339124764866 0.3196601228971147 -0.1356652840757703
0.47131659152139077 0.3554141793244595 -0.1356652840757703
0.47166297097009485 0.4430385581952427 -0.1356652840757703
0.526198490838284 0.34449360503892773 -0.1356652840757703
0.5456342265711247 0.32718425425507586 -0.1356652840757703
0.27055121439195645 0.3647183161827057 -0.1356652840757703
0.18020390818830515 0.3209686674811079 -0.1356652840757703
0.34896767291802233 0.4910602200975242 -0.13518420150812574
0.6653083260983895 0.36433345012859003 -0.13518420150812574
0.48767339882130634 0.4502644183612641 -0.13374095380519202
0.43621680738604257 0.3220366707812789 -0.13374095380519202
0.5402172368594469 0.31534000143966645 -0.13374095380519202
0.47672395958171576 0.3888205528216989 -0.13374095380519202
0.44981220074767825 0.2963083750636471 -0.13374095380519202
0.4756655779328977 0.3966814419770112 -0.13374095380519202
0.2892364613192717 0.3571653198706858 -0.13374095380519202
0.5291234728495631 0.3451093907255127 -0.13374095380519202
0.2678282870590881 0.37066449671879265 -0.13374095380519202
0.18339829643746505 0.4577019548570492 -0.13374095380519202
0.45949158200868706 0.46388867667695843 -0.13325987123754743
0.7033234705936638 0.4150203094556225 -0.13325987123754743
0.47554049646531005 0.3835959961370788 -0.1318166235346137
0.17540270416321233 0.3877814144755866 -0.1318166235346137
0.4267587241061502 0.48318008763950604 -0.1318166235346137
0.4744724931651392 0.3291278278283599 -0.1318166235346137
0.27292776227612064 0.3069787864140037 -0.1318166235346137
0.5149026721499893 0.44148947232742713 -0.1318166235346137
0.5350600317342971 0.3180340638184761 -0.1318166235346137
0.3808826904555634 0.4684878260236407 -0.1318166235346137
0.1457391530422478 0.42769202428738057 -0.13133554096696914
0.6653083260983895 0.3263183056333157 -0.13133554096696914
0.49838229677707446 0.45020668845314676 -0.12989229326403542
0.47897542599829246 0.3061320810949492 -0.12989229326403542
0.22450199101701765 0.31083706860651317 -0.12989229326403542
0.5079462182218486 0.3470914509042084 -0.12989229326403542
0.1810794784614182 0.47092210381592225 -0.12989229326403542
0.5408426441973848 0.35647256097327773 -0.12989229326403542
0.5195980380102003 0.40205032343192476 -0.12989229326403542
0.3077004102654706 0.3068152183410046 -0.12989229326403542
0.36964460167538604 0.4772050421493603 -0.12989229326403542
0.4633883508066082 0.46674630712876736 -0.12941121069639083
0.13305781655913668 0.4150203094556225 -0.12941121069639083
0.4934752545870999 0.39682576674730463 -0.12796796299345709
0.4024448111373933 0.3051314293542485 -0.12796796299345709
0.49941181347183383 0.4314156033609496 -0.12796796299345709
0.1709190146327648 0.32868523186612697 -0.12796796299345709
0.17288183150875475 0.4700176685887503 -0.12796796299345709
0.5030199327291681 0.32753063370377994 -0.12796796299345709
0.5105633073898354 0.47143205133762545 -0.12796796299345709
0.2845314738077078 0.36629626700457985 -0.12796796299345709
0.4633883508066082 0.33605541680244194 -0.12796796299345709
0.6019401302882459 0.27318754686264873 -0.12748688042581255
0.4828721947962134 0.46028055741962415 -0.1260436327228788
0.4686513940966398 0.30132125541850346 -0.1260436327228788
0.4539687541321274 0.482112084339335 -0.1260436327228788
0.4790427775577626 0.41706009954243556 -0.1260436327228788
0.2953173449742992 0.47626212031677695 -0.1260436327228788
0.5030776626372855 0.39878858362329456 -0.1260436327228788
0.48431544249914715 0.4709990770267453 -0.1260436327228788
0.34711069420691415 0.3997603704099366 -0.1260436327228788
0.33451595258597916 0.3054008355921295 -0.1260436327228788
0.22488685707113337 0.3117415038336851 -0.1260436327228788
0.4027527039806858 0.3125593441986808 -0.1255625501552342
0.4767720678384802 0.3467354498041515 -0.1241193024523005
0.19680125677204294 0.3909758027247467 -0.1241193024523005
0.36127376499837055 0.4783403970090016 -0.1241193024523005
0.16609856730496625 0.32265245646786406 -0.1241193024523005
0.5067531334540901 0.3443685235713401 -0.1241193024523005
0.4905021643190564 0.4403926040731974 -0.1241193024523005
0.19682050007474883 0.4083140184626571 -0.1241193024523005
0.6019401302882459 0.2629501098231721 -0.12259908153854363
0.47091248216456927 0.3807191223825643 -0.1221949721817222
0.17742325094731948 0.40381108562950385 -0.1221949721817222
0.1771538447094386 0.4709509687699809 -0.1221949721817222
0.1666951096888455 0.4695558293238117 -0.1221949721817222
0.5022983088777014 0.30675748843288725 -0.1221949721817222
0.4868940450617221 0.4335804749153503 -0.1221949721817222
0.5533892775615553 0.40240632453198166 -0.1221949721817222
0.4282308367631426 0.47140318638356676 -0.12027064191114391
0.16787857280525106 0.3407988909194174 -0.12027064191114391
0.5108808218844806 0.46692911850447216 -0.12027064191114391
0.5003836002584758 0.4613004524630307 -0.12027064191114391
0.48560474378043467 0.33079237351241014 -0.12027064191114391
0.3791989014688074 0.461800778333381 -0.12027064191114391
0.1940205995310574 0.3703566038755002 -0.12027064191114391
0.513238126465939 0.2629501098231721 -0.11963561292185304
0.2735243046599999 0.3028895845890249 -0.11834631164056558
0.5277668200088051 0.4464350011228133 -0.11834631164056558
0.15933454640388348 0.44296158498441945 -0.11834631164056558
0.47743596178182973 0.4747034127976086 -0.11834631164056558
0.49528412504144365 0.3856261645725389 -0.11834631164056558
0.4319736591394174 0.318486281432062 -0.11834631164056558
0.6906517557619056 0.417464208899257 -0.11667214430516246
0.1879204725733242 0.3994813425207028 -0.11642198136998728
0.16891771115136336 0.3027645031214372 -0.11642198136998728
0.5776165956681362 0.3887339579595229 -0.11642198136998728
0.4448281853468804 0.45861601173557404 -0.11642198136998728
0.5141618049958167 0.3339001668993942 -0.11642198136998728
0.4257484507140965 0.3084701423737019 -0.11642198136998728
0.42850986465237645 0.2976169196476403 -0.11449765109940899
0.5404962647486807 0.43920914095679175 -0.11449765109940899
0.16216331190163355 0.4782634237981784 -0.11449765109940899
0.5079173532677901 0.4555274616512957 -0.11449765109940899
0.5765967006247298 0.2780657240985648 -0.11370867568847187
0.19902385823456095 0.3849718922805423 -0.11257332082883069
0.5554867975564856 0.3537592552917622 -0.11257332082883069
0.16562710638867448 0.481842678101454 -0.11257332082883069
0.2257528056928935 0.38567427282930344 -0.11257332082883069
0.5765967006247298 0.2780657240985648 -0.11064899055825239
0.1934529221012367 0.3767357587224672 -0.11064899055825239
0.45561405651347175 0.48483501167220333 -0.11064899055825239
0.16583878271843816 0.424468771084162 -0.11064899055825239
0.26036188560924434 0.39849031243135485 -0.11064899055825239
0.16706073244025532 0.4055141179189657 -0.10872466028767407
0.5814941211633514 0.3899943942867517 -0.10872466028767407
0.16434742675873995 0.41225889551734257 -0.10872466028767407
0.333197786350633 0.4073903399327795 -0.10872466028767407
0.502683174931817 0.3172739533615976 -0.10872466028767407
0.13305781655913668 0.4150203094556225 -0.1077817384550907
0.46435051594189725 0.2977804877206394 -0.10680033001709577
0.15350382568403112 0.4439526150737673 -0.10680033001709577
0.16358731630186146 0.32450943517897207 -0.10680033001709577
0.32219061720292524 0.4278363490576739 -0.10680033001709577
0.13305781655913668 0.36433345012859003 -0.10487599974651747
0.16094136217981636 0.47441476325702187 -0.10487599974651747
0.47683941939795044 0.29211333507378634 -0.10487599974651747
0.5184338181965004 0.45587384109999984 -0.10487599974651747
0.2596691267118361 0.34180916431147107 -0.10487599974651747
0.2763626918091029 0.43016478868507374 -0.10295166947593919
0.15992146713640978 0.474135735367788 -0.10295166947593919
0.1528303100893288 0.4771184472871843 -0.10295166947593919
0.28839937765157025 0.3513345991508336 -0.10295166947593919
0.5167500292097446 0.45855828182745667 -0.10295166947593919
0.15719853980354148 0.2861671545376994 -0.10185480122170953
0.1770383848932039 0.37823673633351834 -0.10102733920536089
0.4382373541701497 0.4937446608249809 -0.10102733920536089
0.2840311479373574 0.4794853735199957 -0.10102733920536089
0.16799403262148577 0.46756414749376307 -0.10102733920536089
0.3151860550180201 0.3415301364222371 -0.10102733920536089
0.31143361099039246 0.3491889708991388 -0.09910300893478255
0.15514912806537565 0.30035909028321434 -0.09910300893478255
0.25664792818702814 0.413644413312159 -0.09910300893478255
0.4735199496812029 0.3029088278917306 -0.09910300893478255
0.22157700900573862 0.3806036625663296 -0.09910300893478255
0.1432567669932017 0.31364659080155755 -0.09889133260501895
0.1795785008503672 0.3796896056878049 -0.09717867866420427
0.4596455284303334 0.4929075771572793 -0.09717867866420427
0.2665870940345651 0.3037459115594322 -0.09717867866420427
0.515989918752866 0.46360964878772465 -0.09717867866420427
0.20465252427600245 0.2998010345047467 -0.09717867866420427
0.4118547861605211 0.2629501098231721 -0.09592786398832837
0.4182339410074883 0.2847527717888243 -0.09525434839362597
0.19229832393888982 0.2872062928838116 -0.09525434839362597
0.2081259404143963 0.35510628648116704 -0.09525434839362597
0.2562534404815596 0.36568048131799485 -0.09525434839362597
0.34720691072044313 0.3442626854064583 -0.09525434839362597
0.324163055730268 0.2725910044787695 -0.09400353371775008
0.2634023274367581 0.3488618347531404 -0.09333001812304767
0.1893059903681405 0.4778015845332397 -0.09333001812304767
0.5239566460730603 0.47021972326716105 -0.09333001812304767
0.5185396563613822 0.31427199813949547 -0.09333001812304767
0.19967813052655756 0.3244901918762662 -0.09333001812304767
0.48821221129706827 0.3041307776135478 -0.09333001812304767
0.6019401302882459 0.5164036497610404 -0.09207920344717178
0.34303111403328823 0.43489864115069643 -0.09140568785246937
0.1975036373208041 0.47430892509214007 -0.09140568785246937
0.15100219633227943 0.47926407553887923 -0.09140568785246937
0.5218591260781297 0.4772242854520662 -0.09140568785246937
0.25600327754638447 0.35472142042705146 -0.09140568785246937
0.29403766534436465 0.48866442891065415 -0.09140568785246937
0.3487944831936703 0.36463172132052973 -0.09140568785246937
0.5512532709612133 0.26539400926680656 -0.0909246052848248
0.18681398266774157 0.48077467480128316 -0.08948135758189105
0.5819463387769372 0.3649396141638222 -0.08948135758189105
0.5890374958240185 0.41074829625493864 -0.08948135758189105
0.22228901120585257 0.29327755488748614 -0.08948135758189105
0.5569973968188897 0.34084699917618183 -0.08948135758189105
0.33533379295097504 0.2951249119472414 -0.08948135758189105
0.2344411568645546 0.5164036497610404 -0.0890002750142465
0.26234394578794 0.3510074630048352 -0.08755702731131275
0.16744559849437105 0.2905738708573237 -0.08755702731131275
0.1504537622051646 0.3052180242164245 -0.08755702731131275
0.1599599537418214 0.4957940725631467 -0.08755702731131275
0.4968813191660236 0.3036400733945504 -0.08755702731131275
0.25577235791391506 0.39249602363850356 -0.08755702731131275
0.20965578297950613 0.5164036497610404 -0.08707594474366816
0.1517238201837463 0.38952293337045996 -0.08563269704073445
0.2671355281616799 0.44012319783531645 -0.08563269704073445
0.14879883817246728 0.2937297725010722 -0.08563269704073445
0.142342710114677 0.4523042084480771 -0.08563269704073445
0.5606343810302825 0.34695674778526797 -0.08563269704073445
0.2698488338431953 0.3294934505797699 -0.08563269704073445
0.25443494837586317 0.5076960552866736 -0.08515161447308987
0.2805481101476107 0.30085941615356476 -0.08370836677015615
0.5653874767986109 0.44086406498948905 -0.08370836677015615
0.5156916475609263 0.29749183818005265 -0.08370836677015615
0.30972095704957775 0.319727474456585 -0.08370836677015615
0.4150203094556225 0.49825721530948697 -0.08370836677015615
0.3577329973005064 0.34117413532218016 -0.08370836677015615
0.33128307773140764 0.4150203094556225 -0.08322728420251158
0.2937875024091895 0.3419727323844702 -0.08178403649957786
0.2391172794220599 0.2878798084785141 -0.08178403649957786
0.16380861428297805 0.29177657727643513 -0.08178403649957786
0.5943294040681087 0.3591858666547931 -0.08178403649957786
0.32725160581454615 0.31716811519671584 -0.08178403649957786
0.5130360717875285 0.30271639486467283 -0.08178403649957786
0.5765967006247298 0.5290753645927985 -0.08130295393193328
0.24711287169631266 0.5164036497610404 -0.08130295393193328
0.31152020585256845 0.29694340405293784 -0.07985970622899953
0.21913310956210427 0.49086778707046624 -0.07985970622899953
0.23167974292627466 0.2875430506811629 -0.07985970622899953
0.44235542094918723 0.5098031969329568 -0.07985970622899953
0.38981158291104673 0.3204490983080519 -0.07985970622899953
0.3447918762308673 0.30163876991314886 -0.07985970622899953
0.26438373587475295 0.26630806614533126 -0.07937862366135498
0.6526366112666313 0.31120269135792306 -0.07937862366135498
0.18127191148847613 0.39128369556803916 -0.07793537595842123
0.5766351872301412 0.43480242463716745 -0.07793537595842123
0.21786305158352254 0.2879567816893372 -0.07793537595842123
0.5065318354729736 0.4941295268790965 -0.07793537595842123
0.36595950920722864 0.47335638160820376 -0.07793537595842123
0.3792662530282776 0.3488522131017876 -0.07793537595842123
0.43832394903232574 0.3259526828819057 -0.07793537595842123
0.6399648964348731 0.3263183056333157 -0.07668456128254535
0.6019401302882459 0.5164036497610404 -0.07668456128254535
0.35481763694058027 0.4841999826829125 -0.07601104568784293
0.1509925746809265 0.37579283688988385 -0.07601104568784293
0.15386944843544112 0.47753217829535866 -0.07601104568784293
0.2767668011659244 0.2723985714517117 -0.07601104568784293
0.43211798390971073 0.39565192528225185 -0.07601104568784293
0.48164062342304326 0.48891459184582925 -0.07601104568784293
0.2942397200227754 0.2659232000912157 -0.07552996312019836
0.3237685680247995 0.4803224571876973 -0.07476023101196705
0.5326546188960741 0.30464072513525114 -0.07408671541726464
0.3594167862872625 0.4514959897344342 -0.07408671541726464
0.35637634445974875 0.3251733291223216 -0.07408671541726464
0.457365197059698 0.3069114348545334 -0.07408671541726464
0.3674893517723385 0.49815137714460517 -0.07408671541726464
0.40481173737020454 0.3391728318407788 -0.07408671541726464
0.14967440844558036 0.397422309131184 -0.07408671541726464
0.33403487001833465 0.32825225755524684 -0.07283590074138875
0.2629212448691134 0.4333495552828809 -0.07216238514668634
0.3579254303275643 0.5047999382294532 -0.07216238514668634
0.24543870436090962 0.2777385879525664 -0.07216238514668634
0.6093103152245609 0.3686920581914499 -0.07216238514668634
0.41493371459344647 0.3804016078879189 -0.07216238514668634
0.4670926865774713 0.31645611299660187 -0.07216238514668634
0.4922629265166356 0.4877311287294237 -0.07216238514668634
0.314137295020555 0.5196557679183176 -0.07091157047081043
0.6399648964348731 0.3263183056333157 -0.07091157047081043
0.38234518146120294 0.27626647529557397 -0.07023805487610801
0.263055947988054 0.49841116173113326 -0.07023805487610801
0.40368600416191636 0.26741455605091385 -0.07023805487610801
0.5949932980114584 0.3461773940256837 -0.07023805487610801
0.5837359659285751 0.3498721081451941 -0.07023805487610801
0.4101806188251181 0.2974341082719353 -0.07023805487610801
0.509158546292313 0.40075140049928437 -0.07023805487610801
0.6779800409301476 0.33899002046507376 -0.06898724020023213
0.3865113564970049 0.5417470794245567 -0.06898724020023213
0.38818552383240806 0.44940809139085675 -0.06831372460552972
0.4004627509586976 0.27052234943789777 -0.06831372460552972
0.24288896675239335 0.28200097950189734 -0.06831372460552972
0.22531983138201336 0.48911664652424 -0.06831372460552972
0.45001425542608897 0.3435987914631088 -0.06831372460552972
0.49234952137881155 0.34959308025596025 -0.06831372460552972
0.3837884291641367 0.29903130239651526 -0.06706290992965383
0.6653083260983895 0.35409601308911354 -0.06706290992965383
0.3625245796742464 0.3371811500107301 -0.06638939433495142
0.35135384245353934 0.3671910805803988 -0.06638939433495142
0.38243177632337894 0.2717731641137736 -0.06638939433495142
0.5058390765755655 0.4974297532931383 -0.06638939433495142
0.47632947187624725 0.5001430589746537 -0.06638939433495142
0.48118840580945743 0.49130076138134643 -0.06638939433495142
0.3327744336911058 0.250278394991414 -0.06513857965907553
0.7033234705936638 0.40387843718897415 -0.06513857965907553
0.26422016780175384 0.3495834586046073 -0.06446506406437313
0.3413184600924736 0.33738320468914085 -0.06446506406437313
0.3333324894695736 0.27377446759517504 -0.06446506406437313
0.254810192778626 0.2769977207983938 -0.06446506406437313
0.40746731314360274 0.5185685213154408 -0.06446506406437313
0.5683413237639487 0.3282137709498352 -0.06446506406437313
0.35174833015900786 0.250278394991414 -0.06321424938849725
0.5765967006247298 0.28829353948668834 -0.06321424938849725
0.391649318319449 0.4502644183612641 -0.06254073379379484
0.48543155405608257 0.2766898279551013 -0.06254073379379484
0.29269063415495983 0.5035106369481658 -0.06254073379379484
0.4158670147746769 0.5159802971015133 -0.06254073379379484
0.5795313042873614 0.44195131159236595 -0.06254073379379484
0.35891646041691205 0.5230618324972413 -0.06205965122615025
0.4309922507014224 0.31637913978577875 -0.06128991911791891
0.16603121574549595 0.3808249605474461 -0.060616403523216504
0.2548294360813317 0.34297338412517087 -0.060616403523216504
0.44928300992326914 0.5102361712438369 -0.060616403523216504
0.3432716553171104 0.5100822248221908 -0.060616403523216504
0.2731105736518256 0.5079558398732017 -0.060616403523216504
0.489299457899945 0.3119628018148015 -0.060616403523216504
0.4485325211177437 0.46490857172036504 -0.05936558884734062
0.4485325211177437 0.2874949424243984 -0.05936558884734062
0.33472762891574287 0.3510074630048352 -0.058692073252638206
0.25143299315376105 0.43858373361885383 -0.058692073252638206
0.49233989972745873 0.33341908433174966 -0.058692073252638206
0.481044081039164 0.46148326383873556 -0.058692073252638206
0.4070535821354283 0.25834133882513705 -0.058692073252638206
0.6058465207375199 0.4055526045243773 -0.058692073252638206
0.46302272805519834 0.42769202428738057 -0.05744125857676232
0.6526366112666313 0.3009652543184465 -0.05744125857676232
0.35144043731571534 0.43499485766422524 -0.05676774298205991
0.623839008767427 0.39297710620614806 -0.05676774298205991
0.3344389793751561 0.5107076321601287 -0.05676774298205991
0.47081626565104034 0.5131996398605274 -0.05676774298205991
0.4974489965958442 0.28069243491790413 -0.05676774298205991
0.46607279153406483 0.29038143783026593 -0.05551692830618402
0.3837884291641367 0.5276128735871591 -0.05551692830618402
0.3418476509168825 0.4283462965793773 -0.05484341271148162
0.48050526856340214 0.272716085946357 -0.05484341271148162
0.4563453020162916 0.5117756354602996 -0.05484341271148162
0.30927836108734486 0.5104670908763064 -0.05484341271148162
0.48185229975280697 0.31410843006649636 -0.05484341271148162
0.37383964166524686 0.5290753645927985 -0.05436233014383703
0.47860980324688246 0.42769202428738057 -0.05359259803560573
0.3875023865863528 0.4500238770774419 -0.05291908244090332
0.3445801999011038 0.3468990178771506 -0.05291908244090332
0.3274536604929569 0.27034915971354573 -0.05291908244090332
0.6314882215929757 0.3874831432836471 -0.05291908244090332
0.4951301786197972 0.34042364651665463 -0.05291908244090332
0.4647161386933071 0.4681991764830539 -0.0516682677650274
0.6779800409301476 0.4403637391191388 -0.0516682677650274
0.45796173944357726 0.26607714651286185 -0.05099475217032499
0.6252149049108905 0.3728005033191345 -0.05099475217032499
0.4926766575248099 0.4576153599948733 -0.05099475217032499
0.3872426019998247 0.3292817742500062 -0.05099475217032499
0.35296065822947226 0.32534651884667354 -0.05099475217032499
0.47522298197066476 0.23760668015965583 -0.0497439374944491
0.4868074501995461 0.2708302422811903 -0.0490704218997467
0.3726369352461354 0.51314190995241 -0.0490704218997467
0.4907330839515258 0.49090627367587786 -0.0490704218997467
0.5015478200721758 0.2782677787769755 -0.0490704218997467
0.25541635681385805 0.4330127974855297 -0.0490704218997467
0.3978937700474756 0.45105339377220127 -0.0490704218997467
0.5005664116341809 0.23760668015965583 -0.04781960722387081
0.5481743425282881 0.2967028627691156 -0.0471460916291684
0.3901290974056921 0.5179527356288559 -0.0471460916291684
0.3888494177757576 0.5230618324972413 -0.0471460916291684
0.5319233733932545 0.48868367221336 -0.0471460916291684
0.3599555987630244 0.3360939034078534 -0.0471460916291684
0.36789346112915994 0.3384608296406648 -0.0471460916291684
0.6653083260983895 0.31364659080155755 -0.04589527695329251
0.2978093526746981 0.36280360756348023 -0.04589527695329251
0.35933981307643925 0.5140752101336407 -0.0452217613585901
0.4943315815575072 0.5122374747252384 -0.0452217613585901
0.5046748567618657 0.4648700851149534 -0.0452217613585901
0.3603308431657872 0.33533379295097504 -0.0452217613585901
0.25417516378933513 0.44397185837647307 -0.0452217613585901
0.46255126713890654 0.4023485946238643 -0.043970946682714215
0.41861880706160387 0.5417470794245567 -0.043970946682714215
0.48682669350225183 0.2691560749457872 -0.04329743108801181
0.6016322374449535 0.44592505360111007 -0.04329743108801181
0.48989600028382424 0.46387905502560567 -0.04329743108801181
0.360696465917197 0.3346025474481552 -0.04329743108801181
0.39338121556296957 0.450986042212731 -0.04329743108801181
0.614621466771357 0.478388505265766 -0.04204661641213588
0.4033300030618593 0.4515152330371401 -0.04204661641213588
0.4043498981052659 0.2571867406627902 -0.04137310081743348
0.6350097459881341 0.37689932679546634 -0.04137310081743348
0.3609177638983135 0.5224171818565975 -0.04137310081743348
0.3679415693859243 0.3301477228717665 -0.04137310081743348
0.3630249055445968 0.4409795248057238 -0.04137310081743348
0.6653083260983895 0.465707168782655 -0.04012228614155759
0.4118547861605211 0.4910602200975242 -0.04012228614155759
0.3943722456523173 0.2592169090982503 -0.03944877054685518
0.6206927287750316 0.35295103657811944 -0.03944877054685518
0.4901750281730581 0.5196653895696706 -0.03944877054685518
0.3363344446916757 0.4283462965793773 -0.03944877054685518
0.2626325953285267 0.4411527145300758 -0.03944877054685518
0.4118547861605211 0.5373403631049324 -0.038197955870979294
0.46445635410677916 0.31364659080155755 -0.038197955870979294
0.5009512776882967 0.31410843006649636 -0.03752444027627689
0.45782703632463684 0.26526892779921896 -0.03752444027627689
0.5732291226512177 0.2989735724883979 -0.03752444027627689
0.5034625286914014 0.2781908055661523 -0.03752444027627689
0.3585508376655022 0.4336478264748204 -0.03752444027627689
0.4371982158240374 0.5350792750370028 -0.037043357708632305
0.42856759456049376 0.23760668015965583 -0.036273625600401
0.49440855476833045 0.511746770506241 -0.03560011000569859
0.4749439540814308 0.45111112368031864 -0.03560011000569859
0.37660105560352675 0.25492565259486066 -0.03560011000569859
0.5947142701222243 0.3300322630555318 -0.03560011000569859
0.29627951010958825 0.4375349736213887 -0.03560011000569859
0.34607155586080196 0.3453980402660995 -0.03560011000569859
0.6019401302882459 0.2629501098231721 -0.034349295329822706
0.6371842391938876 0.40060707572899096 -0.033675779735120294
0.42073557035924003 0.5250727576299956 -0.033675779735120294
0.4840556579126191 0.3415301364222371 -0.033675779735120294
0.5110828765628914 0.3107985820011017 -0.033675779735120294
0.3601865183954938 0.3316390788314647 -0.033675779735120294
0.3672872970939277 0.44180698682207253 -0.033675779735120294
0.513238126465939 0.25703279424114384 -0.03242496505924437
0.6384542971724693 0.40071291389387287 -0.03175144946454196
0.4312520352879505 0.5262850857004601 -0.03175144946454196
0.4839883063531488 0.33328438121280907 -0.03175144946454196
0.5077152985893792 0.283713633442712 -0.03175144946454196
0.36162014444707463 0.3310810230529969 -0.03175144946454196
0.36579594113422953 0.33807596358654907 -0.03175144946454196
0.6019401302882459 0.2629501098231721 -0.03050063478866608
0.6408308450566333 0.3988463135314119 -0.02982711919396367
0.4187246452264858 0.5243799987325874 -0.02982711919396367
0.4997678145718909 0.4617911566820282 -0.02982711919396367
0.4944181764196834 0.43821811086744394 -0.02982711919396367
0.38577048934283226 0.32851204214177493 -0.02982711919396367
0.3839038889803714 0.32066077463781545 -0.02982711919396367
0.5765967006247298 0.250278394991414 -0.02857630451808778
0.5747974518217389 0.30412115596219497 -0.027902788923385373
0.42452650099227934 0.5226962097458313 -0.027902788923385373
0.40464816929720543 0.526188869186931 -0.027902788923385373
0.5860066756478575 0.321594074819046 -0.027902788923385373
0.25392500085416 0.34571555476074495 -0.027902788923385373
0.2547524628705086 0.44533813286858365 -0.027902788923385373
0.4777823412305338 0.4403637391191388 -0.026651974247509487
0.4584139570571633 0.5417470794245567 -0.026651974247509487
0.4241320132868108 0.5245724317596454 -0.02597845865280708
0.41652128706667363 0.5194344699372011 -0.02597845865280708
0.5109096868385394 0.4666308473125326 -0.02597845865280708
0.357858078768094 0.33291875846139923 -0.02597845865280708
0.24971071756159346 0.3351221166212114 -0.02597845865280708
0.47772461132241645 0.3770051649603482 -0.02472764397693119
0.5084080574867874 0.28220303418030807 -0.02405412838222878
0.4307132228121886 0.5265833568923998 -0.02405412838222878
0.4837573867206795 0.4463002980038729 -0.02405412838222878
0.6216837588643792 0.42139946430258957 -0.02405412838222878
0.33638255294844016 0.4342443688586998 -0.02405412838222878
0.47522298197066476 0.5345885708180054 -0.0235730458145842
0.5765967006247298 0.2780657240985648 -0.02280331370635286
0.49169524908681495 0.45637416697035027 -0.022129798111650452
0.6145252502578279 0.3313119426854663 -0.022129798111650452
0.4180030213750189 0.5169809488422138 -0.022129798111650452
0.25235667168363857 0.43188706427724133 -0.022129798111650452
0.3901483407083979 0.3215844531676931 -0.022129798111650452
0.39975074875858363 0.46423505612566257 -0.020878983435774566
0.47522298197066476 0.5417470794245567 -0.020878983435774566
0.45339145505095385 0.25110585700776267 -0.020205467841072158
0.4823333823204515 0.3158499489613697 -0.020205467841072158
0.5140174802255232 0.499315596958305 -0.020205467841072158
0.36173560426330936 0.33028242599070695 -0.020205467841072158
0.3644008016880603 0.44143174241930977 -0.020205467841072158
0.5765967006247298 0.2833576323426551 -0.018954653165196268
0.5064452406107978 0.5103227661060128 -0.01828113757049386
0.6166997434635816 0.44824387157715695 -0.01828113757049386
0.6268024773841175 0.35350909235658706 -0.01828113757049386
0.35488498850005057 0.44233617764648153 -0.01828113757049386
0.2978093526746981 0.3263183056333157 -0.017030322894617974
0.5385815561294555 0.5417470794245567 -0.017030322894617974
0.4413451475571337 0.5250631359786427 -0.016356807299915566
0.482208300852864 0.31573448914513497 -0.016356807299915566
0.6245894975729526 0.34914086264237437 -0.016356807299915566
0.34783231805838105 0.4478878704770999 -0.016356807299915566
0.4003088045370514 0.33899002046507376 -0.015105992624039678
0.6441503147733809 0.409218453689829 -0.01443247702933727
0.6328352527823806 0.34749556026102985 -0.01443247702933727
0.505790968318801 0.4655147357555972 -0.01443247702933727
0.33741206964319953 0.3879738475026444 -0.01443247702933727
0.32347029683285977 0.42418974319492814 -0.013181662353461347
0.5103804960141303 0.250278394991414 -0.013181662353461347
0.46716965978829456 0.5240817275406477 -0.012508146758758939
0.44794560038521725 0.24349513078762552 -0.012508146758758939
0.3615239279335457 0.329839830028474 -0.012508146758758939
0.3644008016880603 0.337017581937731 -0.012508146758758939
0.47522298197066476 0.42769202428738057 -0.011257332082883053
0.4569418444001708 0.2504900713211777 -0.010583816488180643
0.5120354200468277 0.4752037386679589 -0.010583816488180643
0.6289096190304008 0.4286253244686111 -0.010583816488180643
0.3588683521601477 0.44193206828966003 -0.010583816488180643
0.614621466771357 0.303409153762081 -0.009333001812304757
0.3231527823382143 0.32783852654707246 -0.009333001812304757
0.47354881463526155 0.4625705104416123 -0.008659486217602349
0.6645578372928639 0.3854818398022455 -0.008659486217602349
0.35538531437040083 0.3328417852505761 -0.008659486217602349
0.5385815561294555 0.23760668015965583 -0.007408671541726461
0.32347029683285977 0.3770051649603482 -0.007408671541726461
0.4664576575881806 0.250374611504943 -0.0067351559470240525
0.6308531926036848 0.33408297827509903 -0.0067351559470240525
0.36100435876048953 0.3294549639743583 -0.0067351559470240525
0.6779800409301476 0.3770051649603482 -0.005484341271148165
0.33761412432161025 0.44131628260307504 -0.005484341271148165
0.5059352930890946 0.26203605294464744 -0.0048108256764457565
0.6669536284797338 0.3916781832735077 -0.0048108256764457565
0.5168943539800378 0.4527852910157217 -0.0048108256764457565
0.47713769058989014 0.3770051649603482 -0.004329743108801174
0.47707033903041984 0.4150203094556225 -0.003560011000569835
0.5653489901931995 0.49214746670040094 -0.0028864954058674267
0.4860762046967264 0.5185973862694997 -0.0028864954058674267
0.6056733310131678 0.4582407673328112 -0.0028864954058674267
0.36269776939859844 0.45016820184773526 -0.0028864954058674267
0.6779800409301476 0.3492178358531975 -0.0016356807299915395
0.39706630803112697 0.465707168782655 -0.0016356807299915395
0.47387595078125994 0.4521695053291367 -9.621651352891308E-4
0.6075014447702172 0.30780624843035237 -9.621651352891308E-4
0.6196247254748604 0.4453188895658779 -9.621651352891308E-4
0.594396755627579 0.28829353948668834 2.8864954058675633E-4
0.4118547861605211 0.28829353948668834 2.8864954058675633E-4
0.4737316260109666 0.5293736357847382 9.621651352891649E-4
0.47713769058989014 0.3162829232722498 9.621651352891649E-4
0.526025301113932 0.46418694786889814 9.621651352891649E-4
0.38700206071600235 0.32100715408651953 9.621651352891649E-4
0.39755701225012446 0.4403637391191388 0.0022129798111650864
0.5271221693681616 0.3149743786882566 0.0028864954058674948
0.6402439243241069 0.3455038784309814 0.0028864954058674948
0.46927680143457773 0.46644803593682765 0.0028864954058674948
0.5409869689676783 0.49630402008485 0.0028864954058674948
0.4721344318863865 0.36124490004431187 0.003367577973512043
0.4633883508066082 0.36433345012859003 0.004137310081743348
0.5945507020492252 0.4747034127976086 0.0048108256764457565
0.6525885030098669 0.3610524670172541 0.0048108256764457565
0.5209258258968994 0.46563019557183194 0.0048108256764457565
0.5428535693301392 0.28983300370315107 0.0048108256764457565
0.46837236620740597 0.42769202428738057 0.0052919082440903735
0.5005664116341809 0.5354160328343539 0.006061640352321678
0.3862130853050653 0.3208628293162262 0.006735155947024086
0.48621090781566684 0.4026083792103924 0.006735155947024086
0.4862397727697255 0.2510192621455867 0.006735155947024086
0.5385526911753966 0.27831588703373994 0.006735155947024086
0.47671433793036283 0.4403637391191388 0.007985970622899938
0.3577041323464477 0.33444860102650903 0.008659486217602349
0.49419687843856663 0.41340387202833667 0.008659486217602349
0.4835938186476803 0.525746273224698 0.008659486217602349
0.5287097418413886 0.5207622578239002 0.008659486217602349
0.5005664116341809 0.5417470794245567 0.00991030089347827
0.3802669047689784 0.32750176874972126 0.010583816488180678
0.4801877540687567 0.4649278150230708 0.010583816488180678
0.5336167840313633 0.5107172538114816 0.010583816488180678
0.5691302991748859 0.2768630176794533 0.010583816488180678
0.652396069982809 0.4403637391191388 0.012508146758759008
0.46299386310113966 0.465707168782655 0.012508146758759008
0.4863552325859602 0.35582791033263395 0.012508146758759008
0.5491365076635772 0.4963713716443202 0.012508146758759008
0.5824755296013464 0.2844545005968846 0.012508146758759008
0.379064198349867 0.4560181658702932 0.01443247702933727
0.5217725312159538 0.4634268374120198 0.01443247702933727
0.5512532709612133 0.48852972579171366 0.01443247702933727
0.5723631740294575 0.4848253900208504 0.01443247702933727
0.47648341829789354 0.4430289365438897 0.015038641064569458
0.3602731132576698 0.4467813805715174 0.0163568072999156
0.48060148507693107 0.3300033981014731 0.0163568072999156
0.5554386892997212 0.4889915650566525 0.0163568072999156
0.5815518510714688 0.47013312840498506 0.0163568072999156
0.4683916095101117 0.38967687979210625 0.01760762197579145
0.3507957866750717 0.33805672028384337 0.01828113757049386
0.4824488421366862 0.3509112464913064 0.01828113757049386
0.5258040031328155 0.5151335917824585 0.01828113757049386
0.5058486982269184 0.5291812027576802 0.01828113757049386
0.5066761602432671 0.4910602200975242 0.01953195224636978
0.35327817272411766 0.3317641602990522 0.02020546784107219
0.5178757624180328 0.46292651154166936 0.02020546784107219
0.5858046209694469 0.29380674571189525 0.02020546784107219
0.643332474408385 0.33480460212656593 0.02020546784107219
0.5385815561294555 0.5417470794245567 0.021456282516948113
0.5259098412976972 0.478388505265766 0.021456282516948113
0.47884072287935187 0.4185995637588982 0.02212979811165052
0.5727672833862789 0.484074901215325 0.02212979811165052
0.5229559943323594 0.2546466247056267 0.02212979811165052
0.6653083260983895 0.465707168782655 0.023380612787526373
0.48491198488302645 0.4710952935402743 0.023380612787526373
0.4787829929712345 0.426508561170975 0.02405412838222878
0.5716511718293434 0.4952071518306204 0.02405412838222878
0.5399285873188602 0.27706507235786404 0.02405412838222878
0.7033234705936638 0.4023485946238643 0.025304943058104705
0.4626089970470239 0.465707168782655 0.025304943058104705
0.4859415015777858 0.432983932531471 0.025978458652807113
0.5967155736036257 0.4792255889334676 0.025978458652807113
0.5721899843051055 0.2968952957961734 0.025978458652807113
0.33556471258344445 0.3770051649603482 0.027229273328682965
0.6526366112666313 0.31120269135792306 0.027229273328682965
0.4766662296735984 0.46304197135790404 0.027902788923385373
0.6450643716519057 0.43384988115323114 0.027902788923385373
0.5692072723857091 0.48758680395913034 0.027902788923385373
0.7033234705936638 0.36433345012859003 0.029153603599261294
0.46249353723078923 0.465707168782655 0.029153603599261294
0.4858260417615511 0.4346003699587567 0.029827119193963702
0.5854678631720956 0.48725004616177914 0.029827119193963702
0.5830624503338728 0.30506407779477834 0.029827119193963702
0.7033234705936638 0.4023485946238643 0.030693067815723972
0.3893689869488138 0.4692286931778133 0.030693067815723972
0.48075543149857725 0.4535165365185415 0.03175144946454203
0.598303146076853 0.47929294049293775 0.03175144946454203
0.5462884988631215 0.5005471683314752 0.03175144946454203
0.6480663268740079 0.3263183056333157 0.03223253203218658
0.33582449716997254 0.465707168782655 0.03223253203218658
0.4810729459932227 0.4574902785272857 0.033675779735120294
0.6627874534439319 0.4122973821227542 0.033675779735120294
0.49986403108542 0.5329817550420725 0.033675779735120294
0.4633883508066082 0.3770051649603482 0.034156862302764913
0.33451595258597916 0.4023485946238643 0.03511902743805401
0.48496971479114376 0.35168097859953773 0.035600110005698626
0.5712951707292864 0.2823088723451898 0.035600110005698626
0.6515686079664604 0.34465717311192684 0.035600110005698626
0.6181141262124566 0.454892432662005 0.035600110005698626
0.47212481023503367 0.4639848931904874 0.03752444027627689
0.6394741922158758 0.33582449716997254 0.03752444027627689
0.6039702987237061 0.4809189995715765 0.03752444027627689
0.620115429693858 0.41755080376143305 0.03752444027627689
0.3917551564843308 0.4403637391191388 0.0380055228439215
0.48622052946701977 0.35292217162406075 0.039448770546855215
0.4973239151282565 0.2513848848969965 0.039448770546855215
0.6574089503376656 0.4285868378631995 0.039448770546855215
0.654156832180388 0.3577233756491536 0.039448770546855215
0.607780472659451 0.28829353948668834 0.04089201824978893
0.35705948170580404 0.3356705507483262 0.04137310081743355
0.48947264762429704 0.3532685510727647 0.04137310081743355
0.5690437043127099 0.28481050169694166 0.04137310081743355
0.6742468402052257 0.38985006951645834 0.04137310081743355
0.4899825951460003 0.45838509210310463 0.04329743108801181
0.5029044729129335 0.5242837822190586 0.04329743108801181
0.5561603131511882 0.26948321109178547 0.04329743108801181
0.6248589038108335 0.45535427192694367 0.04329743108801181
0.5259098412976972 0.29944503340468964 0.04377851365565642
0.38096928531773944 0.31990066418093704 0.045221761358590136
0.4797162931524651 0.3291278278283599 0.045221761358590136
0.5148160772878132 0.5207141495671358 0.045221761358590136
0.6748722475431637 0.4123070037741071 0.045221761358590136
0.7033234705936638 0.4150203094556225 0.045702843926234686
0.46204131961720335 0.465707168782655 0.045702843926234686
0.4889723217539466 0.343406358436051 0.0471460916291684
0.4919069254165786 0.34319468210628734 0.0471460916291684
0.6278801023356414 0.3221425089461607 0.0471460916291684
0.5237449697432968 0.2532033770026931 0.0471460916291684
0.6624025873898163 0.44529964626317214 0.04762717419681302
0.2978093526746981 0.32783852654707246 0.04762717419681302
0.33954807624354155 0.3221328872948079 0.04907042189974673
0.48150592030410283 0.33230297277481424 0.04907042189974673
0.5061373477675052 0.5241779440541768 0.04907042189974673
0.5582770764488243 0.2701086184297234 0.04907042189974673
0.6587559815270703 0.3929289979493835 0.04907042189974673
0.5765967006247298 0.518837927553322 0.049551504467391275
0.31048106750645627 0.478388505265766 0.049551504467391275
0.48588377166966845 0.42680683236291456 0.05099475217032506
0.4895303775324144 0.4231794698028745 0.05099475217032506
0.6515108780583431 0.4331090139990585 0.05099475217032506
0.5102939011519542 0.5333185128394237 0.05099475217032506
0.5169328405854495 0.24147458400351823 0.05147583473796961
0.6287364293060487 0.478388505265766 0.052245566846200915
0.32408608251944476 0.351661735296832 0.052245566846200915
0.3420978138520577 0.3632943117824777 0.05291908244090332
0.47683941939795044 0.46315743117413877 0.05291908244090332
0.5027024182345229 0.5275070354222771 0.05291908244090332
0.5952145959925749 0.29977216955068803 0.05291908244090332
0.6611806376679991 0.4381411376566209 0.05291908244090332
0.38932087869204923 0.4403637391191388 0.05416989711677924
0.5380235003509876 0.23760668015965583 0.05416989711677924
0.34857318521255365 0.44847479120962636 0.05484341271148165
0.47783044948729836 0.34806323769085046 0.05484341271148165
0.5124395294036491 0.5256404350598163 0.05484341271148165
0.5103901176654833 0.24926812159936038 0.05484341271148165
0.5369073887940523 0.522022694151129 0.05484341271148165
0.6906517557619056 0.351661735296832 0.056094227387357504
0.2978093526746981 0.42769202428738057 0.056094227387357504
0.6658375169227986 0.4105269982738222 0.05676774298205991
0.4809478645256352 0.3554719092325769 0.05676774298205991
0.3799974985310974 0.4491098201989172 0.05676774298205991
0.509341357668018 0.4552965420188263 0.05676774298205991
0.5280650912007449 0.23760668015965583 0.05724882554970453
0.32845431223365756 0.351661735296832 0.058018557657935836
0.6653083260983895 0.45456529651600663 0.058018557657935836
0.664365404265806 0.4182339410074883 0.05869207325263824
0.639358732399641 0.31932336509976356 0.05869207325263824
0.479273697190232 0.42162076228370604 0.05869207325263824
0.3354781177212684 0.42331417292181495 0.05869207325263824
0.6381079177237652 0.4285194863037294 0.05994288792851416
0.2978093526746981 0.33899002046507376 0.05994288792851416
0.5321158064203121 0.5271895209276318 0.060616403523216573
0.5846788877611586 0.28789905178121983 0.060616403523216573
0.5051366960268043 0.4501489585450294 0.060616403523216573
0.34533068870662936 0.3593494347277922 0.060616403523216573
0.47045064289963046 0.38273004751531864 0.061867218199092425
0.6526366112666313 0.478388505265766 0.061867218199092425
0.5256596783625219 0.5216570713997193 0.06254073379379484
0.6642018361928069 0.4175604254127858 0.06254073379379484
0.5060218879512705 0.24523664968249886 0.06254073379379484
0.4791582373739973 0.41982151348071534 0.06254073379379484
0.3393941298218952 0.4021561615968065 0.06254073379379484
0.32818490599577654 0.3770051649603482 0.06379154846967075
0.7033234705936638 0.4150203094556225 0.06379154846967075
0.5797237373144194 0.4943989331169775 0.06446506406437316
0.6658182736200927 0.4346292349128154 0.06446506406437316
0.5043573422672202 0.45968401503574485 0.06446506406437316
0.37008719763761916 0.326635820127961 0.06446506406437316
0.5579210753487673 0.250278394991414 0.06494614663201771
0.6459110769709601 0.465707168782655 0.06571587874024902
0.32740555223619244 0.4150203094556225 0.06571587874024902
0.6759306291919815 0.3836344827424904 0.06638939433495142
0.5948104866357534 0.28943851599768244 0.06638939433495142
0.4778400711386512 0.4180896162371949 0.06638939433495142
0.338701370924487 0.4294335431822541 0.06638939433495142
0.6517225543881067 0.4606461801710341 0.06764020901082735
0.3325723790126951 0.40380146397815103 0.06764020901082735
0.579656385754949 0.485749068550728 0.06831372460552976
0.5492038592230475 0.2646627637639869 0.06831372460552976
0.4772050421493603 0.4269607787845609 0.06831372460552976
0.3400099155084802 0.4551233522944744 0.06831372460552976
0.4724230814269732 0.40722677185978035 0.06956453928140567
0.6348942861718994 0.47208632362962205 0.06956453928140567
0.5988612018553207 0.4779459093035331 0.07023805487610808
0.6269852887598225 0.32381667628156385 0.07023805487610808
0.48052451186610784 0.3550870431784613 0.07023805487610808
0.3476783716367349 0.4201775145807724 0.07023805487610808
0.49005956835682335 0.3770051649603482 0.07148886955198394
0.4118547861605211 0.4910602200975242 0.07148886955198394
0.5553713377402509 0.5080809213407892 0.07216238514668634
0.6850423330231699 0.4036571392078577 0.07216238514668634
0.47829228875223706 0.46680403703688467 0.07216238514668634
0.3441376039388707 0.32013158381340645 0.07216238514668634
0.34545577017421686 0.3730987745110742 0.07341319982256227
0.677133335611093 0.3527970901564731 0.07341319982256227
0.5600282169950505 0.5129398552739995 0.07408671541726468
0.6099645875165575 0.30454450862172217 0.07408671541726468
0.47702223077365546 0.36513204719088 0.07408671541726468
0.37272353010831144 0.45905860769780693 0.07408671541726468
0.6272931816031152 0.4785809382928238 0.07533753009314052
0.49863245971224973 0.44216298792212944 0.07533753009314052
0.6664148160039718 0.4246708257625727 0.07601104568784293
0.47518449536525315 0.4645140840148965 0.07601104568784293
0.33232221607752 0.3411067837627099 0.07601104568784293
0.6385890002914096 0.47284643408650057 0.07726186036371886
0.5259098412976972 0.33746017789996396 0.07726186036371886
0.5784536793358377 0.48627825937513713 0.07793537595842127
0.5639346074443244 0.28542628738352677 0.07793537595842127
0.4769645008655381 0.4033300030618593 0.07793537595842127
0.5877674378454368 0.2629501098231721 0.07841645852606581
0.5778186503465468 0.26425865440716545 0.07918619063429719
0.5984570924984992 0.4827952215853903 0.0798597062289996
0.6330854157175556 0.3174471430859496 0.0798597062289996
0.4780036392116503 0.3984710691286491 0.0798597062289996
0.3722135825866082 0.46010736769527205 0.0798597062289996
0.44986993065579556 0.4403637391191388 0.08111052090487544
0.6453626428438453 0.46674630712876736 0.08111052090487544
0.655138240618383 0.42081254357006326 0.08178403649957786
0.5082156244597298 0.4507936091856732 0.08178403649957786
