0.4975223724363119 -0.29288732457248057 -0.2183883117845489
0.8130674843564394 0.11152103135712184 -0.2183883117845489
0.7453021111818646 0.1945605870523419 -0.2183883117845489
0.7145717558807533 0.14496824125126725 -0.2183883117845489
0.5456457968545501 0.13671368303798215 -0.2183883117845489
0.7805172264571232 0.333042175471437 -0.2166984022290732
0.8147573939119149 -0.33468008780982117 -0.2166984022290732
0.7589643799726719 0.14213439291977722 -0.2157884509299709
0.4550796439853267 0.15298881198764033 -0.2157884509299709
0.8225309778671033 -0.0019758942494792655 -0.2157884509299709
0.5206351354335099 0.1456442050734576 -0.2157884509299709
0.7616292373486142 -0.23539140177348886 -0.2157884509299709
0.5064788930803329 0.3317032471313296 -0.2157884509299709
0.5157213984183575 -0.30701756831711163 -0.2157884509299709
0.8275487093164386 -0.04149377923906421 -0.2157884509299709
0.7653990355877524 0.03764598517428892 -0.2157884509299709
0.5114836252253956 0.3167280486089603 -0.2157884509299709
0.4436142576166378 0.0432746839244503 -0.2157884509299709
0.7772803996931736 -0.18626703092623811 -0.2157884509299709
0.6274504186438455 -0.368920255264613 -0.21409854137449527
0.4900997696964919 0.1454102175965456 -0.21318859007539298
0.7872638653747531 -0.18001436557097816 -0.21318859007539298
0.495273492797102 0.0941149629357222 -0.21318859007539298
0.7879268298926705 -0.1862410323176924 -0.21318859007539298
0.5010971811113565 0.30768053283502905 -0.21318859007539298
0.5314505565885543 -0.3296753556647587 -0.21318859007539298
0.8262747774976953 -0.012141350190879056 -0.21318859007539298
0.4290550368310011 0.0312113295592084 -0.21318859007539298
0.7762274560470696 -0.19011482499101356 -0.21318859007539298
0.7765524386538919 -0.0067596382219026535 -0.21318859007539298
0.4338387808034247 -6.499652136438997E-5 -0.21318859007539298
0.45520963702805545 -0.35180017153721715 -0.21149868051991727
0.8371291965655584 0.024867669074038177 -0.21149868051991727
0.5158903893739052 -0.3156751049628564 -0.21058872922081498
0.7844040184347173 0.23034767171560774 -0.21058872922081498
0.5567732013121436 -0.3267895101161771 -0.21058872922081498
0.7604592999640543 0.302493810430146 -0.21058872922081498
0.4940515581954502 -0.2234320418424302 -0.21058872922081498
0.4267021627576081 0.012063354365241715 -0.21058872922081498
0.6973996749362656 -0.33694196675330407 -0.21058872922081498
0.7593153611880399 0.3085254876127669 -0.21058872922081498
0.49344059089462444 -0.01622313173256655 -0.21058872922081498
0.7209934121915608 0.052803173956478405 -0.21058872922081498
0.752451728531954 0.18388815824429935 -0.21058872922081498
0.7806992167169436 0.1252352973650205 -0.20889881966533932
0.8014201077279299 0.24744175683445782 -0.20889881966533932
0.7352016517618293 0.13174794880573837 -0.20798886836623703
0.7312108653500522 -0.31216529280917604 -0.20798886836623703
0.787978827109762 0.19895435189657856 -0.20798886836623703
0.4935965825458991 -0.2745973034605244 -0.20798886836623703
0.49682041000557586 -0.2905214511948146 -0.20798886836623703
0.7515937744499435 0.08878524818383743 -0.20798886836623703
0.5185942446626662 0.09415396084854089 -0.20798886836623703
0.46588206583609815 0.2527194743692508 -0.20798886836623703
0.6043896528637391 -0.3507342285868401 -0.20798886836623703
0.8102076374164037 0.11525183168344112 -0.20798886836623703
0.7067331754042006 0.11480985533816297 -0.20798886836623703
0.5611019696350159 0.34793937816816894 -0.20798886836623703
0.5162543698935462 0.20302313413399328 -0.20798886836623703
0.6898990763708083 0.2518875188957859 -0.20798886836623703
0.8489975613667069 0.05910783652882996 -0.20629895881076135
0.47374664492119634 0.1081802101589891 -0.20629895881076135
0.7651390495022946 -0.2256159249602756 -0.2053890075116591
0.4713937708478033 0.07889277763216833 -0.2053890075116591
0.5591130760812639 0.35117620493211843 -0.2053890075116591
0.7211624031471082 -0.3083044994401278 -0.2053890075116591
0.5100797003639234 -0.3028187930369683 -0.2053890075116591
0.7994052155656319 0.026440584891057967 -0.2053890075116591
0.5274467708725041 0.08726432958390945 -0.2053890075116591
0.4765414953398677 -0.25400640549226694 -0.2053890075116591
0.7869388827679308 -0.2294897176335968 -0.2053890075116591
0.4726547033622737 0.2600120840663421 -0.2053890075116591
0.716820635519963 0.07882778111080395 -0.2053890075116591
0.7250751937332481 0.06867532447367693 -0.2053890075116591
0.4968984058312132 0.20061826284350864 -0.2053890075116591
0.4990302917319671 -0.010373444809766097 -0.2053890075116591
0.553081398898643 -0.3586248062804842 -0.20369909795618338
0.6533060348426234 0.37493893314296106 -0.20369909795618338
0.8013421119022925 0.014767209654002775 -0.2027891466570811
0.5146424561637077 -0.31497314253212033 -0.2027891466570811
0.7508918120192073 0.19706945277700977 -0.2027891466570811
0.4496849327120773 -0.15683660605241562 -0.2027891466570811
0.7540506429575196 0.060459764173210494 -0.2027891466570811
0.5455028045075483 0.12873211021442793 -0.2027891466570811
0.6924599393125676 -0.33903485474123934 -0.2027891466570811
0.6958657570320647 0.3606526977470553 -0.2027891466570811
0.4728236943178212 -0.27519527145707745 -0.2027891466570811
0.7932565446445553 -0.19024481803374255 -0.2027891466570811
0.5696555118465774 -0.33559003910892354 -0.2027891466570811
0.7215003850582034 0.045094586522654696 -0.2027891466570811
0.5377032219438143 0.2466098013609926 -0.2027891466570811
0.7661009980184884 0.19946132476322145 -0.2027891466570811
0.4739806323981084 0.04457461435173921 -0.2027891466570811
0.4038493858458679 -0.06074574886721414 -0.20109923710160543
0.6465853945335395 0.37482193940450487 -0.20109923710160543
0.559685045469271 -0.3632785572101788 -0.20109923710160543
0.7135448108431949 0.20115123431869708 -0.20018928580250314
0.7725616522421147 -0.23546939759912622 -0.20018928580250314
0.540914050099218 0.34972028285355483 -0.20018928580250314
0.6748978792398934 -0.3441045834076664 -0.20018928580250314
0.7872378667662072 0.2322325708351765 -0.20018928580250314
0.42861306048572295 0.04859139937206213 -0.20018928580250314
0.7704167670370878 -0.24529687162943092 -0.20018928580250314
0.467181996263387 -0.23279154091891086 -0.20018928580250314
0.788459801367859 -0.1965754792146398 -0.20018928580250314
0.47910235828162706 0.3056136434556397 -0.20018928580250314
0.6604036549756214 0.3495772905065531 -0.20018928580250314
0.7857429467748249 0.18650101840315014 -0.20018928580250314
0.6850243372684746 0.1319819362826504 -0.20018928580250314
0.8071658002165473 -0.009307501859389031 -0.20018928580250314
0.522286047076167 -0.019147975193966688 -0.20018928580250314
0.765555027239027 0.36668437492967615 -0.19953932058885865
0.7957134131521314 0.11709773289019142 -0.19849937624702746
0.4038493858458679 -0.009372498380753606 -0.19849937624702746
0.797637310184519 0.3545690233473426 -0.19849937624702746
0.45202480748119755 0.06512651440717805 -0.19758942494792517
0.4849390459001545 -0.22321105366979094 -0.19758942494792517
0.756949487810374 0.3244366360427842 -0.19758942494792517
0.5023581136258269 -0.22690285608329175 -0.19758942494792517
0.7553635726890814 0.021448852050268273 -0.19758942494792517
0.4504648909684507 0.17663454646002694 -0.19758942494792517
0.4935575846330804 -0.27523426936989615 -0.19758942494792517
0.8205030864005324 0.1067242880804255 -0.19758942494792517
0.47680148142532547 0.2885585562496081 -0.19758942494792517
0.5630388659716765 -0.3559079516874504 -0.19758942494792517
0.825390824807139 0.0966238286603901 -0.19758942494792517
0.6476643367881892 0.3177289950379728 -0.19758942494792517
0.7788533155101933 0.1854480747570462 -0.19758942494792517
0.5324775016261125 0.03919290238276281 -0.19758942494792517
0.5418500000068661 -0.09395897128444752 -0.19758942494792517
0.7981572823554348 -0.019628949452063692 -0.19758942494792517
0.6465853945335395 -0.37512092340278147 -0.1958995153924495
0.47854338819789266 0.03385018832660507 -0.1958995153924495
0.774303559014682 0.03950488568531217 -0.1958995153924495
0.7477979776022595 -0.3326131984304318 -0.1958995153924495
0.7374245327924934 0.027766513926892594 -0.19498956409334722
0.6179219286118174 0.24121509008774342 -0.19498956409334722
0.7802442410673925 -0.17872743444796205 -0.19498956409334722
0.6857003010906649 -0.35146218962612186 -0.19498956409334722
0.6679172528453515 0.22467997505262768 -0.19498956409334722
0.5542253376746572 0.21745236187690078 -0.19498956409334722
0.4599023858705687 -0.17357970995589767 -0.19498956409334722
0.788797783278954 -0.23312952283000596 -0.19498956409334722
0.7705727586883625 0.16808100424846525 -0.19498956409334722
0.4511408547906411 0.14932300818268526 -0.19498956409334722
0.7236842681760489 0.32948036610066517 -0.19498956409334722
0.5601790190316408 0.253070455584619 -0.19498956409334722
0.5201541611754131 0.3207578329335562 -0.19498956409334722
0.7543236283472502 -0.21948025334347168 -0.19498956409334722
0.7411163352059941 -0.05718393949644232 -0.19498956409334722
0.48526402850697686 -0.31756000408242535 -0.1943395988797027
0.8147573939119149 0.20575298803129988 -0.1932996545378715
0.7291569752749356 -0.3733270194131226 -0.1932996545378715
0.45799148814245405 0.3350960655465538 -0.1932996545378715
0.4412483842389718 0.12699020344186068 -0.19238970323876925
0.4394674795535859 0.04018084950750234 -0.19238970323876925
0.5201151632625944 0.23779627306397333 -0.19238970323876925
0.4357756771400853 -0.002677856680215342 -0.19238970323876925
0.8116245615821487 0.08258458004566893 -0.19238970323876925
0.5290846832108884 0.36703535614504396 -0.19238970323876925
0.43092693664629733 -0.04033684115877703 -0.19238970323876925
0.8215820286551822 -0.08639337619762573 -0.19238970323876925
0.49488351366891525 -0.30488568241635766 -0.19238970323876925
0.8403920219380538 0.04645951347130818 -0.19238970323876925
0.7756034894419709 0.3120093011579013 -0.19238970323876925
0.5402770841898465 0.09693581196293947 -0.19238970323876925
0.5854106686253199 -0.014572220089909422 -0.19238970323876925
0.7444961543169455 -0.03404517789069843 -0.19238970323876925
0.4987573063422364 -0.05080128109845342 -0.19238970323876925
0.6121242389061086 0.00180690329393163 -0.19238970323876925
0.495507480274014 0.24636281457980796 -0.19238970323876925
0.5634808423169548 0.3549590024755293 -0.19238970323876925
0.7917096274360814 0.21688039248889388 -0.19238970323876925
0.8079067605601022 0.26456184056185345 -0.19173973802512476
0.43808955330065963 0.2884025645983334 -0.19069979368329357
0.7988202468733521 0.11046808771101772 -0.19069979368329357
0.4382195463433886 -0.17458065638491016 -0.19069979368329357
0.619377850690381 0.2933552995263044 -0.18978984238419128
0.4455121560404797 0.055689019505060056 -0.18978984238419128
0.5388731593283744 -0.0626956445081475 -0.18978984238419128
0.8177992311117713 0.024191705251848005 -0.18978984238419128
0.42928902430791316 -0.011582380107144897 -0.18978984238419128
0.8029150277193123 -0.16624810234598789 -0.18978984238419128
0.47989531584227324 -0.2926923350083872 -0.18978984238419128
0.8382211381244812 0.002859846940035745 -0.18978984238419128
0.4541566933819515 -0.011647376628509287 -0.18978984238419128
0.6510051579863221 0.3633955509486348 -0.18978984238419128
0.6720900295169493 0.26462683708321816 -0.18978984238419128
0.5258998536640302 0.2520695091556065 -0.18978984238419128
0.46751997817448215 0.33779992083531485 -0.18978984238419128
0.6030247259150857 0.33348415181671553 -0.18978984238419128
0.6980496401499102 0.2796020356055871 -0.18978984238419128
0.5870225823551583 -0.13074700237672568 -0.18978984238419128
0.8109225991514126 -0.019550953626426348 -0.18978984238419128
0.7612522575247005 -0.24967763716939465 -0.18978984238419128
0.6264884701276517 -0.02051290214262017 -0.18978984238419128
0.848243601718879 -0.09498591632200593 -0.1891398771705468
0.48840986014101606 0.018576005805959576 -0.18809993282871562
0.8307985353846611 0.16366124079568267 -0.18809993282871562
0.45081587218381874 -0.30043992035502937 -0.18809993282871562
0.7015854509121362 0.28623168078476074 -0.18718998152961333
0.6051306132072938 0.3628235815606275 -0.18718998152961333
0.8004451599074633 0.16778202025018882 -0.18718998152961333
0.6582587697705945 0.2855167190497521 -0.18718998152961333
0.4408454058065123 0.21558046206160458 -0.18718998152961333
0.6360559580724987 0.2132145886839388 -0.18718998152961333
0.6381228474518882 -0.3607176942684195 -0.18718998152961333
0.6958657570320647 0.12988904829471512 -0.18718998152961333
0.4432112791841783 -0.1385725835490054 -0.18718998152961333
0.8184491963254156 0.026336590456874722 -0.18718998152961333
0.4236863241662977 0.12077653599941925 -0.18718998152961333
0.6387988112740784 -0.3738079936712196 -0.18718998152961333
0.814744394607642 0.11613578437399759 -0.18718998152961333
0.5516644747328979 0.09820974378168265 -0.18718998152961333
0.63093423218898 -0.12376637598218396 -0.18718998152961333
0.5881275232183539 -0.3396588213463381 -0.18718998152961333
0.5558242521002228 0.06746638917629812 -0.18718998152961333
0.5452298191178175 -0.007747585346642378 -0.18718998152961333
0.47628150925441 0.32151179258138374 -0.18718998152961333
0.478738377761986 0.22075418516221504 -0.18718998152961333
0.6890281229845246 0.17763549288903943 -0.18718998152961333
0.450074911840264 0.2586081592048699 -0.18654001631596884
0.7395304200847015 0.06370959024143294 -0.18550007197413765
0.7877448396328499 -0.30380674016170783 -0.18550007197413765
0.5077528248990761 0.01627512894965799 -0.18550007197413765
0.5025531031899203 -0.026258594631237378 -0.18459012067503536
0.7266481095502677 0.05954981287410829 -0.18459012067503536
0.7850019864312702 0.19856437276839184 -0.18459012067503536
0.7915796343933525 0.2423330302552121 -0.18459012067503536
0.8152643667785575 0.05632598541443156 -0.18459012067503536
0.4935445853288077 -0.29095042823581996 -0.18459012067503536
0.6934088885244886 0.027298538973068543 -0.18459012067503536
0.7064601900144699 0.05268618021802239 -0.18459012067503536
0.4387785164271228 0.07620192164768004 -0.18459012067503536
0.8325404421572282 -0.10326647314383675 -0.18459012067503536
0.46099432742949153 0.3073555502282067 -0.18459012067503536
0.4977693592174967 -0.3164810618277755 -0.18459012067503536
0.5426559568717852 0.009528490032028289 -0.18459012067503536
0.5845007173262178 0.3348490787653688 -0.18459012067503536
0.7740825708420427 0.3146091620124795 -0.18459012067503536
0.5868145934867921 0.35966475062231534 -0.18459012067503536
0.5827328119451046 0.006408657006534615 -0.18459012067503536
0.6370049072844195 -0.19345564618914632 -0.18459012067503536
0.46746798095739067 -0.04573155243202639 -0.18459012067503536
0.7070061607939313 -0.08779730105909789 -0.18459012067503536
0.8347893217964382 0.024867669074038177 -0.18394015546139086
0.451959810959833 -0.19770641868638128 -0.18290021111955967
0.8014981035535672 0.12346739198390755 -0.18290021111955967
0.5995409123699512 0.23221957153090356 -0.18290021111955967
0.5644037929203299 0.027090550104702422 -0.18199025982045738
0.7514767807114874 -0.030873347648113315 -0.18199025982045738
0.43834953938611737 0.11547281985608018 -0.18199025982045738
0.8168372825955773 0.11379590960487752 -0.18199025982045738
0.47834839863379935 -0.04266371662362434 -0.18199025982045738
0.7313928556098727 -0.04632952042857922 -0.18199025982045738
0.6949818043415082 -0.3546600184772529 -0.18199025982045738
0.7828830998347892 0.28005701125513816 -0.18199025982045738
0.7916186323061711 0.2839568025370053 -0.18199025982045738
0.7177045882105196 0.09028016817521987 -0.18199025982045738
0.6216267303295909 0.21543746971460284 -0.18199025982045738
0.47564454334503825 -0.3036637478147061 -0.18199025982045738
0.79741632201188 0.30508067198045125 -0.18199025982045738
0.47773743133297353 -0.05468807307604738 -0.18199025982045738
0.7896817359695105 -0.04487359835001563 -0.18199025982045738
0.5022671184959167 0.28764860495050587 -0.18199025982045738
0.6080164587558754 0.06452854641062504 -0.18199025982045738
0.7125438644141824 -0.3297403521861231 -0.18199025982045738
0.764255096811738 0.2781461135270235 -0.18199025982045738
0.5469977244989306 0.02438669481594136 -0.18199025982045738
0.6510051579863221 -0.07523997313148621 -0.1803003502649817
0.4862129777188977 0.007747585346642378 -0.1803003502649817
0.7805172264571232 0.007747585346642378 -0.1803003502649817
0.7291569752749356 -0.372222078549927 -0.1803003502649817
0.6789016649559436 0.049592345801074626 -0.17939039896587944
0.4469810774233163 0.14464325864444494 -0.17939039896587944
0.5151104311175317 -0.0369570220478258 -0.17939039896587944
0.6953457848611492 0.07206814288890111 -0.17939039896587944
0.7034183528146137 0.18700799126979303 -0.17939039896587944
0.49150369455796383 -0.06052476069457507 -0.17939039896587944
0.804851924055973 -0.02009692440588756 -0.17939039896587944
0.45130984574618854 -0.1459561883760068 -0.17939039896587944
0.8204770877919865 0.09501191493055164 -0.17939039896587944
0.46026636639020974 0.19829138737866134 -0.17939039896587944
0.7970393421879661 0.24308698990303962 -0.17939039896587944
0.43968846772622516 -0.13233291749801823 -0.17939039896587944
0.8255078185455949 0.027883507665348608 -0.17939039896587944
0.4404944245911443 0.17403468560544877 -0.17939039896587944
0.7756034894419709 0.3338741309449022 -0.17939039896587944
0.7146237530978446 0.08782329966764361 -0.17939039896587944
0.6760808159287264 -0.14394129621370885 -0.17939039896587944
0.4901387676093105 -0.12754917352559486 -0.17939039896587944
0.6264364729105603 -0.191011776985843 -0.17939039896587944
0.7562995225967295 0.046940487729405185 -0.17874043375223495
0.55248343090209 0.013415282009622246 -0.17770048941040376
0.7321598145619731 -0.0014689213828365435 -0.17770048941040376
0.8347893217964382 0.015365177650555792 -0.17770048941040376
0.410089051896855 -0.09498591632200593 -0.17770048941040376
0.6910820130596413 0.1874759662236171 -0.17679053811130147
0.5570331873976015 0.13566073939187823 -0.17679053811130147
0.6504851858154064 0.05650797567425196 -0.17679053811130147
0.797156335926422 0.035644092316263934 -0.17679053811130147
0.4357756771400853 0.11579780246290251 -0.17679053811130147
0.8115465657565114 0.01748406424703679 -0.17679053811130147
0.7897467324908749 -0.15317080224746074 -0.17679053811130147
0.4273001307541611 -0.06848033490958357 -0.17679053811130147
0.8245328707251283 0.12728918744013712 -0.17679053811130147
0.4645041395831717 0.25084757455395496 -0.17679053811130147
0.6546579624870039 0.32257773553176095 -0.17679053811130147
0.4490609661069786 0.21012075426699103 -0.17679053811130147
0.7820511443613242 -0.29984195235847655 -0.17679053811130147
0.633664086086287 0.3744189609720456 -0.17679053811130147
0.7057712268880068 0.36196562747861716 -0.17679053811130147
0.5478686778852141 -0.1463721661127394 -0.17679053811130147
0.6283993678557666 -0.19482057313779963 -0.17679053811130147
0.5001352325951627 -0.08102466353292229 -0.17679053811130147
0.6331441139153713 -0.3847794064775385 -0.176140572897657
0.655372924222013 -0.019849937624702763 -0.1751006285558258
0.5747512391215504 -0.019810939711884093 -0.1751006285558258
0.45081587218381874 -0.30043992035502937 -0.1751006285558258
0.7003635163104847 0.03184829546858009 -0.1751006285558258
0.7139737878842002 -0.16919894441593394 -0.17419067725672352
0.7205254372377368 0.33188523739114983 -0.17419067725672352
0.5543943286302049 0.32899939184256854 -0.17419067725672352
0.45619758415279515 0.21344857616085083 -0.17419067725672352
0.8111695859325972 0.1367006837337094 -0.17419067725672352
0.8327354317213217 0.056520974978524915 -0.17419067725672352
0.8203210961407118 -0.10200554062936631 -0.17419067725672352
0.4477870342882354 0.006525650744990627 -0.17419067725672352
0.7940755008137472 -0.15021996017751468 -0.17419067725672352
0.7975853129674275 0.29579916872960793 -0.17419067725672352
0.46589506514037093 -0.19869436581112082 -0.17419067725672352
0.8455137478215725 0.05753492071181036 -0.17419067725672352
0.6262674819550126 -0.15552367632085376 -0.17419067725672352
0.46719499556766 0.2676816735873471 -0.17419067725672352
0.49953726459860986 -0.3028317923412411 -0.17419067725672352
0.5535103759396484 0.07240612479999638 -0.17419067725672352
0.7011044766540394 0.19186973106785377 -0.17419067725672352
0.774303559014682 -0.35180017153721715 -0.173540712043079
0.586099631751783 -0.1091161600666372 -0.17250076770124784
0.6653173919907737 -0.08041369623209632 -0.17250076770124784
0.47854338819789266 -0.35180017153721715 -0.17250076770124784
0.49896529521060257 0.2258499124371878 -0.17250076770124784
0.4826511683481259 0.21711437996580588 -0.17159081640214552
0.5429549408700617 -0.17660854785148103 -0.17159081640214552
0.788927776321683 0.30162285704386227 -0.17159081640214552
0.8022130652885763 0.1690299534603863 -0.17159081640214552
0.8168632812041232 0.13498477556968785 -0.17159081640214552
0.7248932034734277 -0.07850279850398162 -0.17159081640214552
0.7560655351198174 -0.32222675431639275 -0.17159081640214552
0.46168329055595464 -0.1836411714631144 -0.17159081640214552
0.7114389235509868 -0.1075432442496174 -0.17159081640214552
0.805813872572167 -0.1609573855069218 -0.17159081640214552
0.445837138647302 0.23159560492580483 -0.17159081640214552
0.5119775987877654 -0.18696899335697417 -0.17159081640214552
0.7674529256628689 0.2564242760870247 -0.17159081640214552
0.6321041695735401 0.35836482019502647 -0.17159081640214552
0.621990710849232 0.2093147974020717 -0.17159081640214552
0.5413040292274047 0.04786343833278033 -0.17159081640214552
0.5896094439054634 0.041649770890339076 -0.17159081640214552
0.6512521447675068 -0.17071986301586192 -0.16990090684666986
0.6060275652021232 0.23288253604882117 -0.16990090684666986
0.7451071216177713 -0.05701494854089468 -0.16990090684666986
0.5262248362708526 -0.359846740882136 -0.16990090684666986
0.7545186179113436 -0.16021642516336704 -0.16899095554756757
0.7440411786673944 -0.16280328671367209 -0.16899095554756757
0.7175875944720637 -0.06909130221040935 -0.16899095554756757
0.48220919200284773 0.3516701784944884 -0.16899095554756757
0.4266371662362437 0.11399089916897087 -0.16899095554756757
0.7918396204788102 0.3218107765796605 -0.16899095554756757
0.5141094846885192 -0.08001071779963684 -0.16899095554756757
0.8300575750411062 -0.010204453854218462 -0.16899095554756757
0.46073434134403374 -0.17424267447381506 -0.16899095554756757
0.7151307259644873 -0.11956760070204045 -0.16899095554756757
0.4330588225470513 0.13016203368444582 -0.16899095554756757
0.8002891682561886 -0.21431952954713435 -0.16899095554756757
0.48209219826439176 -0.12268743372753413 -0.16899095554756757
0.7893307547541426 -0.0729780941880035 -0.16899095554756757
0.4632562063729742 0.24854669769765317 -0.16899095554756757
0.6704261185700194 0.3500322661561042 -0.16899095554756757
0.7102689861664266 -0.33662998345075473 -0.16899095554756757
0.6962297375517057 0.19450858983525043 -0.16899095554756757
0.5245089281068311 0.08506744716179092 -0.16899095554756757
0.7782033502965489 -0.33468008780982117 -0.16834099033392308
0.6990245879703768 -0.3839864489168923 -0.1673010459920919
0.6990895844917414 -0.15599165127467782 -0.1673010459920919
0.5063878979504228 0.018511009284595186 -0.1673010459920919
0.7578074418923847 -0.12102352278060423 -0.16639109469298963
0.6335990895649226 -0.13738964686017252 -0.16639109469298963
0.536442289429344 -0.06997525490096583 -0.16639109469298963
0.4544946752930466 0.053037161433390434 -0.16639109469298963
0.7903966977045195 0.285607714179662 -0.16639109469298963
0.47730845429196816 -0.2623649581397351 -0.16639109469298963
0.5935092351873303 -0.192415701847315 -0.16639109469298963
0.7736535938010373 -0.2333895089154637 -0.16639109469298963
0.45644457093398016 0.27059351774447427 -0.16639109469298963
0.7825841158365128 -0.27423332294088365 -0.16639109469298963
0.5585931039103482 0.3772138113907169 -0.16639109469298963
0.4510758582692765 -0.03997286063913622 -0.16639109469298963
0.5189062279652156 0.3631875620802687 -0.16639109469298963
0.764385089854467 0.3520081604055833 -0.16639109469298963
0.7374505314010392 -0.10633430895223861 -0.16639109469298963
0.6235376280577059 0.0558580104606075 -0.16639109469298963
0.6953457848611492 0.21866129717427976 -0.16639109469298963
0.5266148153990393 0.06493152484308469 -0.16639109469298963
0.8280686814873541 -0.16346625123158948 -0.16574112947934513
0.6943838363449552 -0.15907248638735264 -0.16470118513751394
0.7964803721042318 -0.299659962098656 -0.16470118513751394
0.44857999184888175 0.05015131588480897 -0.16379123383841165
0.49085372934431937 0.2419170525184795 -0.16379123383841165
0.49342759159035166 0.310176399255424 -0.16379123383841165
0.5411090396633114 -0.17213678718160702 -0.16379123383841165
0.49927727851315196 0.3423886752436451 -0.16379123383841165
0.4556646126776067 0.23215457500953918 -0.16379123383841165
0.827132731579706 -0.06291663268078676 -0.16379123383841165
0.5044250030052163 -0.08320854665076767 -0.16379123383841165
0.43647763957082136 0.15018096226469602 -0.16379123383841165
0.7831560852245198 -0.1947035793993436 -0.16379123383841165
0.44943794593089254 0.2600120840663421 -0.16379123383841165
0.7339927164644506 -0.34832935729635545 -0.16379123383841165
0.785963934947464 0.21394254972322077 -0.16379123383841165
0.8295116042616448 -8.839526905564795E-4 -0.16379123383841165
0.4306799498651124 -0.012596325840430156 -0.16379123383841165
0.7089820550434105 0.36060070052996346 -0.16379123383841165
0.504243012745396 -0.18531808171431724 -0.16379123383841165
0.7208764184531048 0.03221227598822089 -0.16379123383841165
0.5492336048338675 0.19690046182146215 -0.16379123383841165
0.38672930211847206 0.04198775280143416 -0.16210132428293597
0.8146274008691862 -0.19770641868638128 -0.16210132428293597
0.5762331598086596 -0.1595924585582683 -0.16210132428293597
0.5045549960479453 -0.09745578413385496 -0.16119137298383368
0.6996615538797486 -0.14854304992631184 -0.16119137298383368
0.6732209689886905 0.34793937816816894 -0.16119137298383368
0.7196414845471802 -0.0744860134836587 -0.16119137298383368
0.5662106962142616 -0.13865057937464276 -0.16119137298383368
0.45926541996119724 0.12285642468308176 -0.16119137298383368
0.8008091404271042 -0.15198786555862764 -0.16119137298383368
0.4346317383640709 0.10295448984128737 -0.16119137298383368
0.8295506021744636 -0.10811521363762452 -0.16119137298383368
0.433435802370965 0.1337628409680363 -0.16119137298383368
0.7807642132383081 -0.28348882758318106 -0.16119137298383368
0.6685152208419045 0.37058416621154283 -0.16119137298383368
0.5242749406299191 -0.19792740685902036 -0.16119137298383368
0.4745656010903884 0.314154186362928 -0.16119137298383368
0.736657573840393 0.3566229134224594 -0.16119137298383368
0.775707483876154 -0.25599529904601914 -0.16119137298383368
0.5627138833648544 0.1472821174118416 -0.16119137298383368
0.5532243912456447 0.06647844205155858 -0.16119137298383368
0.45520963702805545 -0.3070305676213846 -0.1605414077701892
0.8489975613667069 -0.09498591632200593 -0.159501463428358
0.5460747738955554 -0.16346625123158948 -0.159501463428358
0.7261021387708065 -0.11895663340121466 -0.1585915121292557
0.7825191193151482 0.22623989156537452 -0.1585915121292557
0.6674882758043463 -0.1388455689387361 -0.1585915121292557
0.43808955330065963 0.06716740517802171 -0.1585915121292557
0.5349733680465075 0.33756593335840285 -0.1585915121292557
0.550247550567153 -0.1830302041622886 -0.1585915121292557
0.7858989384260996 -0.27870508361075763 -0.1585915121292557
0.4735776539656489 0.3199258774600913 -0.1585915121292557
0.798599258700713 -0.1768295360241201 -0.1585915121292557
0.4407804092851478 0.1901018256867408 -0.1585915121292557
0.8013421119022925 -0.21786833961363342 -0.1585915121292557
0.4533507365170324 0.30120687930713 -0.1585915121292557
0.7864839071183797 -0.31254227263308976 -0.1585915121292557
0.7991582287844473 0.16869197154929103 -0.1585915121292557
0.44616212125412413 0.1279261533495086 -0.1585915121292557
0.44799502315660167 -0.05958881078692697 -0.1585915121292557
0.5591650732983553 0.16834099033392316 -0.1585915121292557
0.5397831106274766 0.04721347311913588 -0.1585915121292557
0.6773937456602883 0.05570201880933282 -0.1585915121292557
0.44440721517728415 -0.24304799199022095 -0.15690160257378005
0.7377625147035886 0.09334800398362174 -0.15690160257378005
0.5454898052032753 0.0380749622152943 -0.15690160257378005
0.7831950831373385 0.1956135306984458 -0.15599165127467776
0.6187798826938282 -0.16589712113061986 -0.15599165127467776
0.767218938185957 0.2622869623140979 -0.15599165127467776
0.5944581843992512 -0.15120790730225442 -0.15599165127467776
0.5068298742957009 0.36283658086490045 -0.15599165127467776
0.8238959048157566 0.018952985629873333 -0.15599165127467776
0.5318145371081952 -0.19501556270189296 -0.15599165127467776
0.4485149953275172 -0.16069739942146385 -0.15599165127467776
0.4745786003946614 0.3419856968111854 -0.15599165127467776
0.7849629885184515 -0.2689556054060903 -0.15599165127467776
0.5839027493296647 0.36691836240658815 -0.15599165127467776
0.4656870762720048 -0.28157792985506636 -0.15599165127467776
0.7785413322076439 -0.09050115634785895 -0.15599165127467776
0.4492429563667992 -0.06702441283101998 -0.15599165127467776
0.8197621260569774 0.09265904085715862 -0.15599165127467776
0.44179435501843317 0.10695827555733735 -0.15599165127467776
0.5377942170737245 0.056715964542618263 -0.15599165127467776
0.707851115571669 0.04736946477041056 -0.15599165127467776
0.6062615526790351 -0.12507930571374581 -0.15534168606103327
0.5674846280330048 -0.01617113451547493 -0.15430174171920208
0.55248343090209 -0.3754069080967851 -0.15430174171920208
0.8107926061086835 0.05518204663841733 -0.15339179042009982
0.4538317107751292 -0.045926541996119744 -0.15339179042009982
0.7921776023899054 -0.045302575391021005 -0.15339179042009982
0.4472930607258656 0.0695592771642334 -0.15339179042009982
0.6246165703123557 0.35299610753032284 -0.15339179042009982
0.4845620660762408 -0.1374546433815369 -0.15339179042009982
0.5570201880933286 -0.3551799906481684 -0.15339179042009982
0.5180742724917508 -0.10909016145809129 -0.15339179042009982
0.8247408595934944 -0.026349589761147672 -0.15339179042009982
0.4273651272755255 0.12207646642670834 -0.15339179042009982
0.7915926336976252 -0.2718804488674904 -0.15339179042009982
0.6197158326014761 0.36369453494691123 -0.15339179042009982
0.4359576673999057 0.027311538277341493 -0.15339179042009982
0.7939325084667455 -0.15951446273263095 -0.15339179042009982
0.45714653336471606 0.2203512067297554 -0.15339179042009982
0.6678522563239871 0.21012075426699103 -0.15339179042009982
0.5103136878408354 0.03781497612983656 -0.15339179042009982
0.7145457572722074 0.05974480243820165 -0.15339179042009982
0.7674139277500504 -0.35180017153721715 -0.15170188086462413
0.5093517393246416 -0.06074574886721414 -0.15170188086462413
0.7461600652638753 -0.11705873497737275 -0.15079192956552184
0.5486226375330417 0.3470684247818852 -0.15079192956552184
0.5106516697519305 0.35170917640730687 -0.15079192956552184
0.5217530756009784 -0.14446126838462453 -0.15079192956552184
0.4435492610952734 -0.03507212292825664 -0.15079192956552184
0.7305089029193161 -0.3461064762656914 -0.15079192956552184
0.7790743036828324 -0.2078328767149624 -0.15079192956552184
0.7526727167045932 -0.17694652976257613 -0.15079192956552184
0.45254477965211304 0.10123858167726585 -0.15079192956552184
0.4847960535531528 -0.3356160377174693 -0.15079192956552184
0.7623961963007148 0.3621606170427103 -0.15079192956552184
0.47810141185261457 -0.23215457500953918 -0.15079192956552184
0.7828181033134248 -0.09781976465349596 -0.15079192956552184
0.7651520488065674 -0.2599730861535234 -0.15079192956552184
0.4617742856858649 0.2085218398414257 -0.15079192956552184
0.5855796595808676 0.04552356356366008 -0.15079192956552184
0.6977376568473609 0.14990797687496532 -0.15079192956552184
0.5252498884503859 0.08974719670003126 -0.15079192956552184
0.707383140617845 0.03745099561019557 -0.14910202001004616
0.4535327267768528 -0.31756000408242535 -0.14910202001004616
0.6053126034671144 -0.1687569680706556 -0.14910202001004616
0.829407609827462 0.07816481659288654 -0.14819206871094387
0.4593304164825616 0.1604374133360061 -0.14819206871094387
0.733589738031991 -0.1179166890593835 -0.14819206871094387
0.41469080560945804 -0.010061461507216731 -0.14819206871094387
0.8389620984680357 0.04739546337895628 -0.14819206871094387
0.7164696543045952 -0.13780562459690493 -0.14819206871094387
0.44335427153118 0.22911273780968322 -0.14819206871094387
0.8004191612989174 -0.2597650972851573 -0.14819206871094387
0.7842610260877154 0.15596565266613208 -0.14819206871094387
0.6227186718885137 -0.19896735120085152 -0.14819206871094387
0.4913867008195078 -0.18304320346656155 -0.14819206871094387
0.5247819134965618 -0.1413544346634038 -0.14819206871094387
0.7916836288275355 0.20388108821600404 -0.14819206871094387
0.6670852973718867 -0.0016119137298382753 -0.14819206871094387
0.7232552911350435 0.08999418348121623 -0.14819206871094387
0.5468937300647475 0.09677982031166478 -0.14819206871094387
0.5553562771463987 0.3623816052153494 -0.14819206871094387
0.7554415685147187 0.3409197538608085 -0.14819206871094387
0.7569364885061012 -0.11210600004940172 -0.1465021591554682
0.5305016073766333 0.12758817143841353 -0.1465021591554682
0.4046033454936956 -0.06931229038304842 -0.1465021591554682
0.6104733272634515 -0.19587351678390374 -0.1455922078563659
0.5263288307050357 -0.3513321965833931 -0.1455922078563659
0.7331347623824399 -0.12279142816171719 -0.1455922078563659
0.44156036754152117 0.011062407936229222 -0.1455922078563659
0.5109766523587529 -0.3474714032143449 -0.1455922078563659
0.7903317011831551 0.15151989060480378 -0.1455922078563659
0.5597760405991813 -0.18370616798447897 -0.1455922078563659
0.4450701796952016 -0.1790394177505114 -0.1455922078563659
0.8240778950755772 0.13157895785019072 -0.1455922078563659
0.7434172120622957 -0.1979404061632933 -0.1455922078563659
0.5565392138352316 -0.20473904229801462 -0.1455922078563659
0.7663739834082192 -0.24664879927381145 -0.1455922078563659
0.5595030552094505 0.12487131684537951 -0.1455922078563659
0.5400430967129345 0.04643351486276246 -0.1455922078563659
0.7198104755027277 0.35832582228220794 -0.1455922078563659
0.6484702936531084 -0.1198535853960441 -0.14494224264272143
0.6949038085158709 -0.12072453878232763 -0.14390229830089024
0.8147573939119149 -0.23194658614117306 -0.14390229830089024
0.8128594954880732 0.061317718255221254 -0.14299234700178795
0.41631571864356925 -0.009944467768760717 -0.14299234700178795
0.7957004138478584 0.2103417424396301 -0.14299234700178795
0.4565875632809819 -0.07353706427173765 -0.14299234700178795
0.4779064222885212 -0.3353690509362843 -0.14299234700178795
0.7992882218271761 0.10213553367209528 -0.14299234700178795
0.5524184343807256 -0.1798843725282492 -0.14299234700178795
0.44813801550360344 -0.1913497588969381 -0.14299234700178795
0.8044879435363321 0.22045520116393827 -0.14299234700178795
0.6317531883581721 -0.20472604299374167 -0.14299234700178795
0.8109485977599582 0.1211535158233332 -0.14299234700178795
0.48315814121476863 -0.1526378307722723 -0.14299234700178795
0.6918359727074688 0.14807507497248798 -0.14299234700178795
0.7454191049203206 0.03014538660883152 -0.14299234700178795
0.7210844073214709 0.35754586402583455 -0.14299234700178795
0.48944980448284725 -0.028559471487538964 -0.14130243744631227
0.6129821929881192 -0.11210600004940172 -0.14130243744631227
0.831877477639311 -0.18470711441349144 -0.14130243744631227
0.6224846844116018 -0.18473311302203718 -0.14039248614720998
0.4690408967744103 -0.2919903725776511 -0.14039248614720998
0.6820474965899828 -0.14248537413514525 -0.14039248614720998
0.4447321977841063 -0.03088634695238627 -0.14039248614720998
0.6084194371883348 -0.38184156371186545 -0.14039248614720998
0.8083617362096533 -0.029937397740465214 -0.14039248614720998
0.47825740350388923 -0.12032156034986816 -0.14039248614720998
0.4727586977964568 -0.24621982223280606 -0.14039248614720998
0.7801272473289365 0.2547473658358217 -0.14039248614720998
0.47481258787157343 0.2785750905680287 -0.14039248614720998
0.6111882889984604 -0.20805386488760147 -0.14039248614720998
0.8313055082513037 0.05188022335310326 -0.14039248614720998
0.694058853738133 0.0985607249970507 -0.14039248614720998
0.5473617050185715 0.0582758810553651 -0.14039248614720998
0.5351293596977822 0.08231159465593843 -0.14039248614720998
0.49198466881606084 -0.13148796272028043 -0.1387025765917343
0.45306475182302874 -0.31956189694045034 -0.1387025765917343
0.7866268994653814 0.2430609912944937 -0.137792625292632
0.4418853501483435 0.06911730081895526 -0.137792625292632
0.809544672898486 -0.11332793465105347 -0.137792625292632
0.5273557757425941 -0.0987167166483252 -0.137792625292632
0.4356196854888106 0.1427713588291489 -0.137792625292632
0.8377271645621113 -0.0272205431474312 -0.137792625292632
0.7398424033872509 -0.07301709210082216 -0.137792625292632
0.4448751901311082 0.20844384401578836 -0.137792625292632
0.8202431003150744 -0.15354778207137448 -0.137792625292632
0.6355229865973102 -0.17313773361061952 -0.137792625292632
0.42541523163459216 -0.03203028572840049 -0.137792625292632
0.7884728006721317 -0.13931354389256015 -0.137792625292632
0.8166812909443026 0.08050469136200661 -0.137792625292632
0.7246462166922427 0.07635791329895472 -0.137792625292632
0.7030023750778813 0.21509948780350796 -0.137792625292632
0.6667473154607916 -0.11210600004940172 -0.13714266007898754
0.5604910023341901 0.05910783652882996 -0.13610271573715635
0.7569754864189199 0.04495159417565297 -0.13610271573715635
0.8069708106524541 -0.05841887340236684 -0.13519276443805406
0.46180028429441067 -0.22677286304056277 -0.13519276443805406
0.6758598277560872 -0.14066547153694067 -0.13519276443805406
0.5230010088111758 -0.20076125519051038 -0.13519276443805406
0.5782480519709576 -0.38406444474252965 -0.13519276443805406
0.7297809418800342 -0.2009042475375121 -0.13519276443805406
0.44555115395329836 0.025140654463768872 -0.13519276443805406
0.7870558765063868 -0.33341915529535093 -0.13519276443805406
0.7484739414244498 -0.16067140081291814 -0.13519276443805406
0.4627232348977858 -0.17348871482598754 -0.13519276443805406
0.7875108521559379 -0.2154894669316945 -0.13519276443805406
0.8323714512016805 -0.014728211741184105 -0.13519276443805406
0.7095800230399636 0.09203507425205988 -0.13519276443805406
0.526055845315305 0.06383958328416191 -0.13519276443805406
0.7574824592855623 0.04198775280143416 -0.13350285488257838
0.831877477639311 -0.19770641868638128 -0.13350285488257838
0.5221300554248923 0.03599507353163198 -0.13259290358347608
0.552587425336273 0.07206814288890111 -0.13259290358347608
0.6200538145125714 -0.0013779262529262496 -0.13259290358347608
0.4373355936528319 0.04700548425076957 -0.13259290358347608
0.8114425713223281 0.11792968836365646 -0.13259290358347608
0.5580731317394327 -0.21408554207022232 -0.13259290358347608
0.792580580822365 -0.2962931422919775 -0.13259290358347608
0.7158456876994964 -0.14998597270060268 -0.13259290358347608
0.45333773721275944 0.19922733728630942 -0.13259290358347608
0.8052029052713408 -0.14091245831812566 -0.13259290358347608
0.7438331897990281 -0.1545097305875683 -0.13259290358347608
0.5919883165874021 -0.22553792913463824 -0.13259290358347608
0.8243638797695806 0.049566347192528906 -0.13259290358347608
0.8362842417878206 -0.1463461675041935 -0.13090299402800043
0.7633971427297274 -0.07991972266972655 -0.13090299402800043
0.4323048628992236 -0.13016203368444582 -0.12999304272889814
0.4151327819547362 0.027311538277341493 -0.12999304272889814
0.4989522959063298 -0.164584191399058 -0.12999304272889814
0.7899937192720599 -0.31212629489635735 -0.12999304272889814
0.5267448084417681 -0.11642176906800124 -0.12999304272889814
0.6516941211127851 -0.1520268634714463 -0.12999304272889814
0.47160175971616963 -0.10694527625306458 -0.12999304272889814
0.6245515737909911 -0.3980256975316133 -0.12999304272889814
0.7515287779285789 -0.15982644603518031 -0.12999304272889814
0.4333968044581464 0.07344606914182754 -0.12999304272889814
0.5963820814316388 0.21307159633693706 -0.12999304272889814
0.7041983110709872 0.13194293836983173 -0.12999304272889814
0.6631465081772011 0.04145478132624572 -0.12999304272889814
0.846501694946312 -0.08813528297019298 -0.12830313317342243
0.704913272805996 -0.07786583259460994 -0.12830313317342243
0.6773547477474697 -0.19075179090038508 -0.12739318187432017
0.7683108797448798 -0.1696669193697578 -0.12739318187432017
0.4974053786978559 -0.16610510999898617 -0.12739318187432017
0.818189210239958 -0.14394129621370885 -0.12739318187432017
0.6227316711927865 -0.14758110141011802 -0.12739318187432017
0.4520118081769246 0.07089820550434116 -0.12739318187432017
0.8029280270235852 -0.1921297171533115 -0.12739318187432017
0.45402670033922254 0.15675861022677845 -0.12739318187432017
0.5936912254471507 -0.23969417148781524 -0.12739318187432017
0.832904422676869 0.018524008588867952 -0.12739318187432017
0.5567732013121436 0.16475318235460545 -0.12739318187432017
0.5859696387090543 0.20531101168602173 -0.12739318187432017
0.8107016109787732 -0.24906666986856885 -0.12570327231884448
0.5796259782238841 -0.16081439315991986 -0.12570327231884448
0.7897857304036937 -0.3145831634039336 -0.12479332101974219
0.4265071731935147 0.07700787851259937 -0.12479332101974219
0.8115205671479655 0.010243451767037132 -0.12479332101974219
0.5189582251823073 -0.09193107981787682 -0.12479332101974219
0.7130768358893708 -0.1373376496430809 -0.12479332101974219
0.4018604922921156 -0.011283396108868296 -0.12479332101974219
0.8058528704849854 0.11145603483575726 -0.12479332101974219
0.7972733296648782 -0.13251490775783883 -0.12479332101974219
0.4371406040887386 -0.08879824748811038 -0.12479332101974219
0.6934998836543987 0.1696279214569391 -0.12479332101974219
0.7420262865050965 0.05245219274111037 -0.12479332101974219
0.6082634455370601 -0.006694641700538263 -0.12479332101974219
0.7588993834513075 -0.07786583259460994 -0.12310341146426654
0.5305016073766333 0.12758817143841353 -0.12310341146426654
0.6203527985108478 -0.147711094452847 -0.12219346016516425
0.6573878163843109 -0.1307730009852716 -0.12219346016516425
0.46729899000184305 -0.24504988484824594 -0.12219346016516425
0.4109080080660471 -0.026284593239783282 -0.12219346016516425
0.6659543579001452 -0.22371802653643366 -0.12219346016516425
0.4541826919904972 -0.2987760094080995 -0.12219346016516425
0.604506646602195 -0.19683546530009757 -0.12219346016516425
0.42671516206188104 -0.037957968476838286 -0.12219346016516425
0.5471797147587509 -0.3558559544703587 -0.12219346016516425
0.8275487093164386 0.0029768406784917577 -0.12219346016516425
0.5164753580661853 0.037671983782834643 -0.12219346016516425
0.7043933006350805 0.13024002951008315 -0.12219346016516425
0.44306828683717636 0.11753970923546975 -0.12219346016516425
0.49919928268751457 -0.14914101792286485 -0.12050355060968855
0.48944980448284725 -0.028559471487538964 -0.12050355060968855
0.693239897568941 -0.1434733212598848 -0.11959359931058626
0.6640304608677575 -0.15306680781327767 -0.11959359931058626
0.8129374913137106 -0.05048929779590405 -0.11959359931058626
0.45099786244363915 -0.27455830554770577 -0.11959359931058626
0.5136285104304222 -0.17421667586526934 -0.11959359931058626
0.8459297255583047 0.0020278914665708882 -0.11959359931058626
0.817695236677588 -0.06286463546369514 -0.11959359931058626
0.5095077309759163 -0.20237316892034865 -0.11959359931058626
0.4218274236552744 0.014949199913823364 -0.11959359931058626
0.5474397008442089 0.06546449631827314 -0.11959359931058626
0.5868015941825191 0.2224700933262362 -0.11959359931058626
0.831877477639311 -0.19770641868638128 -0.1179036897551106
0.686402263521401 -0.11989258330886277 -0.1179036897551106
0.7424032663290102 -0.18725497805097782 -0.11699373845600831
0.823466927774751 0.028988448528544344 -0.11699373845600831
0.8335933858033325 -0.08669236019590215 -0.11699373845600831
0.41075201641477244 0.029794405393463484 -0.11699373845600831
0.7765654379581647 -0.13711666147044183 -0.11699373845600831
0.7857039488620062 -0.24368495789959246 -0.11699373845600831
0.6891841146357994 -0.3641235119879166 -0.11699373845600831
0.6411126874346528 -0.14816607010239807 -0.11699373845600831
0.7292739690133916 -0.12219346016516436 -0.11699373845600831
0.7423122711991001 0.034305163976156176 -0.11699373845600831
0.5234429851564543 0.0920870714691515 -0.11699373845600831
0.5087797699366345 0.07622792025622595 -0.11530382890053265
0.5056339383025951 -0.06143471199367726 -0.11530382890053265
0.42048849531516685 -0.07986772545263511 -0.11439387760143035
0.41709567689994265 0.011673375237055006 -0.11439387760143035
0.6174539536579934 -0.2035301070006358 -0.11439387760143035
0.8219850070876419 -0.15335279250728115 -0.11439387760143035
0.5920013158916752 -0.26753868124034536 -0.11439387760143035
0.4639061715866189 -0.14711312645629396 -0.11439387760143035
0.5280447388690572 -0.13131897176473298 -0.11439387760143035
0.743508207192206 -0.12654822709658237 -0.11439387760143035
0.7260891394665335 0.038425943430662336 -0.11439387760143035
0.5324255044090211 0.0834425341276797 -0.11439387760143035
0.6869222356923165 0.23142661397025757 -0.11374391238778586
0.7199274692411838 -0.06074574886721414 -0.11270396804595469
0.5068948708170655 0.02008392510161479 -0.11270396804595469
0.5509235143893432 0.07698187990405346 -0.1117940167468524
0.5495845860492355 0.1804303433077108 -0.1117940167468524
0.5172553163225587 -0.08432648681823618 -0.1117940167468524
0.7446001487511286 -0.11765670297392576 -0.1117940167468524
0.6274764172523914 -0.2372503022845121 -0.1117940167468524
0.8289396348736379 -0.03104233860366095 -0.1117940167468524
0.7875498500687566 -0.126353237532489 -0.1117940167468524
0.7623182004750774 -0.3423626766350992 -0.1117940167468524
0.42823608066180924 -0.06848033490958357 -0.1117940167468524
0.6218347191979573 -0.2534604347128057 -0.1117940167468524
0.4038493858458679 -0.1292260837767977 -0.11010410719137669
0.7577034474582016 -0.093088017898164 -0.11010410719137669
0.5332444605782131 0.064541545714898 -0.1091941558922744
0.6381748446689797 0.22828078233621799 -0.1091941558922744
0.6692561811854593 0.21368256363776283 -0.1091941558922744
0.7199144699369108 -0.1471651236733856 -0.1091941558922744
0.5078828179418051 -0.10769923590089209 -0.1091941558922744
0.4642051555848953 -0.13365884653385304 -0.1091941558922744
0.6263974749977416 -0.23257055274627178 -0.1091941558922744
0.45498864885541634 -0.2714904697393039 -0.1091941558922744
0.4420413417996182 -0.031809297555761416 -0.1091941558922744
0.5407450591436707 -0.3593007701026746 -0.1091941558922744
0.4260911954567823 -0.18680000240142675 -0.10854419067862994
0.831877477639311 -0.13819560372509165 -0.10750424633679874
0.7633971427297274 0.12758817143841353 -0.10750424633679874
0.5238979608060054 0.04967034162671197 -0.10659429503769645
0.6898600784579896 0.2033611160450882 -0.10659429503769645
0.6496142324291229 -0.1466841494152888 -0.10659429503769645
0.5381191996805467 -0.09277603459561463 -0.10659429503769645
0.7472390075185252 -0.34511852914095165 -0.10659429503769645
0.6179089293075445 -0.23887521531862335 -0.10659429503769645
0.6694901686623713 -0.23029567449851593 -0.10659429503769645
0.6772507533132864 -0.2492096622155706 -0.10659429503769645
0.6007368483630571 -0.27068451287438455 -0.10659429503769645
0.7582884161504817 0.05180222752746592 -0.10490438548222078
0.4038493858458679 -0.1463461675041935 -0.10490438548222078
0.7080071072229438 0.05294616630348032 -0.10399443418311849
0.5584761101718921 0.16407721853241528 -0.10399443418311849
0.6631985053942925 0.027402533407251788 -0.10399443418311849
0.5754012043351948 -0.14364231221543244 -0.10399443418311849
0.7487599261184534 -0.09225606242469896 -0.10399443418311849
0.8185791893681448 -0.06689441978829101 -0.10399443418311849
0.8107276095873192 -0.06571148309945793 -0.10399443418311849
0.809778660375398 -0.22666886860637972 -0.10399443418311849
