0.47246838813250797 0.2705388374304522 -0.08641572745861974
0.6734137597162854 0.27367860886144874 -0.08641572745861974
0.46883892757924606 0.27896917173141533 -0.08641572745861974
0.626422807473787 0.25466714882055247 -0.08641572745861974
0.2088044019087638 0.34198544054373997 -0.08593564008384963
0.03901670094756686 0.2281663257332424 -0.08516750028421745
0.19707106646938236 0.24050457126483415 -0.08516750028421745
0.19381607406844104 0.3166944376408506 -0.08516750028421745
0.45533887060071054 0.4455882960191296 -0.08516750028421745
0.4773940845976493 0.3205543401340023 -0.08516750028421745
0.4174503749838535 0.5288642520467529 -0.08449537795953929
0.3926682646982204 0.4240995851244195 -0.08449537795953929
0.32165374022222576 0.5384756012896506 -0.08449537795953929
0.10650738409274885 0.48563718482245216 -0.08449537795953929
0.09463962418843183 0.24871406537340307 -0.08449537795953929
0.008800001579536103 0.25498400648790065 -0.08449537795953929
0.18190990717414235 0.2576916992816041 -0.08449537795953929
0.34878827864423245 0.4328371753452356 -0.08449537795953929
0.26348635389507935 0.3879490058042302 -0.08449537795953929
0.3093827069231018 0.28827326505446016 -0.08449537795953929
0.24092224728088424 0.318518769664977 -0.08449537795953929
0.44108987731753374 0.2373167910963607 -0.08449537795953929
0.4240179702707086 0.2440284125956468 -0.08449537795953929
0.6057502451161858 0.24554548869992038 -0.08449537795953929
0.6549688027776175 0.2284159711681228 -0.08449537795953929
0.5298868381550133 0.37048342711009374 -0.08449537795953929
0.5198050032848408 0.21878541843023439 -0.08449537795953929
0.5882750646745539 0.23185339677147682 -0.08449537795953929
0.5340924035579993 0.30747676004526453 -0.08449537795953929
0.47363019957945174 0.23518520315238134 -0.08449537795953929
0.5490039174183589 0.35366116549814897 -0.08449537795953929
0.41866979691576967 0.5501225210015734 -0.0840152905847692
0.30314157105109035 0.2281663257332424 -0.08324715078513702
0.21911667871882584 0.22573708361690561 -0.08324715078513702
0.41733515401390864 0.5528014085527906 -0.08324715078513702
0.4633755332543623 0.3092434815844185 -0.08324715078513702
0.5166268248638628 0.3090418448870151 -0.08324715078513702
-0.018478563054901472 0.33468811244723423 -0.08324715078513702
0.448377603666544 0.5088542102663347 -0.08257502846045886
0.37730546870557696 0.4517622196586732 -0.08257502846045886
0.3219321908995925 0.5174381725272243 -0.08257502846045886
0.019765197219285505 0.24590075335725017 -0.08257502846045886
0.011123624473423476 0.36950404886556265 -0.08257502846045886
0.08960830850084107 0.3113270607909208 -0.08257502846045886
0.23750402517252098 0.36132335999947995 -0.08257502846045886
0.222486892089712 0.37910579636096486 -0.08257502846045886
0.31856197752870635 0.2988543907943933 -0.08257502846045886
0.19301912902632265 0.36407906153066044 -0.08257502846045886
0.27006355092942985 0.24014930660750436 -0.08257502846045886
0.45683674320999335 0.21351405905525866 -0.08257502846045886
0.47819102963976773 0.2980286405097887 -0.08257502846045886
0.6480747480759188 0.251076095257272 -0.08257502846045886
0.647268201286305 0.2712781719875982 -0.08257502846045886
0.5580679670540187 0.48922823838573254 -0.08257502846045886
0.506007292133948 0.2731313092542108 -0.08257502846045886
0.5571173940519737 0.4814028141769798 -0.08257502846045886
0.5396806206003233 0.35788593439612604 -0.08257502846045886
0.18894798808827207 0.39257704809701416 -0.08209494108568875
0.30848014265853396 0.23686550896407668 -0.08132680128605657
0.18398388463314916 0.3546309419951846 -0.08132680128605657
0.46480619363117726 0.30651658529572423 -0.08132680128605657
0.36781894218011957 0.43958720383450317 -0.08132680128605657
0.28234418597604927 0.5569781687132905 -0.08132680128605657
0.38926924608484803 0.5840166896603431 -0.08065467896137841
0.4471773852296187 0.47021677834483633 -0.08065467896137841
0.37261021418032525 0.5112834523826714 -0.08065467896137841
0.23069638619828078 0.4235906925071632 -0.08065467896137841
0.05053879794204952 0.24097505689210894 -0.08065467896137841
0.03794130522808187 0.26582437941020975 -0.08065467896137841
0.09906602978381222 0.32409738495980567 -0.08065467896137841
0.32654102969738547 0.4466540899911193 -0.08065467896137841
0.23891548205434515 0.31207599709556216 -0.08065467896137841
0.2377248653649152 0.391357626165098 -0.08065467896137841
0.28093272909422506 0.25531046590274437 -0.08065467896137841
0.480370626321224 0.23388896724050212 -0.08065467896137841
0.6313389021914328 0.26233894506937877 -0.08065467896137841
0.5284753812731892 0.2263131884666298 -0.08065467896137841
0.5323352837663408 0.4333652714574826 -0.08065467896137841
0.633758542560274 0.22797429078333437 -0.08065467896137841
0.4996509352919917 0.29482165684632433 -0.08065467896137841
0.5314711264917545 0.35206727541391225 -0.08065467896137841
0.2832755554831032 0.35927818778295934 -0.08017459158660831
0.4956854135763905 0.31354506446235864 -0.07940645178697614
0.18117057261699626 0.34198544054373997 -0.07940645178697614
0.24745143557775767 0.2630686778790294 -0.07940645178697614
0.49999659820182624 0.4952581358128451 -0.07940645178697614
0.03415821671489335 0.25964085402317066 -0.07940645178697614
0.6586270685733657 0.20963495306711608 -0.07873432946229798
0.567218432417137 0.4783686619684327 -0.07873432946229798
0.6498414696150728 0.21846856076288612 -0.07873432946229798
0.4948500615442906 0.28493185692606005 -0.07873432946229798
0.5316727631891581 0.3390665093051377 -0.07873432946229798
0.4642973010139207 0.2889357856316428 -0.07873432946229798
0.45647187680516793 0.45969326308987546 -0.07873432946229798
0.3724949932103804 0.46139277239656157 -0.07873432946229798
0.3115911088470444 0.5352014053937184 -0.07873432946229798
0.29614189712694217 0.39394049624136124 -0.07873432946229798
0.25528646153400586 0.3876513516318728 -0.07873432946229798
0.31144708263461335 0.30654539053821045 -0.07873432946229798
0.2745763722522689 0.2537453810609938 -0.07873432946229798
0.008223896729812085 0.3508478534819962 -0.07873432946229798
0.061724833774193 0.26519066407551317 -0.07873432946229798
0.09524453428064206 0.3165312079334288 -0.07873432946229798
0.5161563392365881 0.408928824081684 -0.07825424208752786
0.15587956971410702 0.4617480370538915 -0.07825424208752786
0.2837364393628825 0.4431590539027928 -0.0774861022878957
0.47946806205665626 0.30849454527977715 -0.0774861022878957
0.5566853154146807 0.44215087041577567 -0.0774861022878957
0.27306889789549077 0.3358211186516918 -0.0774861022878957
0.39289870663811005 0.5897969416525753 -0.07681397996321755
0.473370952397076 0.4688821354429753 -0.07681397996321755
0.3584284331296163 0.5221718340424576 -0.07681397996321755
0.1387308486873187 0.4660880269218133 -0.07681397996321755
0.03498396699949792 0.24063899572976977 -0.07681397996321755
-0.014436227359337223 0.3852989234954992 -0.07681397996321755
0.09829788998417993 0.31580147512377815 -0.07681397996321755
0.2500247039065255 0.37143400011213845 -0.07681397996321755
0.31612313366487416 0.2988063820569163 -0.07681397996321755
0.220576144338127 0.34474114207492035 -0.07681397996321755
0.28580081507439403 0.24109027786205375 -0.07681397996321755
0.5742085045937897 0.24273217668376748 -0.07681397996321755
0.5189600495052455 0.38397388234113383 -0.07681397996321755
0.6561114107295704 0.24916534750568695 -0.07681397996321755
0.6256066589366777 0.24195443513663986 -0.07681397996321755
0.1359751471561382 0.3912616086901441 -0.07633389258844743
0.383681029042524 0.4366874760908918 -0.07556575278881526
0.5052679575768021 0.3105493192437932 -0.07556575278881526
0.18117057261699626 0.2811871754028532 -0.07556575278881526
0.3961633007865468 0.6202056759705138 -0.07556575278881526
0.14323406826266227 0.39119439645767623 -0.07556575278881526
0.306617403644426 0.5273855829324611 -0.0748936304641371
0.4038927075203457 0.5687691146376442 -0.0748936304641371
0.3796002863569781 0.4632363079156789 -0.0748936304641371
0.6341042054701085 0.23257352783363203 -0.0748936304641371
0.5630512740041325 0.2900879953310911 -0.0748936304641371
0.5200642504672168 0.5050615200056507 -0.0748936304641371
0.5604684039278692 0.27943965735869014 -0.0748936304641371
0.5305781639746823 0.322148230218239 -0.0748936304641371
0.2501399248764703 0.3550630206324777 -0.0748936304641371
0.30928668944814774 0.28921423630900955 -0.0748936304641371
0.3121672136967684 0.3063149485983208 -0.0748936304641371
0.22475290449862684 0.2700107413182052 -0.0748936304641371
-0.015137154926501518 0.35344992705325023 -0.0748936304641371
0.05348653442313801 0.2999105830188875 -0.0748936304641371
0.370862696136162 0.6114488822547072 -0.074413543089367
0.22867041747675093 0.25538727988270754 -0.074413543089367
0.28234418597604927 0.5554514908615215 -0.07364540328973483
0.4802554053512792 0.27878673852900265 -0.07364540328973483
0.31803388141645916 0.2281663257332424 -0.07364540328973483
0.2633231241876575 0.36727644344662935 -0.07364540328973483
0.015991710453592437 0.2514217581671065 -0.07297328096505667
0.002184397555204059 0.37220213991177076 -0.07297328096505667
0.1289178627470176 0.3142747972720093 -0.07297328096505667
0.27606464311405626 0.23624139537687558 -0.07297328096505667
0.3458021351731623 0.297654172357468 -0.07297328096505667
0.25892552383476336 0.3883426774515418 -0.07297328096505667
0.22619316662293723 0.32897507268746995 -0.07297328096505667
0.23059076697583142 0.44394639719741585 -0.07297328096505667
0.38143422012859995 0.5907283111596291 -0.07297328096505667
0.4670818077875875 0.45969326308987546 -0.07297328096505667
0.6245600684596787 0.24628482325706633 -0.07297328096505667
0.566603920577431 0.2520362700068123 -0.07297328096505667
0.6523187204688866 0.2510856970047674 -0.07297328096505667
0.5106065291842455 0.3056428262736427 -0.07297328096505667
0.5257292814895042 0.4148819075288334 -0.07297328096505667
0.30314157105109035 0.2661124318350718 -0.07249319359028655
0.41633657227438686 0.4203068948637356 -0.07172505379065437
0.3825768280805528 0.43343248368995047 -0.07172505379065437
0.2584550382074886 0.2281663257332424 -0.07172505379065437
0.20299534467404556 0.3293399390922952 -0.07172505379065437
-0.024585274461977225 0.3595758419553167 -0.07172505379065437
0.5588841155911277 0.4874039063616062 -0.07105293146597622
0.5111250235489972 0.30359765405712197 -0.07105293146597622
0.6469225383764705 0.26211810487698456 -0.07105293146597622
0.5321912575539096 0.4001048181334094 -0.07105293146597622
0.037230775913421985 0.24664968966189157 -0.07105293146597622
0.08691981920212845 0.2541966631932777 -0.07105293146597622
0.1239537592918947 0.31843235393751834 -0.07105293146597622
0.25242514078037603 0.3002178389387405 -0.07105293146597622
0.32252749924430746 0.29795182652982555 -0.07105293146597622
0.2385506156495199 0.3444914966400399 -0.07105293146597622
0.362864440472492 0.45202146684104905 -0.07105293146597622
0.41068114299959496 0.3913672279125935 -0.07105293146597622
0.3835946133150654 0.609538134503122 -0.07105293146597622
0.0937754669138456 0.4838992685257844 -0.07105293146597622
0.26081706809135746 0.36279242736627654 -0.07057284409120612
0.4818781006780023 0.3087633942096483 -0.06980470429157394
0.22078738278302576 0.2540334334858559 -0.06980470429157394
0.30314157105109035 0.2661124318350718 -0.06980470429157394
0.4669761885651382 0.4305135524513482 -0.06980470429157394
0.013658485812209615 0.23310162394587908 -0.06980470429157394
0.5036548639975744 0.32459667582956653 -0.06913258196689578
0.669995537607922 0.388918782301266 -0.06913258196689578
0.5567813328896347 0.2521802962192433 -0.06913258196689578
0.5212356636616557 0.4044544097488266 -0.06913258196689578
-0.017796838982727936 0.3816694629422372 -0.06913258196689578
0.1408624366312979 0.31652160618593334 -0.06913258196689578
0.19044586069755487 0.2529964447563524 -0.06913258196689578
0.25278040543770597 0.38599024931516823 -0.06913258196689578
0.3001170205900387 0.39205855373226245 -0.06913258196689578
0.3137130950435282 0.3060460996684496 -0.06913258196689578
0.4010697937566973 0.4098313883462519 -0.06913258196689578
0.3544533096665198 0.5191184783389196 -0.06913258196689578
0.31123584418971445 0.5385044065321367 -0.06913258196689578
0.41733515401390864 0.3863935227099751 -0.06865249459212568
-0.025209388049178483 0.3664602949095201 -0.06865249459212568
0.46057182298570487 0.452376731498379 -0.0678843547924935
0.21766681484702002 0.36919679294570984 -0.0678843547924935
0.22783506544465107 0.2991712484617416 -0.0678843547924935
-0.007407748192702687 0.2661124318350718 -0.0678843547924935
0.5615630031423452 0.4841969226981418 -0.06721223246781535
0.5865467501253814 0.2463040267520571 -0.06721223246781535
0.5703293986056472 0.49062049177256595 -0.06721223246781535
0.5094927264747791 0.37632128958729816 -0.06721223246781535
0.04188762344869204 0.2704428199554982 -0.06721223246781535
0.11104901065807407 0.40469445343621174 -0.06721223246781535
0.2239079507190315 0.25945842082075815 -0.06721223246781535
0.30040507301490077 0.2302403031922492 -0.06721223246781535
0.2942215476278617 0.3541412528729192 -0.06721223246781535
0.22646201555280854 0.3446451245999664 -0.06721223246781535
0.38103094673379306 0.4473358140632928 -0.06721223246781535
0.41706630508403747 0.5256284631408022 -0.06721223246781535
0.3589469274943679 0.5361423766482676 -0.06721223246781535
0.2832755554831032 0.25809497267641107 -0.06673214509304524
0.4686276891343473 0.4297742178942022 -0.06673214509304524
0.434099805140881 0.5063865611600163 -0.06596400529341306
0.3900661911269664 0.4305135524513482 -0.06596400529341306
0.2595784426644507 0.32991604394201934 -0.06596400529341306
0.24356272784211977 0.2661124318350718 -0.06596400529341306
0.5527101919515841 0.4293325375094137 -0.06529188296873491
0.5240297721828178 0.22393195508776997 -0.06529188296873491
0.5255948570245684 0.5081916896891518 -0.06529188296873491
0.40248125063852147 0.3865567524173969 -0.06529188296873491
0.3804260366415827 0.6214058944074391 -0.06529188296873491
0.12920591517187968 0.45945321940249034 -0.06529188296873491
0.006293945483236172 0.3512607286242984 -0.06529188296873491
0.12387694531193139 0.31321860504751503 -0.06529188296873491
0.24119109621075543 0.3385864219303676 -0.06529188296873491
0.30240223649394443 0.44466652825957104 -0.06529188296873491
0.35290742831976 0.43970242480444804 -0.06529188296873491
0.34624381555795086 0.4413827306161435 -0.06529188296873491
0.2611723327486874 0.2471105735416709 -0.06529188296873491
0.4868422041331252 0.31015564759648173 -0.06481179559396481
0.005247355006237384 0.2389778934130653 -0.06404365579433263
0.31089018127987994 0.2661124318350718 -0.06404365579433263
0.4818781006780023 0.3898501518083199 -0.06404365579433263
0.23928995020666585 0.3749578414429511 -0.06404365579433263
0.3103236781776513 0.5327433580348954 -0.06337153346965448
0.39941829318748817 0.5731955202330248 -0.06337153346965448
0.6003252577812836 0.4633419271381283 -0.06337153346965448
0.5539392156309957 0.28688101166762675 -0.06337153346965448
0.592643859784962 0.4778405658561856 -0.06337153346965448
0.2694298355947333 0.23738400332882842 -0.06337153346965448
0.3003666660249191 0.3048842882215059 -0.06337153346965448
0.21138727198502702 0.3418798213212906 -0.06337153346965448
0.26211330400323685 0.34262875762593187 -0.06337153346965448
0.21787805329191892 0.27507086224828214 -0.06337153346965448
-0.0016659031904521845 0.2604377990652892 -0.06337153346965448
0.009606548369149918 0.3652216694826133 -0.06337153346965448
0.0797185085805768 0.2281663257332424 -0.06289144609488435
0.46201208511001496 0.447172584355871 -0.06289144609488435
0.34852903146185654 0.5316775640629056 -0.06212330629525218
0.3095651401255144 0.2748500220558878 -0.06212330629525218
0.2875579348660527 0.24867565838342143 -0.06212330629525218
0.030759198101520977 0.2600249239229868 -0.06212330629525218
-0.02123426458608196 0.3527489994860858 -0.06145118397057402
0.046765311176356454 0.3066318062656691 -0.06145118397057402
0.2433802946397072 0.25594418123744095 -0.06145118397057402
0.23029311280347403 0.3591245598230329 -0.06145118397057402
0.2805294556994183 0.36440552094550405 -0.06145118397057402
0.2473170111128221 0.35045418183468474 -0.06145118397057402
0.3716884464207667 0.46914138262535116 -0.06145118397057402
0.3600991371938162 0.5094303151160589 -0.06145118397057402
0.43589533192252117 0.5353070246161677 -0.06145118397057402
0.4764339098481092 0.43085921536118266 -0.06145118397057402
0.6472970065287914 0.3007843420409692 -0.06145118397057402
0.6633703318360944 0.3370501423311033 -0.06145118397057402
0.029414953452164667 0.2281663257332424 -0.06097109659580393
2.832515511143527E-4 0.24082142893218245 -0.06020295679617175
0.47479201102639546 0.41127165047056213 -0.06020295679617175
0.22236206937227174 0.24082142893218245 -0.06020295679617175
0.22526179711588326 0.37794398491402126 -0.06020295679617175
0.5161947462265696 0.226534028659024 -0.05953083447149359
0.5406888040873408 0.49216637311932576 -0.05953083447149359
0.47702921819282423 0.33264294023071367 -0.05953083447149359
0.49468683183686885 0.3371077528160757 -0.05953083447149359
0.06455734928533666 0.24235770853144678 -0.05953083447149359
0.05002990532479323 0.27739448514216936 -0.05953083447149359
0.17660014080918482 0.260553020035234 -0.05953083447149359
0.2992528633154525 0.26314549185899255 -0.05953083447149359
0.2977357872111789 0.35815478332599726 -0.05953083447149359
0.2066344069748029 0.33198041965353087 -0.05953083447149359
0.2271533413724774 0.35195205444396743 -0.05953083447149359
0.43266914476406604 0.5152297706032817 -0.05953083447149359
0.30920027372068914 0.5504777856589034 -0.05953083447149359
0.2832755554831032 0.4431590539027928 -0.05905074709672348
-0.008521550902169474 0.2534669303836272 -0.05905074709672348
0.1939120915433951 0.3633685322160007 -0.0582826072970913
0.2856471871144675 0.241263109316971 -0.0582826072970913
0.4570479816548921 0.308417731299814 -0.0582826072970913
0.5796718989186737 0.24833959722108237 -0.05761048497241316
0.5232328271406994 0.23292879249096182 -0.05761048497241316
0.5208996024993168 0.5080380617292255 -0.05761048497241316
0.0717586599068883 0.2435963339583537 -0.05761048497241316
0.07196989835178721 0.24606398306467211 -0.05761048497241316
0.012477470870275236 0.3409196465717503 -0.05761048497241316
0.235737303633367 0.34601817449180894 -0.05761048497241316
0.20823789880653507 0.28483583945110613 -0.05761048497241316
0.3000882153475525 0.22561226089946534 -0.05761048497241316
0.35757387760252535 0.43704274074822175 -0.05761048497241316
0.4090200406828904 0.3785777002487177 -0.05761048497241316
0.36357496978715176 0.5242362097539691 -0.05761048497241316
0.08948348578340079 0.48095153204469593 -0.05761048497241316
0.0251037688267291 0.22950096863510325 -0.05636225779801087
0.24356272784211977 0.2777785550419855 -0.05636225779801087
0.18398388463314916 0.2806398757956154 -0.05636225779801087
0.4624345619998128 0.31973819159689304 -0.05636225779801087
0.5918949234803206 0.4679699694309121 -0.055690135473332715
0.6750364550430081 0.34844741660814565 -0.055690135473332715
0.5023874333281814 0.41162691512789207 -0.055690135473332715
0.058268204675848215 0.2621277066244799 -0.055690135473332715
0.0223384655480533 0.24843561469603645 -0.055690135473332715
0.12597972801342455 0.31164391845826905 -0.055690135473332715
0.2089196228787086 0.32334844865516427 -0.055690135473332715
0.19803124121892252 0.24012050136501814 -0.055690135473332715
0.3199926379055213 0.25017353099270423 -0.055690135473332715
0.35356994889694277 0.28994396911866005 -0.055690135473332715
0.3999847962897169 0.3942285486662233 -0.055690135473332715
0.37535631396401026 0.5296996040788529 -0.055690135473332715
0.509972813849549 0.48109555825712697 -0.055210048098562614
0.22867041747675093 0.28251221655721875 -0.055210048098562614
0.4545227220636013 0.34791932049589847 -0.05444190829893044
0.3056284236523995 0.2551184309528364 -0.05444190829893044
0.1960532812348698 0.33198041965353087 -0.05444190829893044
-0.046458055256503476 0.4937410597085716 -0.05444190829893044
0.550626612745082 0.48797040946383485 -0.053769785974252284
0.47361099608446083 0.3225899106030276 -0.053769785974252284
0.5014464620736317 0.3188260255848298 -0.053769785974252284
0.05871948680813209 0.454431505462395 -0.053769785974252284
0.008598364882132649 0.3585964637107858 -0.053769785974252284
0.2209026037529706 0.3527682029810767 -0.053769785974252284
0.20864117220134198 0.285143095370959 -0.053769785974252284
0.2754501312743504 0.23275596103604457 -0.053769785974252284
0.32429422078346143 0.44404241467236993 -0.053769785974252284
0.41386892316806856 0.3819959223570809 -0.053769785974252284
0.394329367014925 0.566829561643573 -0.053769785974252284
0.11405435762413497 0.4958822494000464 -0.053769785974252284
7.537371783891236E-4 0.26560353921781554 -0.05328969859948216
0.2923300033712676 0.2227029314083585 -0.05252155879984999
0.34557169323327264 0.5358543242234055 -0.05252155879984999
0.3582171946847174 0.36727644344662935 -0.05252155879984999
0.4974041263780675 0.3027430985300312 -0.05184943647517183
0.5490999348933131 0.48392807376827063 -0.05184943647517183
0.5146776701222961 0.41385452054682537 -0.05184943647517183
0.03983284948467598 0.24296261862365712 -0.05184943647517183
-2.0643757115104127E-4 0.36535609394754887 -0.05184943647517183
0.20454122602080532 0.23201662647889862 -0.05184943647517183
0.3511503085281013 0.29645395392054275 -0.05184943647517183
0.3757499856113217 0.46461895955501686 -0.05184943647517183
0.21163691741990745 0.28868614019676236 -0.05184943647517183
0.2074601572594076 0.3570121753740444 -0.05184943647517183
0.48763914917524354 0.4683444375832328 -0.05184943647517183
0.35579755431587606 0.5278080598222585 -0.05184943647517183
0.4471197747446463 0.39257704809701416 -0.05136934910040173
0.18894798808827207 0.2879948143770934 -0.050601209300769556
0.3943005617724388 0.40276450218963583 -0.050601209300769556
0.044134432362616244 0.2400820943750365 -0.0499290869760914
0.06106231319701036 0.447316610568302 -0.0499290869760914
-0.011075615735946372 0.3305209540342297 -0.0499290869760914
0.2286512139817602 0.378347258308828 -0.0499290869760914
0.19604367948737433 0.27773054630450844 -0.0499290869760914
0.2638416185524093 0.24073501320472382 -0.0499290869760914
0.38286488050541473 0.45088846063659166 -0.0499290869760914
0.6218811809084616 0.4415363585760699 -0.0499290869760914
0.6758526035801173 0.36417507900561435 -0.0499290869760914
0.5247210980024868 0.4279402841225804 -0.0499290869760914
0.5048166754445179 0.4074309514724013 -0.0499290869760914
0.44707176600716936 0.5199538303710197 -0.0499290869760914
0.31823551811386264 0.5509290677911872 -0.0499290869760914
0.3835177993351022 0.3546309419951846 -0.04868085980168911
0.25473916192676793 0.23776807322864457 -0.04868085980168911
0.18071929048471239 0.2596216505281799 -0.04868085980168911
-0.00947212390421419 0.3764941210422154 -0.04800873747701097
0.07336215173862048 0.24845481819102722 -0.04800873747701097
0.2781194170780723 0.22852159039057218 -0.04800873747701097
0.37152521671334476 0.4568031370937594 -0.04800873747701097
0.20691285765216966 0.2247385018773838 -0.04800873747701097
0.2228037497570603 0.35320028161836964 -0.04800873747701097
0.29272367501857904 0.5471843862679802 -0.04800873747701097
0.49371705533983323 0.46745147506616036 -0.04800873747701097
0.6086403711123021 0.4534809324603502 -0.04800873747701097
0.5328057693936156 0.488162444413743 -0.04800873747701097
0.5328537781310925 0.3597774786527202 -0.04800873747701097
0.2788395481402275 0.2516329966120054 -0.04752865010224085
0.4184105497333938 0.4558045553542376 -0.04676051030260867
0.2848118350823676 0.23773926798615835 -0.04676051030260867
0.30241183824143986 0.5504201751739309 -0.04608838797793052
0.4369035154095383 0.5173709602947565 -0.04608838797793052
0.5992018533243216 0.263203102343965 -0.04608838797793052
0.6673262518042001 0.38206313458954866 -0.04608838797793052
0.55165399972709 0.2956186018884427 -0.04608838797793052
0.31750578530421214 0.4284875837298183 -0.04608838797793052
0.29932007554792034 0.2715086139274878 -0.04608838797793052
0.24618400490836453 0.36926400517817753 -0.04608838797793052
0.18577941141478935 0.2683304355065097 -0.04608838797793052
0.05174861812647011 0.44361993778257214 -0.04608838797793052
0.03498396699949792 0.35228811560630646 -0.04608838797793052
0.22867041747675093 0.3040489361894058 -0.04560830060316042
0.4832319470748539 0.41786805099990354 -0.04484016080352824
0.2502167388564335 0.2444028807479675 -0.04484016080352824
0.3839114709824137 0.6309116244278873 -0.044168038478850084
0.4086263690355789 0.3905798846179704 -0.044168038478850084
0.547784495486443 0.2949848865537463 -0.044168038478850084
0.49362103786487904 0.3038665029869933 -0.044168038478850084
0.5296371927201327 0.40343662451431406 -0.044168038478850084
0.3391193189163624 0.43511278950164584 -0.044168038478850084
0.2638800255423908 0.25092246729734563 -0.044168038478850084
0.22325503188934417 0.39609128768033136 -0.044168038478850084
0.01218941844541316 0.36259079066887306 -0.044168038478850084
0.07222914553416308 0.4620744964687353 -0.044168038478850084
0.01307277921499015 0.34044916094447564 -0.044168038478850084
0.24510860918887953 0.2661124318350718 -0.04368795110407997
0.38602385543140216 0.3166944376408506 -0.042919811304447796
0.2509464716660841 0.2914034347379612 -0.042919811304447796
0.3881554433753814 0.5736275988703178 -0.04224768897976964
0.46179124491762075 0.380805305667651 -0.04224768897976964
0.5221574314212144 0.3191908919896552 -0.04224768897976964
0.5213508846316006 0.2354060433447757 -0.04224768897976964
0.5664214873750186 0.3258449030039689 -0.04224768897976964
0.30398652483068583 0.4347479230968206 -0.04224768897976964
0.23097483687564757 0.389062808513697 -0.04224768897976964
0.2580037560752047 0.24591995685224108 -0.04224768897976964
0.02745619696310268 0.24970304536542945 -0.04224768897976964
0.04123470461900471 0.23699033168151695 -0.04224768897976964
0.04182041121622432 0.4396640178144665 -0.04224768897976964
0.2064711772673811 0.3721061224368167 -0.04176760160499954
0.4214543036894362 0.34198544054373997 -0.040999461805367364
0.19381607406844104 0.2914034347379612 -0.040999461805367364
0.05836422215080229 0.246899335096772 -0.04032733948068921
-5.04091743508566E-4 0.4358233188163056 -0.04032733948068921
0.23747521993003476 0.36504883802769605 -0.04032733948068921
0.24648165908072206 0.2795164713386533 -0.04032733948068921
0.31141827739212713 0.42416679735688734 -0.04032733948068921
0.32507196233058905 0.4216415377655965 -0.04032733948068921
0.5598538920881633 0.4122126217251115 -0.04032733948068921
0.665290681335175 0.3528258134660491 -0.04032733948068921
0.5234056585956166 0.3325661262507505 -0.04032733948068921
0.44226129051197277 0.5272415567200299 -0.04032733948068921
0.23012028134855678 0.30686224820555874 -0.03984725210591909
-0.021167052353614095 0.4937410597085716 -0.03907911230628691
0.40555380983705014 0.42457007075169423 -0.03907911230628691
0.49043325769640556 0.46032697842457204 -0.038406989981608776
0.38428593913473436 0.4768803911066453 -0.038406989981608776
0.4202828904949972 0.28387566470156583 -0.038406989981608776
0.5088302058975961 0.4960838860974497 -0.038406989981608776
0.5815058326902955 0.4793864472029454 -0.038406989981608776
0.3222202433244546 0.421795165725523 -0.038406989981608776
0.20541498504288686 0.2836260192666854 -0.038406989981608776
0.20206397516699146 0.3345632897297941 -0.038406989981608776
0.04628522380158637 0.2391219196254962 -0.038406989981608776
0.0562230324593276 0.446980549405963 -0.038406989981608776
0.24852683129724265 0.2610139039150132 -0.03792690260683866
0.4088088022379916 0.35311386589091115 -0.03715876280720648
0.29432716685031124 0.5571702036631984 -0.036486640482528324
0.4095481367951376 0.3707234707974787 -0.036486640482528324
0.4924016159329631 0.4246564864791529 -0.036486640482528324
0.5572230132744234 0.25825820238383285 -0.036486640482528324
0.5661046297076703 0.3624275609614513 -0.036486640482528324
0.2950280944174755 0.42865081343724015 -0.036486640482528324
0.18661476344688938 0.28275226024460387 -0.036486640482528324
0.022904968650282007 0.3726630237915499 -0.036486640482528324
0.005026514813843034 0.27689519427240855 -0.036486640482528324
0.2940871231629261 0.23177658279151364 -0.03600655310775823
0.35950382884910126 0.4214687063106794 -0.03523841330812605
0.6658091756999268 0.36863989159097643 -0.03456629098344789
0.5685242700765117 0.23931395457540433 -0.03456629098344789
0.4379597076340325 0.5215189152127702 -0.03456629098344789
0.3913816305338365 0.42983182837917466 -0.03456629098344789
0.37396406057717696 0.43361491689236303 -0.03456629098344789
0.31354986533610635 0.310328479051399 -0.03456629098344789
0.28312192752317683 0.23609736916444451 -0.03456629098344789
0.22433042760882918 0.3754475305652166 -0.03456629098344789
0.06025576640739654 0.25837342335377766 -0.03456629098344789
0.00229961852514889 0.3798835379080925 -0.03456629098344789
0.2570531830731599 0.23421542665534573 -0.0333180638090456
0.5502905515827429 0.39257704809701416 -0.0333180638090456
0.6637159947459289 0.33844239571793655 -0.03264594148436745
0.3751162702766253 0.5262621784754988 -0.03264594148436745
0.3863599165937412 0.41652380635054725 -0.03264594148436745
0.48581481715111713 0.4326643438903183 -0.03264594148436745
0.38067568207646313 0.4352664174615723 -0.03264594148436745
0.22168994704759365 0.36802537975127075 -0.03264594148436745
0.1822747735789676 0.2588535107285478 -0.03264594148436745
0.04354872576539664 0.3662682599596121 -0.03264594148436745
-2.928532986096643E-4 0.4431590539027928 -0.03139771430996517
0.5434253021235304 0.34198544054373997 -0.03139771430996517
0.49446599164447463 0.23367772879560322 -0.03072559198528701
0.43270755175404757 0.5281153157421116 -0.03072559198528701
0.4298366292529224 0.3662394547171259 -0.03072559198528701
0.4361449773574016 0.2931701562771152 -0.03072559198528701
0.5222150419061868 0.43839658714507335 -0.03072559198528701
0.2627758245804196 0.25026954846765814 -0.03072559198528701
0.21509354651825222 0.3466134828365238 -0.03072559198528701
0.001934752120323638 0.35426607559035933 -0.03072559198528701
0.24440768162171522 0.24082142893218245 -0.030245504610516897
0.5341884210329535 0.3806996864452016 -0.02947736481088472
0.003749482396954585 0.3623315434864972 -0.02880524248620658
0.608736388587256 0.44799833464047556 -0.02880524248620658
0.6745659694157333 0.3600847345725732 -0.02880524248620658
0.3743673339719839 0.41249107240247834 -0.02880524248620658
0.4286076055735109 0.28771636369972675 -0.02880524248620658
0.5242890193651938 0.3402475242470722 -0.02880524248620658
0.2880764292308043 0.43074399439123784 -0.02880524248620658
0.49947810383707447 0.46968868223258914 -0.02880524248620658
0.5345436856902832 0.43871344481242164 -0.027557015311804288
0.0582586029283529 0.4581473817431157 -0.02688489298712613
0.4738894467618277 0.4293325375094137 -0.02688489298712613
0.46926140446904385 0.29272847589232676 -0.02688489298712613
0.37690219531077 0.4429670189528848 -0.02688489298712613
0.2914562443491859 0.22852159039057218 -0.02688489298712613
0.40045528191699165 0.48480183279035216 -0.02688489298712613
0.5550434165929671 0.24487336637524215 -0.02688489298712613
0.5036356605025836 0.48543554812504874 -0.02688489298712613
0.5278512676859878 0.41665823081548287 -0.025636665812723856
0.01922749935954287 0.36865909508596734 -0.0249645434880457
0.06677535295677466 0.26347195127383616 -0.0249645434880457
0.5171741244711007 0.39376766478644404 -0.0249645434880457
0.42759942208649365 0.29337179297451865 -0.0249645434880457
0.42747459936905335 0.28571920022068314 -0.0249645434880457
0.5155226239018915 0.34621981118921236 -0.0249645434880457
0.21885743153645 0.3668347630618408 -0.0249645434880457
0.5201698696896663 0.4238115326995575 -0.0249645434880457
0.5397382310852957 0.23527161887983997 -0.0249645434880457
0.5265550317741086 0.4431590539027928 -0.024484456113275585
0.5352638167524385 0.4052225495484588 -0.023716316313643408
0.038949488715099 0.34013230327712735 -0.02304419398896525
0.3803780279041056 0.42845877848733216 -0.02304419398896525
0.47808541041731833 0.300112219716291 -0.02304419398896525
0.39707546679861006 0.44193963197087677 -0.02304419398896525
0.5079372433805238 0.32133208168112987 -0.02304419398896525
0.26435051116966557 0.2375376312887549 -0.02304419398896525
0.4333892758262211 0.523612096166768 -0.02304419398896525
0.5037796867150147 0.4925696465141325 -0.02304419398896525
0.6276326276582076 0.30088996126341855 -0.02304419398896525
0.5249611416898718 0.29292051084223475 -0.021795966814562976
0.5561188123124521 0.24633283199454328 -0.02112384448988482
0.550914665169944 0.4887001422734855 -0.02112384448988482
0.5143896176974341 0.38342658273389585 -0.02112384448988482
0.5399974782676717 0.3326525419782091 -0.02112384448988482
0.38535173310672394 0.403484633251791 -0.02112384448988482
0.5255948570245684 0.3309434309240274 -0.02112384448988482
0.2928869047260008 0.4376188455979458 -0.02112384448988482
0.011258048938359067 0.36140017397944324 -0.02112384448988482
0.5352638167524385 0.4431590539027928 -0.0206437571151147
0.05157578667155286 0.41786805099990354 -0.019875617315482527
0.5012256218812375 0.23789289594608484 -0.019203494990804388
0.2823345842285538 0.4320882390405942 -0.019203494990804388
0.42272173435882937 0.35751146624380536 -0.019203494990804388
0.5195649595974557 0.4017851239451048 -0.019203494990804388
0.45873788921408304 0.29280528987228993 -0.019203494990804388
0.5009087642138894 0.3117015289432415 -0.019203494990804388
0.021771962445824456 0.3506078097946111 -0.019203494990804388
0.05188304259140583 0.35203847017142603 -0.019203494990804388
0.5467187015144531 0.4431590539027928 -0.017955267816402096
0.032295477700785294 0.37762712724667297 -0.01728314549172394
0.02935734296719225 0.4358137170688103 -0.01728314549172394
0.3972194930110411 0.4859156354998188 -0.01728314549172394
0.5236745075254882 0.3640502562881742 -0.01728314549172394
0.4696166691263735 0.43406619902464705 -0.01728314549172394
0.5266798544915489 0.35093426920945486 -0.01728314549172394
0.5045382247671513 0.49093734943991424 -0.01728314549172394
0.3844395670946607 0.4201820721462955 -0.01728314549172394
0.5679193599843012 0.2554544921151754 -0.01728314549172394
0.4434903141913843 0.42044131932867124 -0.016034918317321664
0.6395675997949926 0.4071044920575576 -0.015362795992643506
0.6115497006034089 0.2726416201319454 -0.015362795992643506
0.4353768375577694 0.5329834017222805 -0.015362795992643506
0.5144376264349111 0.4234562680422276 -0.015362795992643506
0.5191136774651719 0.31464926542432997 -0.015362795992643506
0.5355134621873188 0.31123104331596674 -0.015362795992643506
0.47844067507464827 0.34557649410702035 -0.015362795992643506
0.025046158341756684 0.3424559261710146 -0.015362795992643506
0.021819971183301562 0.37675336822459127 -0.015362795992643506
-0.004181561034247563 0.3695424558555443 -0.014114568818241214
0.5045478265146468 0.3723269626292109 -0.014114568818241214
0.03884386949264961 0.43853101161000896 -0.013442446493563057
0.3341648172087349 0.4274025862628379 -0.013442446493563057
0.532508115221258 0.36046880447238916 -0.013442446493563057
0.5240009669403317 0.3274195895932149 -0.013442446493563057
0.4963575359010686 0.3249327369919057 -0.013442446493563057
0.5113266602464008 0.33090502393404586 -0.013442446493563057
0.3525521636624301 0.5259453208081507 -0.013442446493563057
0.6218235704234891 0.29377506636932554 -0.013442446493563057
0.5566085014347174 0.2648065941756972 -0.013442446493563057
0.4421556712895234 0.3166944376408506 -0.012194219319160782
-0.03076879984901629 0.4558045553542376 -0.012194219319160782
0.008675178862095961 0.3029927439649116 -0.011522096994482625
0.4540042276988498 0.30228221465025185 -0.011522096994482625
0.5187968197978237 0.36193787183918574 -0.011522096994482625
0.5351389940349982 0.34037234696451235 -0.011522096994482625
0.33972422900857274 0.4399904772293101 -0.011522096994482625
0.32634899474747747 0.4280363015975345 -0.011522096994482625
0.4044400071275835 0.4903708463376854 -0.011522096994482625
0.5673528568820725 0.4617672405488823 -0.011522096994482625
0.6530196480360508 0.39768517776456813 -0.011522096994482625
0.4987099640374422 0.43046554371387125 -0.01027386982008035
0.5491575453782855 0.3092338798369231 -0.01027386982008035
0.06521026811502399 0.35692575964658574 -0.009601747495402194
0.5082733045428629 0.40255326374473693 -0.009601747495402194
0.5201314626996847 0.3212936746911482 -0.009601747495402194
0.5277264449685478 0.42760422296024136 -0.009601747495402194
0.47384143802435047 0.28768755845724053 -0.009601747495402194
0.32682908212224754 0.39716668339981637 -0.009601747495402194
0.5362720002394556 0.3103572842938852 -0.009601747495402194
0.5622735324570047 0.32994484918450556 -0.009601747495402194
-0.039439177837364524 0.4558045553542376 -0.009121660120632077
0.3582171946847174 0.3546309419951846 -0.008353520320999917
0.022280855063080883 0.3559463814020547 -0.007681397996321762
0.05867147807065512 0.3658649865648052 -0.007681397996321762
0.346627885457767 0.2938614820967842 -0.007681397996321762
0.4898571528466814 0.3476024628285502 -0.007681397996321762
0.4404657637303326 0.5212116592929175 -0.007681397996321762
0.5101648487994571 0.3478713117584215 -0.007681397996321762
0.5113170584989054 0.312431261752892 -0.007681397996321762
0.5230407921907916 0.4098313883462519 -0.007681397996321762
0.5559747861000208 0.25646267560219266 -0.007681397996321762
-0.039439177837364524 0.4431590539027928 -0.007201310621551645
0.4022700121936226 0.4071813060375208 -0.006433170821919452
-0.049501809212545905 0.452760801398195 -0.006433170821919452
0.04754305272348406 0.25798935345396157 -0.005761048497241295
0.47087449804827125 0.4082759052519967 -0.005761048497241295
0.35183203260027485 0.4448201562194974 -0.005761048497241295
0.562542381386876 0.2593431998508133 -0.005761048497241295
0.6346034963398697 0.42214082863535746 -0.005761048497241295
0.5118835616011341 0.39064709685043825 -0.005761048497241295
0.5174045664109903 0.3309722361665136 -0.005761048497241295
0.5046150387471147 0.35632084955437543 -0.005761048497241295
0.42726336092415457 0.4052225495484588 -0.0052809611224712135
0.003567049194541891 0.4052225495484588 -0.0045128213228390205
0.5536223579636476 0.36727644344662935 -0.0045128213228390205
0.5444526891055383 0.33242210003831946 -0.003840698998160864
0.5375394309088488 0.3907623178203831 -0.003840698998160864
0.49417793921961256 0.3233964573926413 -0.003840698998160864
0.5611501280000428 0.4701975748498454 -0.003840698998160864
0.6246080771971557 0.4331540330125839 -0.003840698998160864
0.46934782019650234 0.2968284220728634 -0.003840698998160864
0.03921833764497031 0.3502333416422904 -0.003840698998160864
0.05590617479197932 0.26678455415974994 -0.003840698998160864
0.4222992574690317 0.3166944376408506 -0.0033606116233907473
-0.033812553805058716 0.4405185733415573 -0.002592471823758588
0.5538720033985278 0.36727644344662935 -0.002592471823758588
0.01881462421724065 0.43321164349755625 -0.001920349499080432
0.35855325584705644 0.5419802391254722 -0.001920349499080432
0.3347025150684774 0.30176372028550014 -0.001920349499080432
0.45932359581130233 0.2997857603014474 -0.001920349499080432
0.6626598025214349 0.3592397807929777 -0.001920349499080432
0.4927472788427976 0.3355522697218205 -0.001920349499080432
0.5172893454410454 0.41012904251860927 -0.001920349499080432
0.5154554116694237 0.34343530441554565 -0.001920349499080432
0.3925050349907986 0.39337399313913257 -0.0014402621243103154
0.3487978803917279 0.30717910587290703 -6.721223246781563E-4
-0.017912059952672765 0.4558045553542376 -6.721223246781563E-4
0.04528664206206455 0.34271517335339047 0.0
0.35876449429195534 0.5549906069817424 0.0
0.3461958068204739 0.43318283825507004 0.0
0.5532670933063176 0.25190184554187656 0.0
0.5418602172817797 0.23966921923273415 0.0
0.5230215886958006 0.3665659141319696 0.0
0.5100112208395308 0.3786065054912039 0.0
-0.0344750743822415 0.4566591108813284 4.800873747701165E-4
0.016769452000719907 0.4537209761477353 0.0012482271744022756
0.5231176061707545 0.4431590539027928 0.0012482271744022756
0.3397626359985544 0.4317521778782551 0.001920349499080432
0.45203586946229224 0.4320402303031172 0.001920349499080432
0.5186527935853925 0.32103442750877237 0.001920349499080432
0.5298196259225454 0.42586630666357356 0.001920349499080432
0.6267492668886305 0.41607252421826324 0.001920349499080432
0.6490445245729545 0.3964465523376612 0.001920349499080432
0.028627610157541748 0.2810143439479361 0.001920349499080432
0.03522401068688303 0.4303599244914217 0.001920349499080432
-0.005266558501228007 0.4558045553542376 0.0031685766734827416
0.5184319533929983 0.4379164997703033 0.0031685766734827416
0.3431136458744498 0.2939574995717382 0.003840698998160898
0.4508452527728624 0.42696090587804936 0.003840698998160898
0.508110074835441 0.41534279140861274 0.003840698998160898
0.5193249159100709 0.43153133768586077 0.003840698998160898
0.6262787812613557 0.41565004732846556 0.003840698998160898
0.6322510682034961 0.42024928437876324 0.003840698998160898
0.028963671319880792 0.44799833464047556 0.003840698998160898
-0.032804370318041585 0.4685844812706179 0.003840698998160898
0.01145008388826721 0.4501491260794457 0.0050889261725631735
0.5068042371760664 0.4305135524513482 0.0050889261725631735
0.4176328081862662 0.4364378306560114 0.00576104849724133
0.3954143644819054 0.40120901909538065 0.00576104849724133
0.5412745106845603 0.3893316574435682 0.00576104849724133
0.48594924161605285 0.3358403221466826 0.00576104849724133
0.6461736020718292 0.3295703810321849 0.00576104849724133
-0.027340975993157712 0.4580129572781801 0.00576104849724133
0.026246376778681958 0.3592493825404731 0.00576104849724133
0.5116627214087399 0.4431590539027928 0.006241135872011447
0.5003134558691744 0.3724709888416419 0.007009275671643606
0.4063507548791686 0.2919123273552175 0.007681397996321762
0.3290278822986947 0.3838298561287028 0.007681397996321762
0.5292147158303352 0.3460469797342951 0.007681397996321762
0.5136598848877836 0.4195483568115989 0.007681397996321762
0.5607180493627495 0.2603417815903351 0.007681397996321762
0.5004766855765962 0.4947972519330658 0.007681397996321762
0.021992802638218806 0.4334900941749229 0.007681397996321762
-0.06922379856810203 0.4431590539027928 0.008161485371091879
-0.021167052353614095 0.48109555825712697 0.008929625170724037
-0.020706168473834774 0.43492075455173784 0.009601747495402194
0.0504523822145909 0.3425231384034825 0.009601747495402194
0.3432000616019083 0.2768183802924452 0.009601747495402194
0.5012256218812375 0.4094473184464357 0.009601747495402194
0.5219365912288202 0.3742473121282913 0.009601747495402194
0.5267278632290259 0.24744663470400993 0.009601747495402194
0.5091950723024216 0.2521514909767571 0.009601747495402194
0.4973273123981045 0.4305135524513482 0.01008183487017231
0.3871376581408688 0.4168694692603816 0.010849974669804469
-0.002770104152423524 0.4327411578702815 0.011522096994482625
0.01206459572797288 0.42862200819475393 0.011522096994482625
0.3236317002062786 0.4555741134143479 0.011522096994482625
0.4349639624154671 0.5333578698746011 0.011522096994482625
0.523866542475396 0.4228321544550265 0.011522096994482625
0.5116435179137491 0.24486376462774684 0.011522096994482625
0.5583560194788808 0.2707500758753511 0.011522096994482625
0.4001000172596617 0.4235426837696862 0.012002184369252742
0.38876035346759175 0.41175173784533237 0.012770324168884935
0.041676385003793275 0.347333613898679 0.013442446493563092
0.530405332519765 0.43608256599868145 0.013442446493563092
0.5080524643504687 0.3900133815157417 0.013442446493563092
0.38618708513882394 0.4009209666705187 0.013442446493563092
0.4209454110721799 0.4304943489563574 0.013442446493563092
0.582974900057092 0.2678503481317396 0.013442446493563092
-0.04440328129248742 0.4305135524513482 0.013922533868333174
-0.039439177837364524 0.42958218294429423 0.014690673667965367
0.043587132755378295 0.36268680814382714 0.015362795992643523
0.43398458417093616 0.5327721632773814 0.015362795992643523
0.34954681669636917 0.28314593189191534 0.015362795992643523
0.5121716140259962 0.48109555825712697 0.015362795992643523
0.5782124332993723 0.2784218721241774 0.015362795992643523
0.5451920236626843 0.39153045762001526 0.015362795992643523
0.5310006408644797 0.43020629653149534 0.015362795992643523
-0.06425969511297913 0.4052225495484588 0.0166110231670458
0.3582171946847174 0.40673962565273236 0.0166110231670458
-0.02174315720333825 0.4231682156173655 0.017283145491723956
0.38835708007278485 0.29176830114278646 0.017283145491723956
0.33860082455161067 0.3023686303777105 0.017283145491723956
0.514744882354764 0.42162233427060575 0.017283145491723956
0.5086477726951835 0.4033790140293417 0.017283145491723956
0.60584626259114 0.43119527652352174 0.017283145491723956
0.6478058991460477 0.3326621437257044 0.017283145491723956
0.3856301837840907 0.4052225495484588 0.01776323286649407
-0.07313170979873083 0.4533657114904054 0.01853137266612623
0.006687617130547632 0.4474894420232193 0.019203494990804388
0.40121381996912836 0.30049628961610714 0.019203494990804388
0.33927294687628884 0.4454730750491849 0.019203494990804388
0.5171933279660915 0.39920225386884167 0.019203494990804388
0.5555043004727463 0.3646551663803846 0.019203494990804388
0.6091396619820628 0.29619470673816684 0.019203494990804388
0.5425131361114671 0.24728340499658813 0.019203494990804388
0.3726486211703069 0.3166944376408506 0.019683582365574503
-0.05929559165785624 0.4072965270074656 0.020451722165206663
-0.03238189342824392 0.41982680748896556 0.02112384448988482
0.3488362873817094 0.5595130300520765 0.02112384448988482
0.3564504731455634 0.28429814159136363 0.02112384448988482
0.5295219717501879 0.3633493287210098 0.02112384448988482
0.5475444517990579 0.3653176869575672 0.02112384448988482
0.5149273155571767 0.4757857918921696 0.02112384448988482
0.5220518121987651 0.40863116990932663 0.02112384448988482
0.3825768280805528 0.3166944376408506 0.021603931864654934
0.03163295712360252 0.3543812965603042 0.02237207166428713
0.5566853154146807 0.34198544054373997 0.02237207166428713
0.3956352046742998 0.39353722284655435 0.023044193988965286
0.42692729976181554 0.4304175349763941 0.023044193988965286
0.558980133066082 0.37867371772367175 0.023044193988965286
0.5445295030855016 0.37411288766335576 0.023044193988965286
0.5172701419460548 0.4792136157480281 0.023044193988965286
0.6428513974384199 0.3927306760569405 0.023044193988965286
-0.06811959760613083 0.40970656562881164 0.02352428136373537
0.018795420722249892 0.4305135524513482 0.02429242116336756
0.4973273123981045 0.385961444072682 0.02429242116336756
0.3504301774659461 0.5541936619396237 0.024964543488045717
0.4206189516573362 0.29621391023315774 0.024964543488045717
0.5263341915817144 0.3650872450176777 0.024964543488045717
0.5143992194449295 0.47543052723483964 0.024964543488045717
0.5488598912059279 0.42309140163740233 0.024964543488045717
0.5653364899080382 0.37864491248118554 0.024964543488045717
-0.021167052353614095 0.37687819094203157 0.026212770662447992
0.5226183153009938 0.3040489361894058 0.026212770662447992
0.5553506725128198 0.42814192081998387 0.02688489298712615
0.5593738047133934 0.4150355354887599 0.02688489298712615
0.5535647474786751 0.3669883910217673 0.02688489298712615
0.5650676409781668 0.4019003449150496 0.02688489298712615
0.35853405235206565 0.28762034622477267 0.02688489298712615
0.34954681669636917 0.5552978629015951 0.02688489298712615
-0.019573162269377362 0.39257704809701416 0.027364980361896267
0.5017345144984938 0.40225560957237955 0.028133120161528424
0.5240201704353223 0.4024380427747921 0.02880524248620658
0.6420832576387879 0.38214955031700726 0.02880524248620658
0.5994611005066973 0.4407394135339515 0.02880524248620658
