0.4590425316904308 -0.2992895655694015 -0.08425626770814847
0.37369709759483544 -0.32331287702082245 -0.08425626770814847
0.5518477280245766 -0.2662241180712526 -0.0822012367884375
0.07862548298814048 0.13875055012158327 -0.0822012367884375
0.46365607610518184 0.2393751391052294 -0.0822012367884375
0.1581243541171582 0.2216504974227226 -0.08014620586872662
0.553481477605747 -0.2707862867130108 -0.08014620586872662
0.39891232697968876 -0.32506992845717525 -0.08014620586872662
0.4774556087310407 -0.30576291296649105 -0.07809117494901564
0.12720641393010715 0.20477869357189585 -0.07809117494901564
0.5032770722372086 -0.2847604969670453 -0.07809117494901564
0.2696714324390678 0.24618756660407126 -0.07809117494901564
0.5893623174638999 -0.2353472785025957 -0.07603614402930475
0.06923399168506149 0.06338229114118468 -0.07603614402930475
0.46576248279788557 0.2414815457979332 -0.07603614402930475
0.12692898475594616 -0.17144609205418415 -0.07398111310959378
0.681910634933082 0.04796955924335265 -0.07398111310959378
0.14213621356180697 0.20046312864050272 -0.07398111310959378
0.07786512154784746 0.07171544152061261 -0.07192608218988282
0.6448687026052924 -0.13493846776551938 -0.07192608218988282
0.6267947056664346 0.18543057746281727 -0.07192608218988282
0.6698681537435759 0.09898570182517671 -0.06987105127017193
0.35477026282429774 -0.3379241468599672 -0.06987105127017193
0.12331213033725487 0.18189592428091453 -0.06987105127017193
0.6366383037718499 -0.12617376089295212 -0.06987105127017193
0.4910599134195272 -0.308763258109269 -0.06781602035046096
0.06954224632301814 0.042986109263053636 -0.06781602035046096
0.14646205364779857 0.2024667837872211 -0.06781602035046096
0.2853410432018638 -0.32166885228505376 -0.06576098943075007
0.4302515485052805 0.25585648708131126 -0.06576098943075007
0.22921814878455807 0.2319256520212773 -0.06576098943075007
0.15439447299788286 -0.22924383667105427 -0.06370595851103909
0.6317576053375366 0.19061953053508734 -0.06370595851103909
0.26468798245876884 0.23645699519923993 -0.06370595851103909
0.6389091129381306 -0.13398287838785375 -0.06165092759132813
0.19923524766597542 -0.27991062399652744 -0.06165092759132813
0.09191125788407176 0.12293708719440773 -0.06165092759132813
0.6244622455725626 0.18277958757639007 -0.059595896671617236
0.32963723467623296 -0.33470802347061956 -0.059595896671617236
0.5195118165029251 0.21830079702359384 -0.059595896671617236
0.4585082236513059 -0.32003510270388347 -0.05754086575190627
0.17331103261382197 0.2153723779630058 -0.05754086575190627
0.3299660396233867 -0.3391160647933995 -0.05754086575190627
0.25749537423978053 -0.3028961448334942 -0.05754086575190627
0.08584891667092447 0.12101563328447802 -0.05548583483219537
0.3450088659556709 -0.3422910875643529 -0.05548583483219537
0.20077652085575867 0.21633824249526987 -0.05548583483219537
0.5524128615274971 0.21593751146592607 -0.053430803912484406
0.1795069508367504 -0.2615489227289103 -0.053430803912484406
0.25799885681510976 -0.30261871565933335 -0.053430803912484406
0.41285571176992747 0.23178179985689742 -0.053430803912484406
0.4195140119497908 -0.3367733295449291 -0.05137577299277344
0.6787047866983328 0.04945945666014304 -0.05137577299277344
0.13946467336618287 0.17937851140426858 -0.05137577299277344
0.1713690283946952 -0.2508216613280191 -0.04932074207306255
0.4456334549393169 -0.3272277109228718 -0.04932074207306255
0.6784581829879675 0.04927450387736905 -0.04932074207306255
0.5950547531114991 0.1885747747699751 -0.04932074207306255
0.26343441359774517 -0.30846527862591083 -0.04726571115335158
0.6751187577434373 -0.007495725279645515 -0.04726571115335158
0.47002667195628567 0.2224416843268113 -0.04726571115335158
0.5162648676497817 -0.29129549529172605 -0.045210680233640686
0.3576986818848859 0.23772083921486206 -0.045210680233640686
0.26236579751949546 -0.31748686436344187 -0.045210680233640686
0.49829362225690965 0.2156087065187725 -0.045210680233640686
0.6519996598966893 0.12800273841149512 -0.04315564931392972
0.07334405352448342 0.023802395627551987 -0.04315564931392972
0.37337856780228035 -0.33767754314960186 -0.04315564931392972
0.25921132505773914 0.22031472732491053 -0.04315564931392972
0.5693257659967184 0.20457319047992464 -0.04110061839421875
0.10128219887795356 -0.14222355237589468 -0.04110061839421875
0.25607740290518005 0.21391330601001077 -0.04110061839421875
0.5587731822240025 -0.26331624931986164 -0.04110061839421875
0.3059221778627688 -0.33135832307149077 -0.039045587474507856
0.596924831248436 -0.24873580494451258 -0.039045587474507856
0.10180623176247987 0.1234816703881311 -0.039045587474507856
0.5150935000255464 -0.29285731879070637 -0.03699055655479689
0.403659448404221 0.2295418161544126 -0.03699055655479689
0.21076397112555376 -0.286774427268362 -0.03699055655479689
0.6041174394674245 0.1757513818309787 -0.03699055655479689
0.669313295395254 0.0417119900928329 -0.034935525635086
0.11420834336293545 -0.17577193214017559 -0.034935525635086
0.6533765306128955 0.10368144747671613 -0.034935525635086
0.08799642398202243 -0.02334001367061686 -0.034935525635086
0.37412865408797474 -0.34445914518464793 -0.03288049471537503
0.6780163513402299 0.02435725397587396 -0.03288049471537503
0.17411249467250928 0.18311866767814253 -0.03288049471537503
0.6024631395770571 0.17444643719696243 -0.030825463795664063
0.14705801261451482 -0.2373817591131096 -0.030825463795664063
0.496855100613112 -0.3184938295141002 -0.030825463795664063
0.26067039701073386 0.20639189284386875 -0.030825463795664063
0.4403725757848569 -0.3344511446056558 -0.02877043287595317
0.5855296847986391 0.18715680343537452 -0.02877043287595317
0.08675313027559736 0.05482308736058865 -0.02877043287595317
0.3679019104012507 0.21685200022519743 -0.02877043287595317
0.5954349338316458 -0.24143017002494005 -0.026715401956242203
0.18663790812814737 0.19784296421787131 -0.026715401956242203
0.10474492597766652 -0.11702887330023845 -0.026715401956242203
0.653458731849684 0.0986466217234244 -0.026715401956242203
0.09265106901516773 -0.09755745533597736 -0.02466037103653131
0.45698750077071987 -0.33943459458595476 -0.02466037103653131
0.12194553477564714 0.13973696496304455 -0.02466037103653131
0.12805925176178717 -0.20515887429204213 -0.022605340116820343
0.4477501367866192 -0.3390852393296039 -0.022605340116820343
0.676536729078038 0.0016183368492724978 -0.022605340116820343
0.6182971528134299 0.15070055491970247 -0.022605340116820343
0.5422301833203296 -0.28530508016076866 -0.020550309197109377
0.6588737383231225 0.10939443343351267 -0.020550309197109377
0.09606242034188782 -0.07968896148909071 -0.020550309197109377
0.1462360002466303 0.14922093265751055 -0.020550309197109377
0.6687070612739392 -0.03429332847267619 -0.018495278277398483
0.09548701168436878 0.11549787526505409 -0.018495278277398483
0.5182685227964998 0.19427748557217275 -0.018495278277398483
0.6598190525461893 -0.06811913741111823 -0.016440247357687517
0.0975625929132768 0.10700032241204938 -0.016440247357687517
0.1284394324819336 0.1355960776598271 -0.016440247357687517
0.1466264561213755 -0.2315146458373349 -0.016440247357687517
0.09280519633414605 -0.10275668356284604 -0.014385216437976621
0.5516422249326056 -0.291942830031435 -0.014385216437976621
0.17855136145908493 0.17246333235944125 -0.014385216437976621
0.6376452689225085 0.12153966616900419 -0.012330185518265655
0.08377333544201643 -0.07927795530514861 -0.012330185518265655
0.663682510675246 0.03558799795209427 -0.012330185518265655
0.34204962143128703 0.20317576945452126 -0.010275154598554688
0.23615387813858243 -0.3111470939761337 -0.010275154598554688
0.6503042593879278 -0.15571483036379685 -0.010275154598554688
0.1245040482706872 0.13050987613354248 -0.010275154598554688
0.42801156480279556 0.19994937091057516 -0.008220123678843795
0.16963252726753936 -0.26898813465826377 -0.008220123678843795
0.42221637760921077 -0.3375336909852221 -0.008220123678843795
0.08848963140275307 -0.058090586522928866 -0.006165092759132827
0.5613316957190426 -0.2808559382195944 -0.006165092759132827
0.5440283353750766 0.16588723341636638 -0.006165092759132827
0.6561302720453082 -0.07376019728572468 -0.006165092759132827
0.09295932365312438 -0.10748325467818128 -0.004110061839421934
0.49358760145077163 -0.3268680805119224 -0.004110061839421934
0.2604237933003686 0.18293371489536853 -0.004110061839421934
0.3401487178305544 -0.3425787918931125 -0.002055030919710967
0.666723956436418 0.04178391617502269 -0.002055030919710967
0.4243741600749072 -0.3326735428601058 -0.002055030919710967
0.6053093574008567 -0.2329223420173369 -0.002055030919710967
0.24431235088983483 -0.3149283508684018 0.0
0.6651621329374379 -0.08931678134793658 0.0
0.18840523471909876 0.1634520217765087 0.0
0.6587298861587426 -0.0794629080879226 0.002055030919710894
0.10154935289751608 0.09561545111685074 0.002055030919710894
0.45054497883742595 0.1766350451264545 0.002055030919710894
0.23401664598208308 0.1751965234826567 0.002055030919710894
0.5307939362521382 0.17748788295813453 0.004110061839421861
0.1238978141493725 -0.22523652637761793 0.004110061839421861
0.491686697850039 0.1784229220266031 0.004110061839421861
0.6041893655496144 -0.24542720516377795 0.0061650927591327545
0.39008596917953015 0.19165732114954137 0.0061650927591327545
0.12453487373448287 -0.22696275235017518 0.0061650927591327545
0.6270207590676027 0.11174744383658168 0.0061650927591327545
0.5155250565186857 -0.3073041861562742 0.008220123678843722
0.5965138250644939 0.14942643574948175 0.008220123678843722
0.31872502049256796 0.17138444112659312 0.008220123678843722
0.6453002590984315 0.07596935552441426 0.008220123678843722
0.08395828822479043 -0.05070275036656796 0.010275154598554688
0.40936215920641883 -0.34968919887531225 0.010275154598554688
0.5310919157354963 0.1592392083911013 0.010275154598554688
0.4247954414134479 -0.3294882449345538 0.012330185518265582
0.5886944324149939 0.15025872327196454 0.012330185518265582
0.11730116489710044 -0.1839098545822309 0.012330185518265582
0.5016638729652356 0.17044940205812456 0.014385216437976548
0.17758549692682069 -0.27729045957389603 0.014385216437976548
0.6650080056184594 -0.09267675690166395 0.014385216437976548
0.6312849482260031 0.09567710204444208 0.014385216437976548
0.6600759314111533 0.04803121017094398 0.016440247357687444
0.1415402545950909 -0.26082966190701135 0.016440247357687444
0.6245238965001539 -0.21632796734067097 0.016440247357687444
0.15411704382372188 -0.2609426886075954 0.01849527827739841
0.665460112420796 -0.05194604407299318 0.01849527827739841
0.6245444468093512 -0.22057160618987418 0.01849527827739841
0.646050345384126 0.06173826640541597 0.01849527827739841
0.5044073392430497 -0.31655182529497344 0.020550309197109377
0.2978150808845092 0.17853594872718714 0.020550309197109377
0.0931134509721027 0.018027758743164275 0.020550309197109377
0.5327153901620678 -0.2982003991819548 0.02260534011682027
0.22485120808017234 0.16119148776482667 0.02260534011682027
0.5947259481643453 -0.2609015879892013 0.02260534011682027
0.5077262141783829 0.157451331490953 0.02260534011682027
0.08912669098786344 0.027819981075586923 0.024660371036531237
0.4213327143137351 -0.34499345322377284 0.024660371036531237
0.15738454298606225 0.11714190000082281 0.024660371036531237
0.5070275036656811 -0.3106847120191987 0.02671540195624213
0.2825051005326626 0.1676751103165147 0.02671540195624213
0.22000133510965444 -0.30744803832065404 0.02671540195624213
0.5263961700839569 0.14381620133867068 0.02671540195624213
0.6564385266832647 -0.0922760258723203 0.028770432875953097
0.08173885483150267 -0.004135749725918151 0.028770432875953097
0.18813808069953636 0.12906107933514635 0.028770432875953097
0.37354297027585714 -0.3387769846916472 0.028770432875953097
0.29281108059501293 -0.3329920726526609 0.030825463795664063
0.6529963498927491 0.05961130940351507 0.030825463795664063
0.10328585402467179 0.043150511736630565 0.030825463795664063
0.09060631325005536 -0.00827663702913575 0.03288049471537496
0.5251528763775316 -0.3064205228607985 0.03288049471537496
0.21878886686702503 0.13144491520201104 0.03288049471537496
0.1900287091456704 0.13034547365996568 0.03288049471537496
0.6641346174775825 -0.03004968962347313 0.03493552563508592
0.1002752337272952 -0.17552532842981042 0.03493552563508592
0.12390808930397111 0.0724141520333143 0.03493552563508592
0.6272365373141725 -0.24538610454538368 0.03699055655479682
0.09480885148086415 -0.11416210516724173 0.03699055655479682
0.5665000984821157 0.11141863888942782 0.03699055655479682
0.35771923219408297 0.1513478896594113 0.03699055655479682
0.5913762477652166 0.11584723052140501 0.03904558747450779
0.14635930210181297 -0.27911943709243875 0.03904558747450779
0.1270420114565302 0.07186956883959093 0.03904558747450779
0.0953945352929818 0.008677368058479544 0.04110061839421875
0.6335763077014807 -0.24598206351209992 0.04110061839421875
0.6375836179949171 0.03786908227297335 0.04110061839421875
0.6356416137757901 0.050764401294159586 0.04110061839421875
0.14235199180837665 -0.27481414731564435 0.043155649313929643
0.6088748360465552 0.0768632939744884 0.043155649313929643
0.3766666172738178 0.14504921989049727 0.043155649313929643
0.5127199393132804 0.13888412713136453 0.04521068023364062
0.38136236292535736 -0.3476958188831928 0.04521068023364062
0.6412210227228053 0.036081205372824915 0.04521068023364062
0.09567196446714278 -0.008256086719938542 0.04726571115335151
0.6543937709181525 -0.13537002425865868 0.04726571115335151
0.3198141868800147 0.12950291098288397 0.04726571115335151
0.648310879395808 0.0122222963949809 0.04726571115335151
0.19240226985793663 -0.3007897381407905 0.049320742073062473
0.6416320289067474 0.030193541787853 0.049320742073062473
0.6000587534009952 0.0832955407531837 0.049320742073062473
0.6482389533136181 -0.1516458691427692 0.05137577299277344
0.10101504485839118 -0.2057753835679553 0.05137577299277344
0.6186876086881751 0.062200648362350945 0.05137577299277344
0.2062737285659854 -0.29549803352253484 0.05137577299277344
0.5225018864911044 -0.3088968351190502 0.05343080391248434
0.10176513114408574 0.038228712683922875 0.05343080391248434
0.6313671494627914 0.04449655698904123 0.05343080391248434
0.643347979724706 -0.19116411372881056 0.055485834832195303
0.0870511097589554 -0.025651923455291607 0.055485834832195303
0.11860610953111683 0.04229767390495054 0.055485834832195303
0.23450985340281372 0.12154994132360279 0.057540865751906194
0.29063274782011944 -0.32764899226141253 0.057540865751906194
0.6002026055653751 0.09261510597407276 0.057540865751906194
0.5609206895351004 0.09694094606006436 0.057540865751906194
0.5835465799611179 -0.28997000034851245 0.05959589667161716
0.12170920621988027 0.06483108793958095 0.05959589667161716
0.09937102012262246 -0.027891907157776567 0.05959589667161716
0.25306678260780346 0.13845257063822522 0.0609316667694293
0.1666219069701629 -0.2947890478552347 0.06165092759132813
0.6624494921234193 -0.08795018578632871 0.06165092759132813
0.5709389652686913 0.08829954104267977 0.06165092759132813
0.6104058340817399 -0.2775576135934584 0.06370595851103902
0.10780692204803584 0.03601955444523358 0.06370595851103902
0.10548473710876248 -0.04185584225721248 0.06370595851103902
0.3646344112389103 0.14238795484947175 0.06504172860885116
0.6532840542215086 -0.07919575406836021 0.06576098943074998
0.08980485119136807 -0.0700714167848436 0.06576098943074998
0.10358383350802984 -0.04375674585794497 0.06576098943074998
0.4390265305324462 0.14063090341311899 0.06637749870666322
0.4336834501411978 0.1174193291749838 0.06781602035046089
0.2425141988350878 -0.3120102069624122 0.06781602035046089
0.6044667947237752 0.07881557334821378 0.06781602035046089
0.12369231105740144 0.03283425651968161 0.06781602035046089
0.3760706583071017 0.14338464484553165 0.06915179044827302
0.13473810225084762 -0.280588784200032 0.06987105127017185
0.654013590198006 -0.20215852914926416 0.06987105127017185
0.6446426492041241 -0.015160990610167263 0.06987105127017185
0.10481685205985646 -0.17741595687594447 0.07192608218988282
0.6106113371737111 -0.28513040253259314 0.07192608218988282
0.5925578905440504 0.06291990918424971 0.07192608218988282
0.11076616657241956 -4.572443796355306E-4 0.07192608218988282
0.18124345196390626 0.08508341765333227 0.07398111310959371
0.34977653768940026 -0.33858175675427477 0.07398111310959371
0.5740523371120533 0.09076557814633299 0.07398111310959371
0.5849440009865212 -0.2894870680823804 0.07398111310959371
0.45449063820327096 0.13287316169120994 0.07531688320740584
0.6469853844525946 -0.02141855976068716 0.07603614402930468
0.3555820000375836 0.1311263854094558 0.07603614402930468
0.1586381118470859 0.06554007360688124 0.07603614402930468
0.29713692068100456 0.1079456366351164 0.07603614402930468
0.46108728745554317 0.12440643430200105 0.07737191412711675
0.4537508270721751 0.1038047493318988 0.07809117494901557
0.10459079865868819 0.0061805054910308065 0.07809117494901557
0.2828030800160208 0.12073820411031704 0.07809117494901557
0.6316034780185581 0.009725433827532161 0.07809117494901557
0.3508554289222484 0.11637126340593118 0.08014620586872653
0.6130259985043712 0.04199969442159235 0.08014620586872653
0.6065629262618805 -0.28954871900997176 0.08014620586872653
0.44468814071624985 0.13167096860317914 0.08014620586872653
0.4304365012880545 0.09455711019319966 0.08014620586872653
0.4124549807405838 0.14598425895896583 0.08148197596653868
0.11253349316337108 -0.25431521389152767 0.0822012367884375
0.10959479894818441 9.60726954964924E-4 0.0822012367884375
0.3422653996778567 -0.34052376097340153 0.0822012367884375
0.47577048337687783 0.0933857425689644 0.0822012367884375
0.4230794905954894 0.14598425895896583 0.08271499451836521
0.28461150722536643 0.12174516926097538 0.0842562677081484
0.4065056662280207 0.09748552925378771 0.0842562677081484
0.6518763580415066 -0.16625713898191408 0.0842562677081484
0.10689243328876448 -0.04032484422202782 0.0842562677081484
0.3674498035989143 0.09152593958662603 0.0842562677081484
0.2841080246500372 0.12241305430988142 0.08631129862785937
0.2837689445482849 0.09184446937918113 0.08631129862785937
0.59455127053617 -0.29570353661450605 0.08631129862785937
0.10730343947270674 -0.043037485036046215 0.08631129862785937
0.3737587485224268 0.08837146712486971 0.08631129862785937
0.3727004075987757 0.12029637246257911 0.08836632954757026
0.36582632917234265 0.13148601582040517 0.08836632954757026
0.10924544369183349 -3.596304109482109E-5 0.08836632954757026
0.6236505083592767 0.005677022915701558 0.08836632954757026
0.2283755861074765 -0.30363595596459014 0.08836632954757026
0.48993992156828464 -0.3108491144927755 0.09042136046728123
0.23911312266296617 -0.3108799399565712 0.09042136046728123
0.6547328510199047 -0.18178289758033017 0.09042136046728123
0.500728833896767 0.07222919925054032 0.09042136046728123
0.11815400272878046 -0.25998709922992996 0.09042136046728123
0.6490815159906999 -0.22965484285499638 0.0924763913869922
0.5064726453173591 -0.31242121314635446 0.0924763913869922
0.45945353787437293 0.12617376089295243 0.0924763913869922
0.2746651575739655 0.07604128160660405 0.0924763913869922
0.349642960679619 0.11406962877585504 0.09453142230670308
0.2630234074138029 0.08162069055361931 0.09453142230670308
0.3241708524298019 0.08752890444778828 0.09453142230670308
0.11891436416907349 -0.015972727823453162 0.09453142230670308
0.4652076244495636 0.07348276811156398 0.09453142230670308
0.3714879393561463 0.1225055307012684 0.09658645322641406
0.09837433012656271 -0.10554125045905437 0.09658645322641406
0.26282817947643045 0.08890577516399462 0.09658645322641406
0.16469017790563462 0.037478626398228305 0.09658645322641406
0.6334735561554952 -0.028251537568725945 0.09658645322641406
0.36702852226037347 0.12792053717470658 0.09864148414612495
0.09771672023225514 -0.11872427380900004 0.09864148414612495
0.2598278343336525 0.0792471298413531 0.09864148414612495
0.16768024789381397 0.03692376804990633 0.09864148414612495
0.6334427306916994 -0.03194031806960717 0.09864148414612495
0.3493860818146551 0.11782006020432743 0.10069651506583592
0.2803267677577691 0.07194149492178073 0.10069651506583592
0.6392584681944814 -0.02790218231237517 0.10069651506583592
0.6582161284288147 -0.22851430069455692 0.10069651506583592
0.5839370358358631 0.03915347659779269 0.10069651506583592
0.36090453011963497 -0.3217407783672435 0.10069651506583592
0.11828757973856158 -0.265915863433296 0.10275154598554688
0.6555137627693948 -0.24063898312085136 0.10275154598554688
0.41258855775036507 -0.3195110698193572 0.10275154598554688
0.6244211449541686 -0.01875729471966149 0.10275154598554688
0.3523042257206447 0.11618631062315718 0.10275154598554688
0.4651767989857679 0.06622850896498435 0.10480657690525777
0.25845096361744613 -0.3129246957216837 0.10480657690525777
0.6269899336038072 -0.02269267893090789 0.10480657690525777
0.4407322061958063 -0.3118766299526311 0.10480657690525777
0.6471908875445658 -0.17925520954908578 0.10686160782496874
0.20792802845635272 -0.31663402653176187 0.10686160782496874
0.5991339894871253 0.011903766602425644 0.10686160782496874
0.5097195941705024 -0.3013445964891125 0.10686160782496874
0.15745646906825217 0.0324232503357395 0.10891663874467963
0.548518577934645 -0.3145481701482552 0.10891663874467963
0.16285092523249328 -0.29223053436019447 0.10891663874467963
0.6376349937679099 -0.0694651826635289 0.10891663874467963
0.09893946362948314 -0.18828707044121523 0.11097166966439061
0.6548253274112918 -0.18030327531813825 0.11097166966439061
0.569747047335259 0.027532276746827334 0.11097166966439061
0.4770548777016972 -0.3019713809196244 0.11097166966439061
0.22958805435010604 -0.31222598520898187 0.11302670058410157
0.5240123342170921 0.05767958033898691 0.11302670058410157
0.12993960505332258 -0.027203471799673473 0.11302670058410157
0.3654153229884004 0.13205114932332573 0.11508173150381247
0.09528150859239773 -0.21702667785337268 0.11508173150381247
0.6158516660189739 -0.29023715436807485 0.11508173150381247
0.47011914834767266 -0.30109799277874716 0.11508173150381247
0.41304066455270144 0.03923567783458123 0.11508173150381247
0.11806152633739346 -0.034776260738808226 0.11713676242352343
0.5298280717198739 -0.31656210044957206 0.11713676242352343
0.6250890300030746 -0.03962613370932598 0.11713676242352343
0.329822187459007 -0.30691373028152913 0.11713676242352343
0.29047862050114115 0.050661649748173984 0.11919179334323432
0.40608438488947984 -0.3195727207469485 0.11919179334323432
0.36802521225643336 -0.30337907709962636 0.11919179334323432
0.5023625834779373 -0.2960117912524627 0.11919179334323432
0.23807533204851214 -0.3004814835028339 0.1212468242629453
0.6449920044604748 -0.09751635471758309 0.1212468242629453
0.15442529846167852 -0.012838805670893912 0.1212468242629453
0.12345598250163459 -0.048771021302039655 0.1212468242629453
0.5086509780922529 -0.2957754626966958 0.1212468242629453
0.11608869665447089 -0.2663474199264353 0.12330185518265625
0.6055662362658206 -0.29437804167129245 0.12330185518265625
0.5508715883377139 0.02421340181149424 0.12330185518265625
0.301555237158383 -0.2986011302112984 0.12330185518265625
0.10354273288963572 -0.19327052042151427 0.12535688610236714
0.49462539206522566 -0.300111577937286 0.12535688610236714
0.45946381302897155 -0.2950870273385927 0.12535688610236714
0.19695416334509633 0.021439110069884512 0.12535688610236714
0.35781170858547 0.046335809662182544 0.12535688610236714
0.314614958653146 0.04348959183838288 0.12741191702207813
0.09697690910115918 -0.1776214599679155 0.12741191702207813
0.36013389352474334 -0.2954877583679364 0.12741191702207813
0.6221811612516834 -0.047157822030066604 0.12741191702207813
0.636011519341338 -0.10495556664693673 0.12741191702207813
0.11825675427476591 -0.05800838528614033 0.129466947941789
0.18770652420639705 -0.3110751678939438 0.129466947941789
0.1257267916679152 -0.06643401205695525 0.129466947941789
0.40029947285049355 0.020216366672656506 0.129466947941789
0.2975376517103482 -0.29512812795698684 0.129466947941789
0.4047486147916678 0.02951538158434851 0.13152197886149997
0.09937102012262246 -0.14197694866552935 0.13152197886149997
0.12382588806718257 -0.07245525265170828 0.13152197886149997
0.4059508078796987 0.02008278966287524 0.13152197886149997
0.29587307666538226 -0.2937923578591748 0.13152197886149997
0.5430932963066082 -0.3042935658588977 0.13357700978121095
0.4012345119189621 0.053107136542629996 0.13357700978121095
0.23017373816222367 0.005903076316869819 0.13357700978121095
0.19100484883253308 0.0026458523091279084 0.13357700978121095
0.31802630997986625 0.015263742156153155 0.13357700978121095
0.22430662488644898 -0.30358458019159745 0.13563204070092183
0.6522668139162517 -0.20783041448766626 0.13563204070092183
0.47061235576840327 0.028652268598069883 0.13563204070092183
0.47083840916957154 -0.28974394694734434 0.13563204070092183
0.22009381150104143 0.010588546813810789 0.13563204070092183
0.6367410553178354 -0.11705969876403412 0.13563204070092183
0.31205644515810593 0.02197341810900928 0.13768707162063282
0.10689243328876448 -0.10108183336328166 0.13768707162063282
0.2722402210887065 -0.2845241684112784 0.13768707162063282
0.6197151241480304 -0.06565310030746502 0.13768707162063282
0.4122289273394155 0.0060058278628552725 0.13768707162063282
0.638785811082948 -0.11776868443133442 0.1397421025403437
0.4018304708856782 0.01727767245746985 0.1397421025403437
0.4497126913149431 -0.005368768277744761 0.1397421025403437
0.6110737191306459 -0.05460730911401884 0.1397421025403437
0.2896257826694611 -0.2878019427282174 0.1397421025403437
0.11162927955869818 -0.13017079603179002 0.14179713346005468
0.3368709435136156 -0.2965871999099817 0.14179713346005468
0.5521970832809276 -0.3095236195495621 0.14179713346005468
0.23175611197040105 0.006807289921542568 0.14179713346005468
0.6136733332440804 -0.07220864894134296 0.14179713346005468
0.3943193328741348 0.011924316911622851 0.14385216437976564
0.1024843919659845 -0.20220990492225688 0.14385216437976564
0.2919171421449388 -0.2975633395968444 0.14385216437976564
0.5689558604311703 -0.009293877334392556 0.14385216437976564
0.5540774365724631 -0.007526550743441181 0.14385216437976564
0.4711363886529296 -0.28561333479872536 0.14385216437976564
0.642567067975216 -0.1795429138778452 0.14590719529947652
0.40162496779370715 0.053004384996644394 0.14590719529947652
0.1272372393939028 -0.0922657507177217 0.14590719529947652
0.4726160109151215 -0.0059544520898623995 0.14590719529947652
0.42595653388308474 -0.27752678812966275 0.14590719529947652
0.2958628015107838 -3.133922152558082E-4 0.1479622262191875
0.10913241699124944 -0.24390648228319173 0.1479622262191875
0.25067267158634016 -0.29322722435625437 0.1479622262191875
0.4121981018756199 -0.2782665992607587 0.1479622262191875
0.24185658894078035 -0.012489450414543137 0.1479622262191875
0.3662167850470877 -0.014729434117028095 0.1479622262191875
0.2568274891908745 -0.2863839713936168 0.15001725713889838
0.6162729473575146 -0.27477304669725006 0.15001725713889838
0.6426184437482088 -0.12125196184024445 0.15001725713889838
0.3802834716925091 -0.27838990111594136 0.15001725713889838
0.5853858326342591 -0.03970833494611452 0.15001725713889838
0.31705017029300353 -0.01733932338506089 0.15001725713889838
0.4799935719168837 -0.005266016731759161 0.15207228805860937
0.13433737122150413 -0.27910916193784013 0.15207228805860937
0.12560348981273256 -0.10596253179759507 0.15207228805860937
0.3385971694861727 -0.021819290790030806 0.15207228805860937
0.22879686744601735 -0.2876067147908448 0.15207228805860937
0.14220813964399692 -0.2711561922785588 0.15207228805860937
0.24850461396604515 -0.287051856442523 0.15412731897832033
0.6492767439280721 -0.17190847401111914 0.15412731897832033
0.5324585112971039 -0.021993968418206195 0.15412731897832033
0.3173789752401573 -0.021408284606088554 0.15412731897832033
0.23310215722281172 -0.2852537043877758 0.15412731897832033
0.3609559058926277 -0.27086848794979934 0.15412731897832033
0.5475629885569793 -0.014976037827393417 0.15618234989803123
0.10140550073313621 -0.226479820084043 0.15618234989803123
0.3210472054318413 -0.025857426547262807 0.15618234989803123
0.4586109751972915 -0.029731159830917876 0.15618234989803123
0.5671988089948172 -0.041753090711226876 0.15618234989803123
0.31020691733036615 -0.26796061919840836 0.15618234989803123
0.6215338265119745 -0.2491468111284547 0.15618234989803123
0.1186472101495111 -0.11351477042753276 0.1582373808177422
0.4600083962226949 -0.2853872813975571 0.1582373808177422
0.38821589104259335 -0.04639746058977358 0.1582373808177422
0.14290685015669863 -0.2682585986817664 0.1582373808177422
0.329082376327911 -0.25941169057241076 0.1582373808177422
0.35661979065203764 -0.25232183389940804 0.1582373808177422
0.11224578883461148 -0.19445216320034814 0.16029241173745307
0.5038524808947277 -0.283866558516971 0.16029241173745307
0.2590982983571551 -0.2729132437149117 0.16029241173745307
0.12768934619623917 -0.11151111528081467 0.16029241173745307
0.4367248959023699 -0.03196086837880423 0.16029241173745307
0.3671929247339504 -0.256709324912991 0.16029241173745307
0.6212563973378138 -0.11176799414577845 0.16029241173745307
0.3912059610307727 -0.0090780990878229 0.1616281818352652
0.3013189086026163 -0.026515036441570234 0.16234744265716405
0.3402103687581457 -0.2688853831122783 0.16234744265716405
0.2778812809633131 -0.031138856010919872 0.16234744265716405
0.2753227674682729 -0.27086848794979934 0.16234744265716405
0.3005277216985276 -0.26006930046671833 0.16234744265716405
0.6230134487741665 -0.2494756160756084 0.16234744265716405
0.37900935252228835 -0.28590103912748477 0.1636832127549762
0.11930482004381852 -0.24192337744567072 0.164402473576875
0.14442757303728482 -0.27524570380878366 0.164402473576875
0.6073952137843632 -0.28056823389083496 0.164402473576875
0.3088403217687583 -0.23983752106216422 0.164402473576875
0.23943165245552142 -0.2728721430965174 0.164402473576875
0.12679540774616488 -0.12360497224331346 0.164402473576875
0.4064029146820351 -0.05594307921183091 0.164402473576875
0.2955648220274256 -0.01215037031279082 0.16573824367468706
0.3174714516315443 -0.25583593677211375 0.16645750449658592
0.41420175702233814 -0.2539555834805783 0.16645750449658592
0.5231903218492077 -0.2897542221019428 0.16645750449658592
0.25316953415378907 -0.039276778452975204 0.16645750449658592
0.37265930698038147 -0.0567342661159196 0.16645750449658592
0.6322610879128658 -0.22382883019761593 0.16645750449658592
0.3104946216591256 -0.25288696740232863 0.16645750449658592
0.34338539152909925 -0.27514295226279806 0.16779327459439805
0.4589397801444452 -0.03794100835516314 0.16851253541629688
0.2998803869588186 -0.018140785443748187 0.16851253541629688
0.3538968746834206 -0.17564863028499295 0.16851253541629688
0.6181738509582472 -0.25186972709707167 0.16851253541629688
0.29916112613691986 -0.24582793619312157 0.16851253541629688
0.1745954269386413 -0.05798783497694327 0.16851253541629688
0.42008942060730986 -0.0580494859045346 0.16851253541629688
0.39003459340653746 -0.04797983439795096 0.17056756633600775
0.15274017310751553 -0.06974261183768989 0.17056756633600775
0.1085467331791318 -0.2184138237241776 0.17056756633600775
0.5210222642289125 -0.26606999075227433 0.17056756633600775
0.29384887120946696 -0.04722974811225654 0.17056756633600775
0.26263295153905786 -0.27295434433330595 0.17056756633600775
0.41083150631401216 -0.2284012739939727 0.17056756633600775
0.6235888574316854 -0.13643864033690836 0.17056756633600775
0.28494031217252014 -0.021171956050321836 0.17190333643381991
0.3035691674596998 -0.044311604206266945 0.17262259725571874
0.4059302575705015 -0.055357395399713266 0.17262259725571874
0.6230545493925607 -0.21669787290621897 0.17262259725571874
0.4125269068227737 -0.06576612700804922 0.17262259725571874
0.6223866643436546 -0.13461993797296412 0.17262259725571874
0.5710211665054797 -0.06351586815096566 0.17262259725571874
0.38277005910535933 -0.1917908981593225 0.17262259725571874
0.6287675353493571 -0.15646491664949144 0.17262259725571874
0.3129812090719759 -0.00288218086489448 0.1739583673535308
0.3028499066378009 -0.047702405223789976 0.1746776281754297
0.3092718782618976 -0.05098017954072895 0.1746776281754297
0.49647491989296555 -0.26225790839621044 0.1746776281754297
0.29841103985122525 -0.06265275516468703 0.1746776281754297
0.46564945609730146 -0.056682890342926874 0.1746776281754297
0.2585126145450375 -0.26576173611431764 0.1746776281754297
0.48040457810082593 -0.25382200647079706 0.1746776281754297
0.6280585496820568 -0.2106149813838746 0.1746776281754297
0.4230794905954894 -0.2488796571088923 0.17601339827324175
0.6279455229814727 -0.14723782781998937 0.17673265909514066
0.403659448404221 -0.06534484566950836 0.17673265909514066
0.10946122193840316 -0.18066290572908777 0.17673265909514066
0.6227360196000054 -0.16092433374526413 0.17673265909514066
0.22823173394309676 -0.26556650817694505 0.17673265909514066
0.38891460155529506 -0.2011412888440072 0.17673265909514066
0.4096806889989741 -0.18928376043727513 0.17673265909514066
0.3152931188566506 -0.08648083867873538 0.17673265909514066
0.4036902738680167 -0.08151793900763357 0.17673265909514066
0.44293108927989694 -0.00288218086489448 0.17806842919295274
0.323821497173451 -0.21802336784943258 0.17878769001485148
0.5087229041744428 -0.2735605784546207 0.17878769001485148
0.2985343417064079 -0.019209401521997866 0.17878769001485148
0.4256071786267338 -0.10140036315583677 0.17878769001485148
0.21081534689854664 -0.05802893559533754 0.17878769001485148
0.13030951061887058 -0.22921301120725862 0.17878769001485148
0.4900118476504746 -0.2579731689286131 0.17878769001485148
0.3643775323739464 -0.11454228588738832 0.17878769001485148
0.624082064852416 -0.21556760590037796 0.17878769001485148
0.28053227084974014 -0.014780809890020822 0.1801234601126637
0.5905542353973323 -0.27077601155841236 0.18084272093456247
0.565729461887224 -0.28444196717449005 0.18084272093456247
0.41224947764861275 -0.07240387687871555 0.18084272093456247
0.4213224391591365 -0.09545104864327367 0.18084272093456247
0.25696106620065573 -0.2647958715820534 0.18084272093456247
0.4834768493257939 -0.24565325856494605 0.18084272093456247
0.12919979392222677 -0.15650601726788554 0.18084272093456247
0.4119309478560575 -0.12283433564842197 0.18084272093456247
0.36910410348928163 -0.2557331852261283 0.18084272093456247
0.30126753282962354 -0.04111603112611651 0.18289775185427343
0.4773528571850552 -0.06421457866366735 0.18289775185427343
0.6208762166176671 -0.13057152706113365 0.18289775185427343
0.2745624060279799 -0.05580950220204964 0.18289775185427343
0.41624651278745045 -0.09432078163743265 0.18289775185427343
0.1297649274251472 -0.16003039529518984 0.18289775185427343
0.2988425963443646 -0.19932258648006296 0.18289775185427343
0.44638354122501145 -0.2019427509026945 0.18289775185427343
0.4665947703203685 -0.07255800419769388 0.18289775185427343
0.6153995592166374 -0.24005329930873373 0.18289775185427343
0.3481941638812227 -0.27368388030980334 0.18423352195208548
0.33897735020631925 -0.09597508152779997 0.1849527827739844
0.1397729280041395 -0.2568634522319693 0.1849527827739844
0.5263858949293583 -0.2757286360749157 0.1849527827739844
0.4088175760126954 -0.18007722191697012 0.1849527827739844
0.4877102130203983 -0.24303309414231467 0.1849527827739844
0.44187274835624585 -0.1151793454724987 0.1849527827739844
0.17745191991703957 -0.270621884239434 0.1849527827739844
0.33239097610864565 -0.17201122555710457 0.1849527827739844
0.18044198990521895 -0.08231940106632071 0.1849527827739844
0.43571793075171156 -0.23722763179413128 0.18628855287179646
0.4114788410537211 -0.02239469944754984 0.18700781369369535
0.5961130940351503 -0.10466786231817728 0.18700781369369535
0.3247257107781239 -0.09181364391538532 0.18700781369369535
0.1444172978826862 -0.10637353798153733 0.18700781369369535
0.2561390538327714 -0.07038994657739871 0.18700781369369535
0.1255315637305426 -0.1839406800460266 0.18700781369369535
0.3671004483425634 -0.16285606280979245 0.18700781369369535
0.6209070420814626 -0.17452863843375052 0.18700781369369535
0.42088060751139855 -0.16178744673154277 0.18700781369369535
0.3168241168918353 -0.06406045134468903 0.18834358379150742
0.34221402390486394 -0.2870724067517201 0.18834358379150742
0.37106665801760547 -0.2506058830814494 0.18906284461340617
0.5213202437122708 -0.26733383476789646 0.18906284461340617
0.5125041610667109 -0.2710431655779747 0.18906284461340617
0.608720708727577 -0.1540913559372252 0.18906284461340617
0.4212094124585524 -0.13970613949924873 0.18906284461340617
0.5980961988726713 -0.1181385899968824 0.18906284461340617
0.14342060788662633 -0.1577904115927049 0.18906284461340617
0.29597582821136786 -0.19644554319246763 0.18906284461340617
0.26507843833351385 -0.07766475603317556 0.18906284461340617
0.4390265305324462 -0.06829381503929362 0.19039861471121838
0.41694522330015216 -0.041300983908890504 0.19111787553311715
0.335381046096825 -0.1254236746072577 0.19111787553311715
0.12227433972280084 -0.17617266316951924 0.19111787553311715
0.12307580178148815 -0.20853940015496658 0.19111787553311715
0.42432278430191445 -0.16092433374526413 0.19111787553311715
0.6138788363360513 -0.20588841026853952 0.19111787553311715
0.2103015891686188 -0.2474719609288903 0.19111787553311715
0.13447094823128525 -0.2092997615952596 0.19111787553311715
0.2607525982475224 -0.09033402165319339 0.19111787553311715
0.44293108927989694 -0.057011695290080586 0.19245364563092934
0.30004478943239554 -0.2487049794807169 0.19245364563092934
0.6214413501205878 -0.19724700525115493 0.1931729064528281
0.5160388142486136 -0.07212644770455456 0.1931729064528281
0.4121672764118242 -0.12031692277177604 0.1931729064528281
0.15894636648504257 -0.2436290531090309 0.1931729064528281
0.27991576157382686 -0.207974266652046 0.1931729064528281
0.5433399000169735 -0.260562507887449 0.1931729064528281
0.5517860770969852 -0.2618160767484726 0.1931729064528281
0.4656905567156956 -0.10999039240022862 0.1931729064528281
0.5955376853776312 -0.22315066999411132 0.1931729064528281
0.3805814511758671 -0.11114120971526668 0.19450867655064016
0.4110370094059832 -0.022281672746965787 0.19522793737253907
0.39542904957077873 -0.12637926398492333 0.19522793737253907
0.39280888514814716 -0.12264938286564799 0.19522793737253907
0.39468923843968273 -0.11514852000870303 0.19522793737253907
0.13738909213727482 -0.20749133438591394 0.19522793737253907
0.2630336825684015 -0.22130114216637153 0.19522793737253907
0.2678219046113281 -0.10503776788372512 0.19522793737253907
0.5542726645098357 -0.25068808431823797 0.19522793737253907
0.496022813090629 -0.2345663667531056 0.19522793737253907
0.40334091861166577 -0.22823687152039593 0.19656370747035115
0.29050944596493683 -0.035752400425670905 0.19656370747035115
0.33276088167419365 -0.24742058515589757 0.19728296829225003
0.21500760997475696 -0.2559900640910921 0.19728296829225003
0.2387637674066154 -0.26017205201270394 0.19728296829225003
0.20561611867167798 -0.25385283193459274 0.19728296829225003
0.14665728158517116 -0.22612018967309364 0.19728296829225003
0.368425943285777 -0.13623313724493716 0.19728296829225003
0.5987127081485846 -0.13688047198464615 0.19728296829225003
0.4936389772237644 -0.21135479251497055 0.19728296829225003
0.3130736854633629 -0.22327397184929396 0.1986187383900621
0.29086907637588616 -0.029946938077487533 0.1986187383900621
0.5781829492606724 -0.2598329719109516 0.19933799921196085
0.5142920379668592 -0.09446463380181239 0.19933799921196085
0.49232375743514933 -0.13158876736639047 0.19933799921196085
0.48723755590886486 -0.1420797002115148 0.19933799921196085
0.2799260367284255 -0.20702895242897898 0.19933799921196085
0.1350155314250086 -0.23210032964945254 0.19933799921196085
0.1539012655771522 -0.13600708384376906 0.19933799921196085
0.28425187681441694 -0.12957483706507378 0.19933799921196085
0.3615004890863511 -0.13282178591821708 0.19933799921196085
0.4248776426502364 -0.16528099929505138 0.20067376930977307
0.41335919434525653 -0.049161477176784846 0.20139303013167184
0.5344621664438223 -0.2589595837700744 0.20139303013167184
0.517693114138981 -0.24828369814217605 0.20139303013167184
0.5104285798378029 -0.10940470858811098 0.20139303013167184
0.32269123016761 -0.12738622913558167 0.20139303013167184
0.2928419060588086 -0.23579938530493222 0.20139303013167184
0.27002078769541876 -0.2059706115053279 0.20139303013167184
0.2656846724548286 -0.1794093368680641 0.20139303013167184
0.3227939817135956 -0.13032492335076834 0.20139303013167184
0.4282273430493652 -0.012623027424324256 0.20272880022948403
0.6084227292442187 -0.1581397668490558 0.2034480610513828
0.5068631011921043 -0.10803811302650311 0.2034480610513828
0.5808750397654937 -0.13288343684580842 0.2034480610513828
0.29365364327209453 -0.04219492235896465 0.2034480610513828
0.1479211256007933 -0.2261612902914879 0.2034480610513828
0.13349480854442256 -0.15839664571401973 0.2034480610513828
0.22997851022485108 -0.10351704500313906 0.2034480610513828
0.26931180202811844 -0.16707915134979845 0.2034480610513828
0.4325326328261596 -0.03560854826129119 0.20478383114919485
0.30500768910349746 -0.16413018198001317 0.20478383114919485
0.5465971240247152 -0.09587232998181439 0.20550309197109376
0.5906672620979164 -0.21619439033088986 0.20550309197109376
0.5446345694963912 -0.10634271251774166 0.20550309197109376
0.357164373845761 -0.26964574455257134 0.20550309197109376
0.28512526495529417 -0.14546022607443937 0.20550309197109376
0.154065668050729 -0.21166304715292722 0.20550309197109376
0.17589009641805925 -0.13061262767952778 0.20550309197109376
0.3029423830291879 -0.1549133683051097 0.20683886206890584
0.44293108927989694 -0.014780809890020822 0.20683886206890584
0.49546795474230704 -0.127725309237334 0.20755812289080472
0.5852111550060838 -0.1459637086497685 0.20755812289080472
0.39145256474113804 -0.11861124710841599 0.20755812289080472
0.1419615359336316 -0.16979179216381685 0.20755812289080472
0.1449618810764096 -0.1961578388637082 0.20755812289080472
0.23809588235770934 -0.13442471003559167 0.20755812289080472
0.44048560248544094 -0.14767965946772713 0.2088938929886168
0.44303384082588254 -0.23294289232653395 0.2088938929886168
0.5058253105776502 -0.11564172742943367 0.20961315381051554
0.5213407940214677 -0.21233093220183324 0.20961315381051554
0.33285335806558064 -0.253431550596052 0.20961315381051554
0.2782511865288611 -0.2194002385656389 0.20961315381051554
0.23585589865522438 -0.21449898982212828 0.20961315381051554
0.2430279565650155 -0.17838182140820855 0.20961315381051554
0.3110083793890533 -0.027830256230185237 0.20961315381051554
0.2808302503330982 -0.12856787191441543 0.21094892390832776
0.5895472702466739 -0.21865015227994433 0.21166818473022653
0.5444907173320116 -0.12452973615718342 0.21166818473022653
0.561855728603569 -0.14200777412932503 0.21166818473022653
0.2945373065675702 -0.22997337264755163 0.21166818473022653
0.16076506884898667 -0.19848002380298155 0.21166818473022653
0.24764150097976653 -0.20206605275787717 0.21166818473022653
0.3710769331722041 -0.021130855431927567 0.21166818473022653
0.26461605637657887 -0.21427293642096001 0.21300395482803872
0.5830225470765917 -0.15022789780816875 0.2137232156499375
0.5357157353048457 -0.16333899507592448 0.2137232156499375
0.5849748264503171 -0.17261745967841943 0.2137232156499375
0.20784582721956432 -0.23889220683909707 0.2137232156499375
0.190038984300269 -0.22555505617017318 0.2137232156499375
0.2998084608766288 -0.12044022462695869 0.2137232156499375
0.2988425963443646 -0.017359873694258097 0.2137232156499375
0.2690035473901618 -0.1442785832956055 0.21505898574774954
0.3343843561007653 -0.11861124710841599 0.21577824656964845
0.15955260060635726 -0.2134303737438786 0.21577824656964845
0.23123207908587476 -0.1675723587705291 0.21577824656964845
0.4472055535928958 -0.20480951903569122 0.21577824656964845
0.5285642277042517 -0.14082613135049113 0.21577824656964845
0.5819128303799478 -0.16319514291154477 0.21577824656964845
0.41940098524920677 -0.24647527093283042 0.21711401666746052
0.4103382988932815 -0.021819290790030806 0.2178332774893594
0.23983238348486507 -0.19942533802604856 0.2178332774893594
0.17598257280944624 -0.16339037084891722 0.2178332774893594
0.35268440644079124 -0.27338590082644515 0.2178332774893594
0.5880779231390805 -0.15197467408992305 0.2178332774893594
0.577658916376146 -0.15941388601927656 0.2178332774893594
0.2905916472017252 -0.24647527093283042 0.21916904758717148
0.512062329418973 -0.1707165560776868 0.21988830840907023
0.4367659965207642 -0.21090268571263418 0.21988830840907023
0.1756537678622924 -0.22134224278476566 0.21988830840907023
0.21912794696877735 -0.1858004830283651 0.21988830840907023
0.336973695059601 -0.01873674441046443 0.21988830840907023
0.4602755502422573 -0.21941051372023734 0.22122407850688244
0.3961174849288818 -0.008348563111325539 0.22122407850688244
0.5454668570188743 -0.22205122845206596 0.22194333932878121
0.3190949260581159 -0.250523681844661 0.22194333932878121
0.2689418964625705 -0.20998819695336285 0.22194333932878121
0.4184248455623441 -0.021459660379081428 0.22194333932878121
0.44176999681026025 -0.12189929657995342 0.2232791094265934
0.5793132162665132 -0.20567263202196984 0.22399837024849217
0.4685778751578895 -0.18066290572908777 0.22399837024849217
0.1598608552443139 -0.17689192399141815 0.22399837024849217
0.4179110878324164 -0.04419857750568289 0.22399837024849217
0.2898929366890235 -0.0352386426957432 0.22533414034630422
0.546740976189095 -0.20964911685161053 0.22605340116820313
0.27673046364827486 -0.20578565872255392 0.22605340116820313
0.19854681230787233 -0.17542257688382482 0.22605340116820313
0.4297069653115571 -0.041794191329621144 0.22605340116820313
0.26699989224344356 -0.22230810731702988 0.2273891712660152
0.35976398795919534 -0.269121711668045 0.22810843208791412
0.19446757593224606 -0.2114061682879633 0.22810843208791412
0.3799032909723625 -0.018592892246084562 0.22810843208791412
0.2892353267947159 -0.15599225953795784 0.22944420218572617
0.3981314152301985 -0.020041689044480827 0.23016346300762494
0.41016362126510614 -0.24660884794261168 0.23016346300762494
0.3646344112389103 -0.02933042880157423 0.23149923310543713
0.40836546921035904 -0.24267346373136528 0.2322184939273359
0.4245180122392871 -0.1393156836245037 0.2322184939273359
0.3709125306986271 -0.029381804574566954 0.23355426402514812
0.4329641893192989 -0.227610087089884 0.23427352484704686
0.4191852070026371 -0.14479234102553334 0.23427352484704686
0.3200813408995772 -0.01613713029703009 0.23427352484704686
0.38880157485471084 -0.2870724067517201 0.23560929494485894
0.2931090600783711 -0.1417508952643611 0.23632855576675782
0.3207184004846876 -0.021952867799811926 0.23632855576675782
0.33626470939230074 -0.27354002814542344 0.2376643258645699
0.41768503443124816 -0.1446279385519564 0.2383835866864688
0.3182009876080416 -0.01606520421484016 0.2383835866864688
0.4293165094368121 -0.22557560647937025 0.24043861760617963
0.30230532344407757 -0.138339543937641 0.24043861760617963
0.4330874911744816 -0.15679372159664515 0.24177438770399182
0.4445648388610672 -0.22346919978666657 0.2424936485258906
0.2977842554207135 -0.04357179307517098 0.2424936485258906
0.30759702806233324 -0.08407645250267363 0.2438294186237028
0.29414685069282515 -0.12175544441557369 0.24454867944560155
0.31142966072759415 -0.02166516347105248 0.24454867944560155
0.3969600476059634 -0.2515820227683121 0.2466037103653125
0.4094135349794115 -0.15263228398423048 0.2466037103653125
0.26699989224344356 -0.09760883110897009 0.24793948046312458
0.29887342180816023 -0.12232057791849413 0.2486587412850235
0.42882330201608143 -0.12088205627469646 0.2486587412850235
0.3593221563114574 -0.14967303945984678 0.24999451138283554
0.4195140119497908 -0.15285833738539875 0.2507137722047343
0.3346617852749263 -0.2870724067517201 0.2520495423025465
