0.4917108630755636 0.40289562285064834 -0.06718414749156541
0.5519453061298869 0.5268889232539341 -0.06718414749156541
0.48803225565553376 0.405054326606115 -0.06718414749156541
0.4859506484627622 0.4255620122830485 -0.06718414749156541
0.5439382774042527 0.5114255555362034 -0.06718414749156541
0.5513505612176665 0.4414659317876093 -0.06718414749156541
0.5810547654446749 0.5126921419233393 -0.06718414749156541
0.6764782824720393 0.4460586841653114 -0.06575235418436812
0.5091677276287 0.4356286206121126 -0.06575235418436812
0.44438458737535763 0.5185845220721897 -0.06575235418436812
0.4979887260378903 0.3461415389122816 -0.06498138855741573
0.5062821134249639 0.35700114045763964 -0.06498138855741573
0.6358263663423069 0.459297265359551 -0.06498138855741573
0.6151755013346536 0.3610872582804872 -0.06498138855741573
0.6583275488546458 0.5155777561270755 -0.06498138855741573
0.6005601958065705 0.4145812589963124 -0.06498138855741573
0.6639886393154106 0.42654224000874513 -0.06498138855741573
0.6404631738986919 0.4914134906194534 -0.06498138855741573
0.5832134692001416 0.35696809907362737 -0.06498138855741573
0.6480076232481546 0.4189096803019165 -0.06498138855741573
0.5712194468036966 0.3502276567351294 -0.06498138855741573
0.48512461386245603 0.4020585744556714 -0.06498138855741573
0.5414271322193221 0.5032092647118249 -0.06498138855741573
0.47760219210233495 0.4094157892957314 -0.06498138855741573
0.5879494009085634 0.4972397880002794 -0.06498138855741573
0.57877490994783 0.4745954261572205 -0.06498138855741573
0.5432774497240078 0.5071411894092823 -0.06498138855741573
0.474099805397037 0.40726809933493535 -0.06498138855741573
0.5930818292251322 0.5263492473150675 -0.06498138855741573
0.583984434827094 0.4970635672855474 -0.06498138855741573
0.5445880912898269 0.44597057380794547 -0.06498138855741573
0.5148838870628183 0.4686920322136995 -0.06498138855741573
0.5372639178337792 0.45000162265743937 -0.06498138855741573
0.6762800341679659 0.4315535165839358 -0.06354959525021843
0.5894362631891145 0.4501558157828298 -0.06354959525021843
0.44438458737535763 0.41704834900256005 -0.06354959525021843
0.5993596921874588 0.53639382805479 -0.06354959525021843
0.5097074035675665 0.46109251389088296 -0.06277862962326604
0.5189920324750075 0.4787145853640805 -0.06277862962326604
0.5156989078684536 0.46815235627483276 -0.06277862962326604
0.5272854198620811 0.5142561007665856 -0.06277862962326604
0.47685325406472406 0.4070037682628374 -0.06277862962326604
0.4852347518091636 0.4003954914603884 -0.06277862962326604
0.5426606772224459 0.5028678370770319 -0.06277862962326604
0.48547705529192 0.41126610680041703 -0.06277862962326604
0.5336183517977614 0.5172298253276878 -0.06277862962326604
0.5560424377474052 0.5262280955736892 -0.06277862962326604
0.508639065484504 0.5020858576554087 -0.06277862962326604
0.47961771652708185 0.4000871052096074 -0.06277862962326604
0.5870352559508912 0.4605748655413578 -0.06277862962326604
0.583103331253434 0.48671060029504387 -0.06277862962326604
0.5496434230437004 0.5144213076866468 -0.06277862962326604
0.46314107969964224 0.3459763319922204 -0.06277862962326604
0.4778885507637744 0.3516594500423266 -0.06277862962326604
0.5913526634618248 0.3988425464118128 -0.06277862962326604
0.6596161628311235 0.42213672214044584 -0.06277862962326604
0.6568186589847533 0.5160403355032469 -0.06277862962326604
0.555701010112612 0.3758787845233024 -0.06277862962326604
0.6444501675695029 0.42834850233474786 -0.06277862962326604
0.6126203009710399 0.43734677258074944 -0.06277862962326604
0.6059679689899079 0.35696809907362737 -0.06277862962326604
0.5470551812960746 0.3502276567351294 -0.06277862962326604
0.6703766402244448 0.4460586841653114 -0.06134683631606875
0.5058525754328047 0.4460586841653114 -0.06134683631606875
0.5319552688024785 0.4269387366168921 -0.06134683631606875
0.5490376643368091 0.4390649245493861 -0.06134683631606875
0.5517800992098256 0.4603656034426137 -0.06134683631606875
0.5262611369577014 0.4831531446163921 -0.06134683631606875
0.4863912002495922 0.41803959052292744 -0.06134683631606875
0.4487901052436571 0.4315535165839358 -0.06134683631606875
0.5966062435197717 0.5398741871707465 -0.06134683631606875
0.5096523345942129 0.46116961045357824 -0.060575870689116365
0.5189039221176416 0.4787145853640805 -0.060575870689116365
0.5146856387587448 0.4686479770350165 -0.060575870689116365
0.48697493136714187 0.40717998897756946 -0.060575870689116365
0.5015571955112128 0.3850753030733773 -0.060575870689116365
0.5718692606892707 0.4763906746885526 -0.060575870689116365
0.4977243949657923 0.4829879376963308 -0.060575870689116365
0.4831971997950751 0.40105631914063333 -0.060575870689116365
0.5773651442299742 0.48348355845651453 -0.060575870689116365
0.5436959739214962 0.509817541514274 -0.060575870689116365
0.5089474517352849 0.5036388027039841 -0.060575870689116365
0.48286678595495264 0.3972896013632374 -0.060575870689116365
0.5955599330260506 0.5294551374122185 -0.060575870689116365
0.5644129216971739 0.5208643775690348 -0.060575870689116365
0.5854052143396206 0.5177805150612251 -0.060575870689116365
0.50666759623844 0.3583117820234587 -0.060575870689116365
0.6578099005051207 0.5193995428778253 -0.060575870689116365
0.571902302073283 0.3468574355658802 -0.060575870689116365
0.6431395260036838 0.46085021040812657 -0.060575870689116365
0.6557723484910323 0.5412949666832731 -0.060575870689116365
0.5936986017266941 0.3633120448039784 -0.060575870689116365
0.6631846323044459 0.5488284022380651 -0.060575870689116365
0.5805481308898205 0.3382226205440136 -0.060575870689116365
0.6480516784268376 0.5201154395314239 -0.060575870689116365
0.6562459416618744 0.3502386705298 -0.060575870689116365
0.493406987454859 0.4106933894775382 -0.05914407738191906
0.5262611369577014 0.47496989517602606 -0.05914407738191906
0.5376494006472554 0.4750690193280628 -0.05914407738191906
0.5451718224073765 0.4356286206121126 -0.05914407738191906
0.5161614872446251 0.4315535165839358 -0.05914407738191906
0.4806970684048152 0.4180285767282566 -0.05914407738191906
0.520324701630168 0.5250275919545777 -0.05914407738191906
0.5002245263560523 0.34681338038719733 -0.05837311175496668
0.4526229057890775 0.3382226205440136 -0.05837311175496668
0.6597813697511847 0.5410636769951874 -0.05837311175496668
0.5813521379007852 0.39019671759527536 -0.05837311175496668
0.6459039884660416 0.422522204953922 -0.05837311175496668
0.6549132725067138 0.5129234316114251 -0.05837311175496668
0.5368123522522784 0.3424849590815932 -0.05837311175496668
0.6639886393154106 0.45812980312445173 -0.05837311175496668
0.5138265627744265 0.3593801201065212 -0.05837311175496668
0.6682509778529903 0.5538947477866093 -0.05837311175496668
0.6151865151293242 0.3502276567351294 -0.05837311175496668
0.4784392404973118 0.40926159617034097 -0.05837311175496668
0.49261399423856506 0.4413447800462311 -0.05837311175496668
0.5111502106694346 0.46096034835483396 -0.05837311175496668
0.5145865146067081 0.4686149356510042 -0.05837311175496668
0.5393675526158921 0.5039912441334482 -0.05837311175496668
0.5646992803586135 0.43366816516071943 -0.05837311175496668
0.5566371826596257 0.5242566263276252 -0.05837311175496668
0.5418126150327983 0.5238270883354661 -0.05837311175496668
0.5681135567065454 0.4370383863299684 -0.05837311175496668
0.5477270227709901 0.5307217237993546 -0.05837311175496668
0.5427928427584949 0.5032092647118249 -0.05837311175496668
0.5543573271627807 0.5192123083684225 -0.05837311175496668
0.5851739246515348 0.4871181106978615 -0.05837311175496668
0.5894362631891145 0.4460586841653114 -0.05694131844776938
0.5455683190155234 0.457766347900317 -0.05694131844776938
0.5284528820971803 0.5002024987667106 -0.05694131844776938
0.5024052577008604 0.4145482176123001 -0.05694131844776938
0.44438458737535763 0.4895741869094384 -0.05694131844776938
0.4664121767168545 0.5330896896535655 -0.05694131844776938
0.5115246796882401 0.3584109061754954 -0.05617035282081699
0.5076808653481488 0.3593360649278383 -0.05617035282081699
0.6351545248673912 0.4595726102263198 -0.05617035282081699
0.6064966311341039 0.36526148646070095 -0.05617035282081699
0.6589002661775248 0.5193885290831545 -0.05617035282081699
0.6087985142202902 0.42635500549934247 -0.05617035282081699
0.6060560793472739 0.3424849590815932 -0.05617035282081699
0.6304626483376523 0.4696722599393961 -0.05617035282081699
0.5335963242084198 0.35799238197800703 -0.05617035282081699
0.6519175203562704 0.5538947477866093 -0.05617035282081699
0.6106818731089882 0.36581217619423834 -0.05617035282081699
0.48070808219948596 0.4104841273787939 -0.05617035282081699
0.4933849598655174 0.44342638723900246 -0.05617035282081699
0.5115907624562646 0.4609052793814803 -0.05617035282081699
0.5131877626835231 0.4665663698422449 -0.05617035282081699
0.5394336353839165 0.5041674648481801 -0.05617035282081699
0.562749838701891 0.4325998270776569 -0.05617035282081699
0.5682787636266067 0.43853626240519017 -0.05617035282081699
0.5756029370826544 0.4443625597860162 -0.05617035282081699
0.584424986613924 0.4837478895286125 -0.05617035282081699
0.5747658886876776 0.48039969594870496 -0.05617035282081699
0.5972780849946874 0.5332218551896145 -0.05617035282081699
0.5400063527067955 0.5053128994939379 -0.05617035282081699
0.5900750632800178 0.46433056952408314 -0.05617035282081699
0.5753275922158857 0.5242896677116374 -0.05617035282081699
0.5857576557690845 0.4863912002495922 -0.05617035282081699
0.4750029365600383 0.44468195983146785 -0.054738559513619695
0.4626454589394585 0.42752246773444175 -0.054738559513619695
0.5058195340487924 0.4750690193280628 -0.054738559513619695
0.5704154397927319 0.4626454589394585 -0.054738559513619695
0.5314155928636117 0.4254849157203534 -0.054738559513619695
0.5024052577008604 0.41373319680666476 -0.054738559513619695
0.5081764861083325 0.5185845220721897 -0.054738559513619695
0.45686321673731556 0.34674729761917283 -0.0539675938866673
0.4526229057890775 0.35093253959405724 -0.0539675938866673
0.6597152869831602 0.5453590569167793 -0.0539675938866673
0.5499077541157984 0.3689290800860601 -0.0539675938866673
0.6390534081808361 0.42862384720151664 -0.0539675938866673
0.6487455474910948 0.49401274616175006 -0.0539675938866673
0.5394336353839165 0.35696809907362737 -0.0539675938866673
0.6474128783359342 0.4579095272310366 -0.0539675938866673
0.5183642461787749 0.3631908930626002 -0.0539675938866673
0.6682509778529903 0.43069444059961737 -0.0539675938866673
0.5453920983007916 0.36267324471307505 -0.0539675938866673
0.4816222271571581 0.41002154800262247 -0.0539675938866673
0.4933188770974929 0.44349247000702696 -0.0539675938866673
0.5126260591553149 0.46068500348806535 -0.0539675938866673
0.5329575241175165 0.44051874544592495 -0.0539675938866673
0.5150270663935381 0.5113484589735081 -0.0539675938866673
0.5684659981360095 0.5285960614279002 -0.0539675938866673
0.5976525540134927 0.519366501493813 -0.0539675938866673
0.5913196220778125 0.4651345765350477 -0.0539675938866673
0.530710710004684 0.5242786539169668 -0.0539675938866673
0.5729265849776626 0.4748267158453062 -0.0539675938866673
0.5545996306455372 0.5105664795518849 -0.0539675938866673
0.5681686256798992 0.5207872810063394 -0.0539675938866673
0.509376989727444 0.48610484158815265 -0.05253580057947001
0.4693088047152614 0.43677405525787044 -0.05253580057947001
0.49838522264603724 0.4729874121352912 -0.05253580057947001
0.5422972219983112 0.454352071552385 -0.05253580057947001
0.5058525754328047 0.4460586841653114 -0.05253580057947001
0.4578324306683415 0.4460586841653114 -0.05253580057947001
0.6587681006414758 0.5354796830971179 -0.05176483495251761
0.5625626041924884 0.3778061985906834 -0.05176483495251761
0.6390313805914947 0.4286458747908581 -0.05176483495251761
0.6304846759269939 0.46177536916046946 -0.05176483495251761
0.6002848509398017 0.3623538446676234 -0.05176483495251761
0.650309506334341 0.5180007909546401 -0.05176483495251761
0.45983694129841773 0.3471658218166613 -0.05176483495251761
0.5990072507579949 0.3382226205440136 -0.05176483495251761
0.5747879162770191 0.3976310289980305 -0.05176483495251761
0.5631683628993794 0.3502276567351294 -0.05176483495251761
0.6108801214130617 0.357948326799324 -0.05176483495251761
0.5166350804154674 0.42100230128935867 -0.05176483495251761
0.5328914413494921 0.44103639379545007 -0.05176483495251761
0.5326381240720649 0.4419725663424638 -0.05176483495251761
0.5179677495706279 0.5137604800064021 -0.05176483495251761
0.5119321900910577 0.5067336790064645 -0.05176483495251761
0.5105885071412264 0.506006768558195 -0.05176483495251761
0.5908680564963117 0.4822169720693785 -0.05176483495251761
0.5762527509682286 0.4815010754157799 -0.05176483495251761
0.5989852231686534 0.5356448900171792 -0.05176483495251761
0.5425064840970555 0.5097845001302619 -0.05176483495251761
0.591473815203203 0.4691325840005294 -0.05176483495251761
0.5769245924431443 0.4425232560760012 -0.05176483495251761
0.5767924269070953 0.44359159415906374 -0.05176483495251761
0.5866167317534029 0.4897724352135119 -0.05176483495251761
0.5865836903693906 0.49446431174325073 -0.05176483495251761
0.5894582907784559 0.5244108194530158 -0.05176483495251761
0.4779215921477866 0.4750690193280628 -0.05033304164532032
0.47552058490956345 0.4142508451561899 -0.05033304164532032
0.537230876449767 0.4315535165839358 -0.05033304164532032
0.5231332192712089 0.47153359123875255 -0.05033304164532032
0.4920853320943691 0.4867326278843853 -0.05033304164532032
0.6039414307704901 0.5476058710296119 -0.05033304164532032
0.6231605024709461 0.441256669688865 -0.049562076018367936
0.6596161628311235 0.42199354280972606 -0.049562076018367936
0.6586579626947683 0.5330125930908702 -0.049562076018367936
0.5418566702114812 0.3584659751488491 -0.049562076018367936
0.6489327820004975 0.4580416927670856 -0.049562076018367936
0.5061499478889149 0.35024968432447084 -0.049562076018367936
0.5233755227539654 0.35906072006106954 -0.049562076018367936
0.6682509778529903 0.5538947477866093 -0.049562076018367936
0.4526229057890775 0.3382226205440136 -0.049562076018367936
0.6420161189472675 0.42042958396647984 -0.049562076018367936
0.549885726526457 0.4504311606495986 -0.049562076018367936
0.5134741213449625 0.471819949900192 -0.049562076018367936
0.5125379487979489 0.4689563632857973 -0.049562076018367936
0.59304878784112 0.4643195557294123 -0.049562076018367936
0.5202696326568144 0.5167452183621749 -0.049562076018367936
0.575580909493313 0.48625903471354326 -0.049562076018367936
0.5459097466503167 0.5070751066412578 -0.049562076018367936
0.5488504298274065 0.5145865146067081 -0.049562076018367936
0.5832575243788245 0.4796067027324112 -0.049562076018367936
0.5768034407017659 0.5398301319920635 -0.049562076018367936
0.53963188368799 0.5046851131977053 -0.049562076018367936
0.5884340078740764 0.4569843684786939 -0.049562076018367936
0.5517800992098256 0.5232763986019286 -0.049562076018367936
0.5802837998177225 0.5210185706944251 -0.049562076018367936
0.5884450216687471 0.5270100749953123 -0.049562076018367936
0.5024052577008604 0.40254318142118445 -0.04813028271117063
0.4588897549567334 0.3880380138398087 -0.04813028271117063
0.5034735957839229 0.49049934566178127 -0.04813028271117063
0.5184083013574579 0.5040793544908141 -0.04813028271117063
0.559776114140789 0.44785393269664336 -0.04813028271117063
0.5228468606097694 0.4422809525932447 -0.04813028271117063
0.5604259280263632 0.3300063297196351 -0.04813028271117063
0.521426081097243 0.5193444739044715 -0.04735931708421825
0.5144433352759884 0.5158531009938443 -0.04735931708421825
0.5622982731203904 0.530402323753903 -0.04735931708421825
0.5827068346452872 0.5364929522068268 -0.04735931708421825
0.573433219532517 0.4750690193280628 -0.04735931708421825
0.6055934999711025 0.513980755899817 -0.04735931708421825
0.5437620566895207 0.5173179356850537 -0.04735931708421825
0.5906808219869091 0.4543630853470558 -0.04735931708421825
0.5571548310091509 0.518353232384104 -0.04735931708421825
0.5805481308898205 0.49739398112566985 -0.04735931708421825
0.5713075571610625 0.5133419558089135 -0.04735931708421825
0.49315367017743167 0.4436466631324176 -0.04735931708421825
0.5184303289467993 0.4786705301853975 -0.04735931708421825
0.5410196218165043 0.44558509099446914 -0.04735931708421825
0.6589333075615371 0.544577077495156 -0.04735931708421825
0.6117171698080385 0.4255950536670608 -0.04735931708421825
0.6489658233845097 0.42196050142571384 -0.04735931708421825
0.6589112799721955 0.5347527726488485 -0.04735931708421825
0.5430131186519098 0.3590166648823865 -0.04735931708421825
0.6489327820004975 0.4580196651777442 -0.04735931708421825
0.5116678590189597 0.35778311987926276 -0.04735931708421825
0.5369995867616812 0.35906072006106954 -0.04735931708421825
0.6500231476729016 0.5500289058571766 -0.04735931708421825
0.4771285989314927 0.3540274158965376 -0.04735931708421825
0.6478203887387519 0.41875548717652605 -0.04735931708421825
0.6764782824720393 0.4460586841653114 -0.04592752377702095
0.579821220441551 0.4676897768986613 -0.04592752377702095
0.5161614872446251 0.4315535165839358 -0.04592752377702095
0.48285577216028186 0.41299527256372465 -0.04592752377702095
0.4903010973577078 0.4315535165839358 -0.04592752377702095
0.5285630200438879 0.5053128994939379 -0.04592752377702095
0.5286401166065832 0.5023501887275067 -0.04592752377702095
0.5386296283729519 0.5401275044481737 -0.04592752377702095
0.5912425255151172 0.4588787411620626 -0.04515655815006856
0.5871784352816111 0.49370435991096906 -0.04515655815006856
0.5460419121863657 0.5074275480707217 -0.04515655815006856
0.5647102941532842 0.5360524004199969 -0.04515655815006856
0.5604809969997168 0.48841773846900993 -0.04515655815006856
0.5982803403097254 0.47224948789235116 -0.04515655815006856
0.5332218551896145 0.5269109508432755 -0.04515655815006856
0.5705586191234516 0.5290696545987423 -0.04515655815006856
0.5742482403381524 0.4961824637118875 -0.04515655815006856
0.4920192493263446 0.4414108628142556 -0.04515655815006856
0.5153134250549775 0.4636697418438382 -0.04515655815006856
0.5179897771599694 0.46665448019961103 -0.04515655815006856
0.6584376868013534 0.5389159870343914 -0.04515655815006856
0.5787638961531593 0.3914633039824115 -0.04515655815006856
0.645716753956639 0.42243409459655606 -0.04515655815006856
0.6584817419800364 0.5382551593541465 -0.04515655815006856
0.5446431602631805 0.3424849590815932 -0.04515655815006856
0.6639886393154106 0.5496324092490296 -0.04515655815006856
0.49978397456922224 0.35482040911283136 -0.04515655815006856
0.5258315989655422 0.35906072006106954 -0.04515655815006856
0.6682509778529903 0.5538947477866093 -0.04515655815006856
0.4987376640755012 0.358950582114362 -0.04515655815006856
0.5612519626266693 0.36441342427105333 -0.04515655815006856
0.6068270449742261 0.35377409861911024 -0.04515655815006856
0.5752064404745075 0.44854780176090053 -0.043724764842871265
0.5460529259810363 0.457766347900317 -0.043724764842871265
0.5228468606097694 0.4422809525932447 -0.043724764842871265
0.44438458737535763 0.40428336097916256 -0.043724764842871265
0.5285299786598756 0.5040793544908141 -0.043724764842871265
0.5287282269639492 0.5023501887275067 -0.043724764842871265
0.4791661509455812 0.5621110386109877 -0.043724764842871265
0.6284911790915885 0.4536031335147741 -0.04295379921591887
0.602069085676463 0.3569901266629688 -0.04295379921591887
0.6591315558656106 0.5281334820517287 -0.04295379921591887
0.5233755227539654 0.3633230585986492 -0.04295379921591887
0.64514403663376 0.45669800981725434 -0.04295379921591887
0.5115577210722524 0.35892855452502054 -0.04295379921591887
0.5232213296285749 0.35912680282909404 -0.04295379921591887
0.6682509778529903 0.5538947477866093 -0.04295379921591887
0.5151041629562334 0.3642261897616505 -0.04295379921591887
0.5581791139135305 0.35987574086670493 -0.04295379921591887
0.599128402499373 0.40736722348697213 -0.04295379921591887
0.5446101188791683 0.4451775805916515 -0.04295379921591887
0.5671113013915073 0.48892437302386427 -0.04295379921591887
0.5427928427584949 0.5104563416051774 -0.04295379921591887
0.5777506270434503 0.47701846098478534 -0.04295379921591887
0.5311292342021723 0.5269990612006417 -0.04295379921591887
0.6004170164758507 0.4881754349862534 -0.04295379921591887
0.6017937408096942 0.4807301097888274 -0.04295379921591887
0.5425615530704091 0.5320543929545152 -0.04295379921591887
0.5459207604449875 0.3300063297196351 -0.04152200590872158
0.5314155928636117 0.46375785220120413 -0.04152200590872158
0.537230876449767 0.4315535165839358 -0.04152200590872158
0.5865176076013662 0.44536481510105425 -0.04152200590872158
0.5480354090217712 0.5448083671832418 -0.04152200590872158
0.5082756102603693 0.49906807791562363 -0.04152200590872158
0.5091677276287 0.5097514587462496 -0.04152200590872158
0.6453532987325042 0.49194215276364933 -0.04075104028176918
0.5588839967724584 0.35800339577267765 -0.04075104028176918
0.6437673122999163 0.46098237594417557 -0.04075104028176918
0.572948612567004 0.39387532501530537 -0.04075104028176918
0.6639886393154106 0.3424849590815932 -0.04075104028176918
0.47634661950986956 0.3469785873072586 -0.04075104028176918
0.45767823754295106 0.34327795229788716 -0.04075104028176918
0.5920465325260817 0.3382226205440136 -0.04075104028176918
0.6107479558770127 0.441521000760963 -0.04075104028176918
0.5209084327477178 0.35893956831969137 -0.04075104028176918
0.6479305266854593 0.4891887040959622 -0.04075104028176918
0.5424954703023847 0.4437237596951127 -0.04075104028176918
0.569974888005902 0.48719520726055676 -0.04075104028176918
0.5428589255265194 0.5106325623199094 -0.04075104028176918
0.5779158339635115 0.47710657134215123 -0.04075104028176918
0.5322416274639179 0.528210578614424 -0.04075104028176918
0.6027629547407201 0.5228138192257571 -0.04075104028176918
0.607884369262618 0.5067336790064645 -0.04075104028176918
0.5957802089194655 0.5126811281286687 -0.04075104028176918
0.6764782824720393 0.43403162038485416 -0.03931924697457189
0.5583002656549086 0.4460586841653114 -0.03931924697457189
0.522736722663062 0.4715005498547403 -0.03931924697457189
0.44438458737535763 0.5040793544908141 -0.03931924697457189
0.5433435324920323 0.5240253366395394 -0.03931924697457189
0.48852787641571727 0.4315535165839358 -0.03931924697457189
0.5228138192257571 0.4407169937499984 -0.03931924697457189
0.5205670051129245 0.45216032641290604 -0.03931924697457189
0.5091677276287 0.4325227305149616 -0.03931924697457189
0.5581901277082011 0.3569791128682982 -0.038548281347619506
0.6473247679785682 0.4621718657686163 -0.038548281347619506
0.5613290591893644 0.38047153690100455 -0.038548281347619506
0.6433157467184157 0.4296921852845792 -0.038548281347619506
0.5703163156406952 0.39265279380685225 -0.038548281347619506
0.5926633050276439 0.3618361963180981 -0.038548281347619506
0.5016122644845664 0.3476834701661864 -0.038548281347619506
0.5443017326283874 0.3569901266629688 -0.038548281347619506
0.641377318856364 0.5108858795973367 -0.038548281347619506
0.46013431375452796 0.35495257464888036 -0.038548281347619506
0.5615052799040965 0.3687969145500112 -0.038548281347619506
0.5435527945907765 0.44432951840200396 -0.038548281347619506
0.5682567360372652 0.4884838212370344 -0.038548281347619506
0.5433875876707153 0.5047732235550714 -0.038548281347619506
0.5836319933976301 0.4823601514000983 -0.038548281347619506
0.5253910471787123 0.5237720193621123 -0.038548281347619506
0.6018267821937064 0.5311072066128307 -0.038548281347619506
0.6042938721999541 0.5383542835061832 -0.038548281347619506
0.5938638086467554 0.5307988203620498 -0.038548281347619506
0.5034735957839229 0.42278653602601995 -0.037116488040422196
0.5168773838982239 0.4460586841653114 -0.037116488040422196
0.44438458737535763 0.4460586841653114 -0.037116488040422196
0.5331998276002731 0.5177584874718837 -0.037116488040422196
0.5889076010449186 0.4872723038232521 -0.037116488040422196
0.5812860551327607 0.460563851746687 -0.037116488040422196
0.5247852884718212 0.5336513931817737 -0.037116488040422196
0.5618246799495481 0.38161697154676233 -0.03634552241346982
0.6596161628311235 0.3468574355658802 -0.03634552241346982
0.6553317967042024 0.5433655600813737 -0.03634552241346982
0.5232874123965994 0.36478789328985867 -0.03634552241346982
0.6639886393154106 0.3424849590815932 -0.03634552241346982
0.618832081165342 0.44915356046779176 -0.03634552241346982
0.4869418899831296 0.3503267808871661 -0.03634552241346982
0.5143552249186224 0.36157186524600016 -0.03634552241346982
0.545590346604865 0.3382226205440136 -0.03634552241346982
0.6368065940680034 0.49769135358178007 -0.03634552241346982
0.4526229057890775 0.35561340232912525 -0.03634552241346982
0.5678932808131305 0.37106575625218535 -0.03634552241346982
0.544621132673839 0.444935277108895 -0.03634552241346982
0.5741381023914449 0.4756086952669295 -0.03634552241346982
0.5647763769213087 0.48462899310227237 -0.03634552241346982
0.6054723482297242 0.4892217454799745 -0.03634552241346982
0.6073336795290807 0.5044317959202781 -0.03634552241346982
0.525236854053322 0.5260739024482988 -0.03634552241346982
0.6089196659616685 0.5088813689672603 -0.03634552241346982
0.5314155928636117 0.41704834900256005 -0.03491372910627252
0.56612005987114 0.5239702676661858 -0.03491372910627252
0.5775083235606939 0.49774642255513374 -0.03491372910627252
0.5314155928636117 0.4635265625131184 -0.03491372910627252
0.44438458737535763 0.4750690193280628 -0.03491372910627252
0.5331667862162608 0.5195977911818987 -0.03491372910627252
0.6039414307704901 0.5621110386109877 -0.03491372910627252
0.5857796833584261 0.367706548877607 -0.03414276347932013
0.6591866248389643 0.5328583999654798 -0.03414276347932013
0.4733618811540968 0.34787070467558906 -0.03414276347932013
0.47957366134839896 0.3470556838699537 -0.03414276347932013
0.5910883323897268 0.36045947198425454 -0.03414276347932013
0.6300220965508224 0.47075161181712943 -0.03414276347932013
0.5206771430596321 0.35962242358927776 -0.03414276347932013
0.6472696990052146 0.4527440575304557 -0.03414276347932013
0.5195977911818987 0.3692594939261826 -0.03414276347932013
0.5115907624562646 0.3498201463323116 -0.03414276347932013
0.6562459416618744 0.48924377306931605 -0.03414276347932013
0.5236949227994172 0.4598479550930884 -0.03414276347932013
0.5423192495876527 0.5098505828982863 -0.03414276347932013
0.5759443647174477 0.47561970906160017 -0.03414276347932013
0.5981812161576887 0.5357330003745451 -0.03414276347932013
0.6014523131749009 0.47995914416187513 -0.03414276347932013
0.6056485689444561 0.5384864490422322 -0.03414276347932013
0.6048776033175037 0.5182761358214089 -0.03414276347932013
0.5180668737226646 0.5118991487070454 -0.032710970172122836
0.510962976160032 0.460563851746687 -0.032710970172122836
0.5585425691376651 0.4460586841653114 -0.032710970172122836
0.5941061121295119 0.48726129002858126 -0.032710970172122836
0.5946017328896954 0.4967331534454249 -0.032710970172122836
0.5718141917159171 0.5287172131692783 -0.032710970172122836
0.6545938724612621 0.5449185051299493 -0.03194000454517044
0.5519893613085698 0.3659663693196288 -0.03194000454517044
0.6407275049707899 0.45836109281253745 -0.03194000454517044
0.6500341614675723 0.5178245702399082 -0.03194000454517044
0.47159967400677705 0.347573332219479 -0.03194000454517044
0.5601395693649237 0.3608449547977309 -0.03194000454517044
0.6486133819550458 0.5347748002381901 -0.03194000454517044
0.5201594947101068 0.35700114045763964 -0.03194000454517044
0.6473688231572513 0.45283216788782166 -0.03194000454517044
0.48841773846900993 0.3604925133682668 -0.03194000454517044
0.6562459416618744 0.3502386705298 -0.03194000454517044
0.5134190523716088 0.47286626039391305 -0.03194000454517044
0.5401715596268568 0.506094878915561 -0.03194000454517044
0.5410196218165043 0.5058966306114877 -0.03194000454517044
0.5745896679729456 0.4756637642402832 -0.03194000454517044
0.5775854201233892 0.544279705039046 -0.03194000454517044
0.6044921205040277 0.5423522909716648 -0.03194000454517044
0.675090544343525 0.4315535165839358 -0.030508211237973145
0.5827949450026533 0.460563851746687 -0.030508211237973145
0.5890287527862967 0.5163377079593572 -0.030508211237973145
0.5923549187768629 0.5034405543999106 -0.030508211237973145
0.5405129872616499 0.5249504953918823 -0.030508211237973145
0.5420218771315424 0.49210735968371055 -0.030508211237973145
0.5939629327987921 0.5536964994825357 -0.030508211237973145
0.5834117175042152 0.4016730916421952 -0.029737245611020754
0.640375063541326 0.42609067442724446 -0.029737245611020754
0.6506178925851219 0.5247632608824797 -0.029737245611020754
0.45688524432665717 0.3519237811144246 -0.029737245611020754
0.6639886393154106 0.3424849590815932 -0.029737245611020754
0.5939629327987921 0.4185352112831111 -0.029737245611020754
0.5495002437129806 0.3382226205440136 -0.029737245611020754
0.6406724359974362 0.5196638739499232 -0.029737245611020754
0.4970966086695596 0.3507122637006423 -0.029737245611020754
0.6474899748986295 0.4981649467526222 -0.029737245611020754
0.5425064840970555 0.44332726308696574 -0.029737245611020754
0.5750412335544463 0.47491482620267234 -0.029737245611020754
0.5585535829323358 0.4887151109251201 -0.029737245611020754
0.6076971347532154 0.4960172567918263 -0.029737245611020754
0.6062543276513473 0.5403808217256009 -0.029737245611020754
0.607014279483629 0.5353805589450812 -0.029737245611020754
0.5286180890172416 0.5274946819608254 -0.029737245611020754
0.5832024554054709 0.53639382805479 -0.028305452303823458
0.5761536268161919 0.4636367004598259 -0.028305452303823458
0.5604259280263632 0.4460586841653114 -0.028305452303823458
0.5418126150327983 0.49436518759121395 -0.028305452303823458
0.5349840623369342 0.5419227529795057 -0.028305452303823458
0.6065847414914698 0.42813924023600375 -0.027534486676871073
0.645408367705858 0.4223569980338608 -0.027534486676871073
0.6496486786540961 0.524091419407564 -0.027534486676871073
0.5096743621835543 0.3590166648823865 -0.027534486676871073
0.5528374234982175 0.3618472101127689 -0.027534486676871073
0.645628643599273 0.4568522029426449 -0.027534486676871073
0.5322085860799056 0.3726187013007608 -0.027534486676871073
0.5611418246799618 0.3585871268902274 -0.027534486676871073
0.633898952274926 0.4978345329124997 -0.027534486676871073
0.5268558818699218 0.3382226205440136 -0.027534486676871073
0.5623643558884148 0.371076770046856 -0.027534486676871073
0.5435638083854472 0.44393302179385696 -0.027534486676871073
0.5705806467127931 0.48781197976211865 -0.027534486676871073
0.5475508020562582 0.5015021265378591 -0.027534486676871073
0.5801516342816735 0.4784832956759948 -0.027534486676871073
0.597949926469603 0.4631190521103008 -0.027534486676871073
0.591077318595056 0.5464384087945127 -0.027534486676871073
0.6033466858582698 0.5428919669105317 -0.027534486676871073
0.5285189648652049 0.5255121989200906 -0.027534486676871073
0.5352043382303492 0.5314816756316362 -0.027534486676871073
0.5468789605813424 0.523959253871515 -0.02610269336967377
0.44438458737535763 0.460563851746687 -0.02610269336967377
0.5830152208960682 0.47012382552089677 -0.02610269336967377
0.5832024554054709 0.5492579402302242 -0.02610269336967377
0.4588897549567334 0.3880380138398087 -0.02610269336967377
0.6406944635867776 0.42565012264041463 -0.025331727742721386
0.6403640497466552 0.4925038562918575 -0.025331727742721386
0.46130177598962724 0.3469014907445633 -0.025331727742721386
0.4675245699786001 0.3515272845062776 -0.025331727742721386
0.6468401610130553 0.42646514344604997 -0.025331727742721386
0.6004830992438751 0.4288771644789438 -0.025331727742721386
0.5514056301910201 0.3583998923808246 -0.025331727742721386
0.6682509778529903 0.45351502315740816 -0.025331727742721386
0.5104122864264945 0.3693035491048657 -0.025331727742721386
0.5951964778019159 0.41128813438975864 -0.025331727742721386
0.512053341832436 0.4707185704331172 -0.025331727742721386
0.5486852229073452 0.4988478020222087 -0.025331727742721386
0.545193849996718 0.5126370729499857 -0.025331727742721386
0.6021131408551459 0.47781145420107907 -0.025331727742721386
0.5990623197313485 0.46456185921216886 -0.025331727742721386
0.6113427007892331 0.5294881787962308 -0.025331727742721386
0.5734772747112 0.54492951892462 -0.025331727742721386
0.5274946819608254 0.5291687787507792 -0.025331727742721386
0.54125091150459 0.5345875657287873 -0.025331727742721386
0.5604259280263632 0.4315535165839358 -0.02389993443552409
0.5963419124476736 0.5330896896535655 -0.02389993443552409
0.5314155928636117 0.46314107969964224 -0.02389993443552409
0.5292899304921573 0.5040793544908141 -0.02389993443552409
0.5198621222539965 0.5330896896535655 -0.02389993443552409
0.627059385784391 0.46355960389713063 -0.0231289688085717
0.5895353873411512 0.3468574355658802 -0.0231289688085717
0.6439435330146485 0.5067446928011353 -0.0231289688085717
0.5146746249640741 0.3626181757397214 -0.0231289688085717
0.5798983170042463 0.3632569758306247 -0.0231289688085717
0.6409257532748633 0.5138265627744265 -0.0231289688085717
0.45688524432665717 0.3424849590815932 -0.0231289688085717
0.6469062437810799 0.4514113883752952 -0.0231289688085717
0.5359092210892771 0.3813526404746644 -0.0231289688085717
0.6295264757906388 0.3502276567351294 -0.0231289688085717
0.6505187684330853 0.5201374671207654 -0.0231289688085717
0.5425064840970555 0.44308495960420935 -0.0231289688085717
0.5819578966076763 0.48353862742986836 -0.0231289688085717
0.611254590431867 0.5136283144703531 -0.0231289688085717
0.6067279208221894 0.48513562765712687 -0.0231289688085717
0.6058688448378712 0.5415042287820173 -0.0231289688085717
0.5900860770746886 0.5485420435766256 -0.0231289688085717
0.5472314020108066 0.5388278766770255 -0.0231289688085717
0.5832024554054709 0.5436298911534717 -0.02257827907503427
0.5314155928636117 0.41704834900256005 -0.021697175501374392
0.5867378834947811 0.4750690193280628 -0.021697175501374392
0.5100708587917012 0.460563851746687 -0.021697175501374392
0.5894362631891145 0.5185845220721897 -0.021697175501374392
0.4791661509455812 0.5621110386109877 -0.021697175501374392
0.6596161628311235 0.46209476920592113 -0.020926209874422022
0.5308428755407327 0.36972207330235407 -0.020926209874422022
0.5263382335203968 0.36652807284783695 -0.020926209874422022
0.49248182870251606 0.3468574355658802 -0.020926209874422022
0.6442078640867464 0.4282163367986989 -0.020926209874422022
0.582971165717385 0.4121141689900648 -0.020926209874422022
0.5541150236800243 0.35816860269273887 -0.020926209874422022
0.6419610499739138 0.5466917260719398 -0.020926209874422022
0.46470503854288847 0.361759099755403 -0.020926209874422022
0.6562459416618744 0.3769471226063649 -0.020926209874422022
0.5174721288104441 0.4785934336227022 -0.020926209874422022
0.541471187398005 0.44362463554307596 -0.020926209874422022
0.5474406641095507 0.5146856387587448 -0.020926209874422022
0.6063534518033841 0.4917328906649052 -0.020926209874422022
0.6088095280149609 0.4871401382872031 -0.020926209874422022
0.544621132673839 0.5351933244356785 -0.020926209874422022
0.6764782824720393 0.4460586841653114 -0.019494416567224716
0.6016175200949622 0.5040793544908141 -0.019494416567224716
0.534862910595556 0.4385803175838732 -0.019494416567224716
0.5321755446958935 0.5185845220721897 -0.019494416567224716
0.5221860329295246 0.5300168409404268 -0.019494416567224716
0.5898327597972615 0.5548419341282936 -0.019494416567224716
0.6400887048798866 0.457325796113487 -0.018723450940272324
0.5327702896081138 0.3727178254527975 -0.018723450940272324
0.5247192057037966 0.3626402033290628 -0.018723450940272324
0.6426439052435001 0.45019987096151287 -0.018723450940272324
0.5420989736942377 0.38218968886964116 -0.018723450940272324
0.648998864768522 0.43028693019679964 -0.018723450940272324
0.5688184395654734 0.4061116508945069 -0.018723450940272324
0.5760324750748137 0.359082747650411 -0.018723450940272324
0.6562459416618744 0.5418786978008228 -0.018723450940272324
0.5347637864435193 0.44785393269664336 -0.018723450940272324
0.5173950322477491 0.47858241982803157 -0.018723450940272324
0.5128793764327422 0.47179792231085055 -0.018723450940272324
0.5821010759383961 0.48187554443458525 -0.018723450940272324
0.5475618158509289 0.5367132281002417 -0.018723450940272324
0.6112215490478548 0.49742702250968207 -0.018723450940272324
0.5782021926249511 0.5471983606267943 -0.018723450940272324
0.5024052577008604 0.40254318142118445 -0.01729165763307504
0.6537568240662853 0.4460586841653114 -0.01729165763307504
0.536614103948205 0.527814082006277 -0.01729165763307504
0.5471432916534404 0.524664136730443 -0.01729165763307504
0.5219437294467681 0.4714454808813866 -0.01729165763307504
0.5295542615642553 0.5040793544908141 -0.01729165763307504
0.6433598018970987 0.5154345767963558 -0.016520692006122644
0.46876912877639465 0.3543578297366601 -0.016520692006122644
0.6596161628311235 0.3468574355658802 -0.016520692006122644
0.634328490267085 0.5002685815347352 -0.016520692006122644
0.5298956891990484 0.36069076167234027 -0.016520692006122644
0.6452541745804675 0.5496324092490296 -0.016520692006122644
0.47589505392836895 0.3650191829779444 -0.016520692006122644
0.6682509778529903 0.4726790258845104 -0.016520692006122644
0.5748209576610314 0.39689310475509043 -0.016520692006122644
0.5122846315205217 0.4717208257481552 -0.016520692006122644
0.5815393724101878 0.48085126153020574 -0.016520692006122644
0.581924855223664 0.5444669395484486 -0.016520692006122644
0.5878612905511974 0.5475948572349412 -0.016520692006122644
0.5459207604449875 0.3300063297196351 -0.01508889869892534
0.5420659323102255 0.4315535165839358 -0.01508889869892534
0.5734111919431756 0.4641433350146803 -0.01508889869892534
0.5063481961929883 0.4627776244755075 -0.01508889869892534
0.5953947261059893 0.5377485247992921 -0.01508889869892534
0.5337064621551274 0.537924745514024 -0.01508889869892534
0.6392626702795804 0.5044097683309366 -0.014317933071972946
0.5255562540987736 0.3468574355658802 -0.014317933071972946
0.6409037256855219 0.4252976812109506 -0.014317933071972946
0.6089747349350222 0.44939586395054815 -0.014317933071972946
0.5748209576610314 0.36315785167858794 -0.014317933071972946
0.6388221184927504 0.5465155053572078 -0.014317933071972946
0.4526229057890775 0.3382226205440136 -0.014317933071972946
0.6388221184927504 0.5465155053572078 -0.014317933071972946
0.624173771580655 0.4590880032608069 -0.014317933071972946
0.4822169720693785 0.3548093953181607 -0.014317933071972946
0.5224393502069518 0.35904970626639876 -0.014317933071972946
0.5116348176349474 0.47060843248640966 -0.014317933071972946
0.547649926208295 0.5152143009029407 -0.014317933071972946
0.5826627794666043 0.5477049951816486 -0.014317933071972946
0.6090738590870589 0.513936700721134 -0.014317933071972946
0.44438458737535763 0.40254318142118445 -0.012886139764775663
0.5433435324920323 0.5297855512523411 -0.012886139764775663
0.5664174323272502 0.5358871934999356 -0.012886139764775663
0.5584544587802991 0.5185845220721897 -0.012886139764775663
0.5282326062037654 0.44168620768102423 -0.012886139764775663
0.5205670051129245 0.4538454369975305 -0.012886139764775663
0.5740389782394082 0.5040793544908141 -0.012886139764775663
0.5978838437015784 0.47574086080297834 -0.012886139764775663
0.6382824425538838 0.44179634562773173 -0.01211517413782327
0.5454031120954622 0.38294964070192283 -0.01211517413782327
0.6596161628311235 0.3468574355658802 -0.01211517413782327
0.5932470361451935 0.42924061970307853 -0.01211517413782327
0.5781911788302803 0.3570121542523104 -0.01211517413782327
0.6106378179303051 0.4618634795178354 -0.01211517413782327
0.5739288402927006 0.3570121542523104 -0.01211517413782327
0.5938527948520845 0.41263181733959 -0.01211517413782327
0.5246421091411015 0.36342218275068594 -0.01211517413782327
0.6205832745179911 0.45559663035017955 -0.01211517413782327
0.5477160089763194 0.5153905216176727 -0.01211517413782327
0.5425174978917261 0.4426884629960624 -0.01211517413782327
0.5906587943975676 0.5464714501785249 -0.01211517413782327
0.6537678378609559 0.43708244150865144 -0.010683380830625965
0.5482777125045276 0.3300063297196351 -0.010683380830625965
0.5473415399575139 0.525181785079968 -0.010683380830625965
0.5393455250265506 0.4343510204303058 -0.010683380830625965
0.5314155928636117 0.4733288397700845 -0.010683380830625965
0.5900089805119935 0.49042224909908616 -0.010683380830625965
0.5629811283899767 0.48026753041265596 -0.010683380830625965
0.5463943536158296 0.49660098790937596 -0.010683380830625965
0.5530576993916324 0.5467908502239766 -0.010683380830625965
0.5598421969088134 0.551064202556227 -0.010683380830625965
0.5362286211347288 0.3793261022552467 -0.009912415203673591
0.6426769466275124 0.4236235844209968 -0.009912415203673591
0.599304623214105 0.4391310073174106 -0.009912415203673591
0.5747879162770191 0.36164896180869543 -0.009912415203673591
0.6307820483831041 0.5140027834891584 -0.009912415203673591
0.5387287525249888 0.3590937614450818 -0.009912415203673591
0.6470053679331166 0.5326271102773941 -0.009912415203673591
0.46792106658674704 0.3523312915172422 -0.009912415203673591
0.5266245921818361 0.3659883969089704 -0.009912415203673591
0.6056926241231392 0.43502286190522155 -0.009912415203673591
0.5492138850515412 0.5147407077320987 -0.009912415203673591
0.5425174978917261 0.4426113664333671 -0.009912415203673591
0.6031153961701841 0.5461520501330731 -0.009912415203673591
0.5983133816937377 0.5482226435311738 -0.009912415203673591
0.5582341828868842 0.3522541949545471 -0.008480621896476286
0.5024052577008604 0.4142508451561899 -0.008480621896476286
0.5894362631891145 0.460563851746687 -0.008480621896476286
0.5537515684558896 0.505092623600523 -0.008480621896476286
0.5604259280263632 0.48278968939225736 -0.008480621896476286
0.579556889369453 0.4960172567918263 -0.008480621896476286
0.5267016887445315 0.4777233438437131 -0.008480621896476286
0.5597100313727644 0.5185845220721897 -0.008480621896476286
0.5615162936987672 0.5475508020562582 -0.008480621896476286
0.5868810628255009 0.5553926238618312 -0.008480621896476286
0.5081214171349788 0.36825723861114457 -0.007709656269523893
0.6425998500648171 0.423094922276801 -0.007709656269523893
0.5910442772110438 0.429967530151348 -0.007709656269523893
0.574964136991751 0.3593691063118506 -0.007709656269523893
0.6281827928408075 0.5084077757964183 -0.007709656269523893
0.5383873248901955 0.358388878586154 -0.007709656269523893
0.6562459416618744 0.517350977069066 -0.007709656269523893
0.5344003312193846 0.37576864657659487 -0.007709656269523893
0.642038146536609 0.5147517215267693 -0.007709656269523893
0.49048833186711066 0.3600079064027539 -0.007709656269523893
0.545722512140914 0.5140358248731707 -0.007709656269523893
0.5446431602631805 0.4439109942045155 -0.007709656269523893
0.6059129000165541 0.5447863395939003 -0.007709656269523893
0.5459207604449875 0.33281484736067607 -0.0062778629623266085
0.5604259280263632 0.4315535165839358 -0.0062778629623266085
0.5389600422130745 0.457457961649536 -0.0062778629623266085
0.5718141917159171 0.50298898881841 -0.0062778629623266085
0.512317672904534 0.48678769685773904 -0.0062778629623266085
0.5731138194870653 0.5443788291910827 -0.0062778629623266085
0.5859118488944749 0.5374621661378527 -0.0062778629623266085
0.6179289500023407 0.46482619028426664 -0.005506897335374215
0.5377375110046213 0.36716687293874045 -0.005506897335374215
0.6596161628311235 0.4636477142544966 -0.005506897335374215
0.4752011848641118 0.3665390866425077 -0.005506897335374215
0.6426769466275124 0.4303640267594949 -0.005506897335374215
0.5506016231800556 0.401243553650036 -0.005506897335374215
0.646939285165092 0.4303640267594949 -0.005506897335374215
0.5457445397302555 0.3782797917615256 -0.005506897335374215
0.4874375107433133 0.36059163752030354 -0.005506897335374215
0.6459039884660416 0.5419668081581888 -0.005506897335374215
0.512185507368485 0.4693638736886151 -0.005506897335374215
0.5828610277706777 0.48202973755997586 -0.005506897335374215
0.5483658228618936 0.34626269065365983 -0.00407510402817691
0.5846122211233267 0.4460586841653114 -0.00407510402817691
0.5662412116125184 0.4750690193280628 -0.00407510402817691
0.5970357815119308 0.5383102283275003 -0.00407510402817691
0.5687413430027781 0.5467137536612813 -0.00407510402817691
0.554434423725476 0.5231552468605504 -0.00407510402817691
0.675090544343525 0.4315535165839358 -0.00407510402817691
0.6400005945225204 0.5312834273275627 -0.003304138401224517
0.5662852667912013 0.3677395902616193 -0.003304138401224517
0.6304185931589694 0.5094761138794808 -0.003304138401224517
0.5707568674275252 0.36151679627264643 -0.003304138401224517
0.6044260377360031 0.4602554654959061 -0.003304138401224517
0.6490208923578634 0.42697177800090436 -0.003304138401224517
0.6355620352702089 0.3562632162146994 -0.003304138401224517
0.5723208262707714 0.4041291678537721 -0.003304138401224517
0.6465097471729329 0.5249064402131994 -0.003304138401224517
0.5489715815687847 0.44799711202736314 -0.003304138401224517
0.5479693262537466 0.51608439068193 -0.003304138401224517
0.5598642244981549 0.3445114973010109 -0.0018723450940272323
0.5894362631891145 0.460563851746687 -0.0018723450940272323
0.5736534954259319 0.4638129211745578 -0.0018723450940272323
0.5969366573598941 0.5371207385030594 -0.0018723450940272323
0.5862863179132805 0.54081035971776 -0.0018723450940272323
0.5439823325829357 0.5244989298103817 -0.0018723450940272323
0.6383044701432252 0.427731729833186 -0.001101379467074839
0.5388388904716962 0.3863749308445257 -0.001101379467074839
0.6435470364065015 0.42453772937866907 -0.001101379467074839
0.5460308983916948 0.39600098738675976 -0.001101379467074839
0.6467079954770063 0.42182833588966484 -0.001101379467074839
0.5535643339464867 0.4056710991076769 -0.001101379467074839
0.6475340300773125 0.426332977910001 -0.001101379467074839
0.5902182426107376 0.41626636958093693 -0.001101379467074839
0.5250496195439192 0.37533910858443564 -0.001101379467074839
0.636696456121296 0.5078791136522224 -0.001101379467074839
0.5425285116863969 0.44229196638791546 -0.001101379467074839
0.5466256433039153 0.5151261905455748 -0.001101379467074839
0.5495442988916637 0.3445114973010109 3.304138401224654E-4
0.5195427222085449 0.460563851746687 3.304138401224654E-4
0.5039912441334482 0.4750690193280628 3.304138401224654E-4
0.5389600422130745 0.5185845220721897 3.304138401224654E-4
0.5919363945793744 0.55228673376468 3.304138401224654E-4
0.5356118486331669 0.3631688654732588 0.001101379467074839
0.6490098785631928 0.4673813906478804 0.001101379467074839
0.47547652973088056 0.3660985348556777 0.001101379467074839
0.6426769466275124 0.4533718438266884 0.001101379467074839
0.520897418953047 0.383775675302229 0.001101379467074839
0.6490098785631928 0.4587465756260136 0.001101379467074839
0.46846074252561376 0.3740945497866411 0.001101379467074839
0.6123229285149298 0.4548587061072395 0.001101379467074839
0.5529365476502541 0.3710877838415268 0.001101379467074839
0.5832465105841539 0.48526779319317587 0.001101379467074839
0.5110841279014101 0.47055336351305593 0.001101379467074839
0.6743305925112434 0.4460586841653114 0.002092620987442196
0.5491588160781875 0.35226520874921774 0.002092620987442196
0.5622872593257195 0.44848171899287603 0.002092620987442196
0.5842377521045212 0.4970084983121937 0.002092620987442196
0.6039414307704901 0.49132538026208744 0.002092620987442196
0.6002958647344725 0.5428368979371779 0.002092620987442196
0.5431562979826295 0.3677395902616193 0.003304138401224537
0.6596161628311235 0.5452599327647426 0.003304138401224537
0.5368233660469492 0.3424849590815932 0.003304138401224537
0.6639886393154106 0.46427550055072925 0.003304138401224537
0.45731478231881634 0.3706362182600262 0.003304138401224537
0.6295044482012974 0.5454471672741452 0.003304138401224537
0.4915786975395146 0.366880514277301 0.003304138401224537
0.6388882012607748 0.528210578614424 0.003304138401224537
0.6032806030902453 0.3502276567351294 0.003304138401224537
0.574964136991751 0.47324072941271855 0.003304138401224537
