-0.19198730615697968 0.48132158976101946 -0.12978981145674656
0.3255091520499202 0.15962761152829757 -0.12978981145674656
0.6231850868813935 0.48132158976101946 -0.12978981145674656
0.764013960593714 0.49430057090669416 -0.12840415510667452
0.5339118671007531 0.5563872130989215 -0.12840415510667452
0.5366185158378939 0.39925378300075365 -0.12840415510667452
-0.053236916969767345 0.28932504589503943 -0.12840415510667452
0.7123936426990307 0.19485099594712854 -0.12840415510667452
0.7419173606645654 0.21986671192042886 -0.12840415510667452
0.3097126696590991 0.16498548274857622 -0.1279422696566505
0.5594264193600794 0.44482340150012234 -0.1279422696566505
-0.11899092963518525 0.49348765251465193 -0.1279422696566505
0.5665948815444521 0.15494409306505422 -0.12655661330657847
0.763819968704704 0.49913189271394526 -0.12655661330657847
0.5303461114265678 0.5579576236290033 -0.12655661330657847
0.6946941922541108 0.19719737403325055 -0.12655661330657847
0.563768142590305 0.35436775496742035 -0.12655661330657847
0.3944132234845019 0.256401851017328 -0.12655661330657847
0.6231850868813935 0.3353195990084302 -0.12609472785655448
0.31595736094342375 0.17715154550220855 -0.12609472785655448
0.3432178402038407 0.22239784418656044 -0.12470907150648244
0.7581018268334068 0.49212047158258093 -0.12470907150648244
0.31717673853148703 0.5667703980154611 -0.12470907150648244
0.5887746208546049 0.18175192458444772 -0.12470907150648244
0.3597256261876989 0.46647659139724784 -0.12470907150648244
-0.04289992059823002 0.26920531569199363 -0.12470907150648244
-0.056266885521924874 0.42176607983492387 -0.12470907150648244
0.5633154948492815 0.4159093723286194 -0.12424718605645843
-0.08248350366528757 0.43264810103748946 -0.12424718605645843
0.7480973879858868 0.49834668744890465 -0.12286152970638642
0.6072500388555653 0.1690685501267884 -0.12286152970638642
0.5690521121385798 0.34200770032477795 -0.12286152970638642
-0.06646531625845499 0.4446478850291132 -0.12286152970638642
0.6988142104683249 0.2039131884765997 -0.12286152970638642
0.5647750528713575 0.35419223849641135 -0.12286152970638642
0.23605117808927012 0.2677919462149201 -0.12286152970638642
0.3939513380344779 0.5508630631166345 -0.12286152970638642
0.47718309612880444 0.2403282373564925 -0.1223996442563624
-0.07085322803368302 0.45025517439240476 -0.1223996442563624
0.5231961246601962 0.5572647954539671 -0.12101398790629037
0.5962664028539943 0.23083187250399895 -0.12101398790629037
0.31784185357952166 0.15415888780001333 -0.12101398790629037
0.48446241082118263 0.28493713411981136 -0.12101398790629037
0.7215112614825047 0.5031225830021528 -0.12101398790629037
0.5601746737891182 0.3702935652842482 -0.12101398790629037
0.6972437999382434 0.22104913867249035 -0.12101398790629037
0.32307039687379346 0.49448532508670384 -0.12055210245626637
0.30639633212792666 0.5440548715832804 -0.11981308573622794
0.2216865405935235 0.22816217460286017 -0.11981308573622794
0.5193809508429977 0.5546320483888303 -0.11916644610619434
0.748411470091903 0.22520610772270644 -0.11916644610619434
0.31858087029956006 0.16783993482972456 -0.11916644610619434
0.36827974472214353 0.24182474621457034 -0.11916644610619434
0.36755920342010606 0.17427861800305927 -0.11916644610619434
0.31413753227032915 0.39348945258445395 -0.11916644610619434
0.49424514465269115 0.2846969536857988 -0.11916644610619434
0.6494663689877599 0.5242030349412484 -0.11916644610619434
0.2968445410214302 0.16498548274857622 -0.11796554393613191
0.29229035048419355 0.5414221245181435 -0.11796554393613191
0.6475172123886584 0.3231535362547979 -0.11796554393613191
0.3200866168666383 0.5571354675279603 -0.11731890430609829
0.502817738605137 0.5495974969835687 -0.11731890430609829
-0.04743563571746579 0.2733345716152083 -0.11731890430609829
0.3979605037406863 0.24117810658453667 -0.11731890430609829
0.17807531640225652 0.2642446659587357 -0.11731890430609829
0.3819607917518546 0.2947752942053228 -0.11731890430609829
-0.03423494955577959 0.39751709370866334 -0.11731890430609829
-0.011722652721609404 0.3102761699081285 -0.11731890430609829
0.39833001210070557 0.16963205037581774 -0.11731890430609829
0.526041339032344 0.18529920484063211 -0.11731890430609829
0.4865224199282899 0.1741031015320501 -0.11731890430609829
0.47835628517186524 0.250147922024003 -0.11685701885607429
0.2946829171153178 0.16498548274857622 -0.11611800213603587
0.3219433963757349 0.48136777830602184 -0.11611800213603587
0.5070208962003553 0.24388475532167742 -0.11611800213603587
0.3243082498798578 0.49240684056159584 -0.11547136250600226
0.49898408936993754 0.5432327154822376 -0.11547136250600226
-0.06262242931425513 0.2713392264711045 -0.11547136250600226
0.3853602686640313 0.26761642974391103 -0.11547136250600226
0.07040058029265943 0.32236833098975703 -0.11547136250600226
0.2830434037747128 0.32241451953475936 -0.11547136250600226
0.04776819324148296 0.3968796917876302 -0.11547136250600226
0.16549355674360242 0.4431883270070374 -0.11547136250600226
-0.050363989470617945 0.3997803324137809 -0.11547136250600226
0.7140287171921157 0.20591777132970387 -0.11547136250600226
0.3338230901503524 0.18611212323267431 -0.11547136250600226
0.3127703513382581 0.5052564937812637 -0.11500947705597825
0.602548044974321 0.3961499127765922 -0.11427046033593984
-0.14332305514245006 0.49583403060077386 -0.11427046033593984
0.28729274991493364 0.2136497337631057 -0.11427046033593984
0.31876562447956974 0.5256164044183221 -0.11362382070590624
0.6185292815451516 0.517228564645886 -0.11362382070590624
0.5408031980151115 0.4061266384971109 -0.11362382070590624
0.4956123255847624 0.4501627973023999 -0.11362382070590624
0.17770580804223723 0.3931753704784377 -0.11362382070590624
0.183858122236557 0.4292209109983114 -0.11362382070590624
0.37011804881323906 0.47023633896044337 -0.11362382070590624
0.07106569534069403 0.29049823493810034 -0.11362382070590624
0.40335532579696665 0.24989850388099 -0.11362382070590624
0.12494925194049493 0.4374517097177391 -0.11362382070590624
0.3004472475316175 0.17620929918415953 -0.11362382070590624
0.6462701216735938 0.19860150580132355 -0.11362382070590624
0.18225076087047354 0.4905592987614997 -0.11316193525588222
-0.0634630608332989 0.2598105656385052 -0.11316193525588222
0.5866868986204964 0.27448004753126776 -0.11316193525588222
0.3872447613001293 0.47697986653079383 -0.11177627890581018
0.5619113630812086 0.540045705877072 -0.11177627890581018
0.5326278255496864 0.42076840726287196 -0.11177627890581018
0.735524866036233 0.22481812394468625 -0.11177627890581018
0.37581771526653523 0.4670493293552777 -0.11177627890581018
0.09432624660390314 0.2760504580613494 -0.11177627890581018
0.003796698399197368 0.2710713329100906 -0.11177627890581018
0.29653045891541385 0.32257156058776765 -0.11177627890581018
0.13737397054614076 0.39685197866062877 -0.11177627890581018
0.09878806005113511 0.4499410922863884 -0.11177627890581018
0.3579057975146042 0.5347063100747944 -0.11177627890581018
0.503593706161177 0.22444861558466714 -0.11177627890581018
0.45759915304778637 0.18279578570150198 -0.11177627890581018
-0.04824855410950799 0.32489022554688807 -0.11177627890581018
-0.07573073838593662 0.46915552700738716 -0.11131439345578618
0.2634132721486924 0.49348765251465193 -0.11131439345578618
0.029357439203525997 0.250147922024003 -0.11131439345578618
0.30639633212792666 0.23712275233332594 -0.11131439345578618
0.2920039815051786 0.2651314860227818 -0.10992873710571416
0.32168474052372137 0.4077247621541939 -0.10992873710571416
0.6501869102897971 0.5170622858838773 -0.10992873710571416
0.5061156007183084 0.4423384577789931 -0.10992873710571416
0.5095427907574864 0.2492333888329554 -0.10992873710571416
0.3966672244806191 0.48378805806414765 -0.10992873710571416
0.40241307947891786 0.47504918534969354 -0.10992873710571416
0.5187435489219647 0.22704441181380197 -0.10992873710571416
0.30296914208874853 0.31354631889429846 -0.10992873710571416
-0.03708940163692794 0.272290710498154 -0.10992873710571416
0.30041029669561553 0.46505398421117394 -0.10992873710571416
0.03596240113886936 0.39669493760762065 -0.10992873710571416
0.20734961622477818 0.2844844863787878 -0.10992873710571416
0.3562799607305197 0.18800585357777275 -0.10992873710571416
0.1309075742458046 0.2737225553932283 -0.10992873710571416
0.38318016933991805 0.531288357744617 -0.10992873710571416
0.27774095880843724 0.50537658399827 -0.10946685165569014
0.02458154365027778 0.46915552700738716 -0.10946685165569014
-0.03751433625095009 0.250147922024003 -0.10946685165569014
0.2729650632551889 0.22581579651673817 -0.10946685165569014
0.3212043796556965 0.41507797851857614 -0.1080811953056181
0.33996616663567164 0.42091621060687967 -0.1080811953056181
0.3438921929608758 0.2915051452191528 -0.1080811953056181
0.3003918212776146 0.26121469740657816 -0.1080811953056181
0.31689036955247224 0.4947070301027154 -0.1080811953056181
0.6227047260133686 0.4908456677405146 -0.1080811953056181
0.5474820616224585 0.30395757695180003 -0.1080811953056181
0.5228450917181778 0.18774719772575937 -0.1080811953056181
0.5075474456133828 0.19358542981406276 -0.1080811953056181
0.3369084849565128 0.48981104433246087 -0.1080811953056181
0.5049054608392455 0.5231222229881923 -0.1080811953056181
0.09674652636202895 0.44260635134000714 -0.1080811953056181
0.39857019253471787 0.23912733518643012 -0.1080811953056181
0.37794238833664573 0.4843607960221775 -0.1080811953056181
-0.07201717936774357 0.42219101444894586 -0.1080811953056181
0.20609328780071293 0.2379818592703705 -0.1076193098555941
-0.07095484283268827 0.46031503949392766 -0.1076193098555941
0.1869804678787194 0.48132158976101946 -0.1076193098555941
0.11533279687099508 0.22452251725667094 -0.10688029313555569
-0.09778114977008281 0.44482340150012234 -0.10688029313555569
0.16136430082038788 0.40575713013709164 -0.10623365350552208
-0.04782361949548597 0.40285648951094094 -0.10623365350552208
-0.0462439712564038 0.4061266384971109 -0.10623365350552208
0.6185292815451516 0.5171546629738822 -0.10623365350552208
-0.051103006190656344 0.40044544746181554 -0.10623365350552208
0.3071076357209637 0.22388511533563776 -0.10623365350552208
-0.07266381899777712 0.4535345610875751 -0.10623365350552208
0.2515890046280778 0.51961189356801 -0.10623365350552208
0.3641320133809278 0.21279062682606112 -0.10623365350552208
0.410172755039321 0.20101254785044884 -0.10623365350552208
0.3695545485642097 0.4229115557509833 -0.10623365350552208
0.34273747933581583 0.22751553497282648 -0.10623365350552208
0.4044084246230214 0.48250401651308106 -0.10623365350552208
0.5038431243041902 0.28044760754557796 -0.10623365350552208
0.5111963406685723 0.23230066823507522 -0.10623365350552208
-0.05603594279691282 0.31803584546853186 -0.10623365350552208
0.5408586242691144 0.522152263543142 -0.10623365350552208
0.11294946794887124 0.4565737673487332 -0.10623365350552208
0.010244619281532474 0.470652035865465 -0.10577176805549807
0.6231850868813935 0.3961499127765922 -0.10503275133545965
-0.09801209249509474 0.3231535362547979 -0.10503275133545965
0.11851056876716022 0.31878409989757067 -0.10438611170542605
0.031389735183631626 0.313555556603299 -0.10438611170542605
0.5102633320595239 0.19183950281297207 -0.10438611170542605
0.3021192728607044 0.22389435304463828 -0.10438611170542605
0.1335772721469434 0.2590161226644639 -0.10438611170542605
0.5305123901885764 0.23157088922403735 -0.10438611170542605
0.2449655672747335 0.20144672017347137 -0.10438611170542605
0.12214098840434894 0.46993149456342753 -0.10438611170542605
0.08742567798054444 0.44699426311523516 -0.10438611170542605
0.5016999758160788 0.2826369445786917 -0.10438611170542605
0.4048703100730455 0.19409350380908924 -0.10438611170542605
0.6116564260487943 0.2145827423721543 -0.10438611170542605
0.3818037506988465 0.4402137847088828 -0.10438611170542605
0.5059677973743005 0.48206060648105803 -0.10438611170542605
-0.032738440697701744 0.25076684852703507 -0.10392422625540203
0.6231850868813935 0.3353195990084302 -0.10318520953536361
0.004046116542210342 0.40053782455182035 -0.10253856990533
0.15083331255984048 0.27710355688740407 -0.10253856990533
-0.03569450757785547 0.309380112135082 -0.10253856990533
0.36075101188675207 0.5229097556811814 -0.10253856990533
0.5095889793024887 0.47889207229389313 -0.10253856990533
0.5921001960947779 0.3572037316305678 -0.10253856990533
0.18154869498643697 0.2888631604450154 -0.10253856990533
0.3132599499152835 0.4804532451149744 -0.10253856990533
0.3473932846720577 0.4130272071204696 -0.10253856990533
0.2782028442584612 0.2051233283556626 -0.10253856990533
0.6243028496704517 0.21549727556320175 -0.10253856990533
0.5199444510920271 0.5192331474989903 -0.10253856990533
0.49745062967585785 0.4521673801555041 -0.10253856990533
0.5764330416299636 0.35971638847869847 -0.10253856990533
0.07060380989067006 0.45221356870050644 -0.10253856990533
0.02804568452545785 0.2655287075098025 -0.10253856990533
-0.19198730615697968 0.2623139847776353 -0.10133766773526759
-0.04371283899027222 0.44399200769007907 -0.10069102810523398
0.5767009351909774 0.37700014201859683 -0.10069102810523398
0.5672599965924867 0.3957249781625702 -0.10069102810523398
0.564109937823323 0.40494421174504946 -0.10069102810523398
0.014595580220758674 0.44522062298714304 -0.10069102810523398
0.08104242106121262 0.2844660109607869 -0.10069102810523398
0.21993137588343215 0.32385560213883435 -0.10069102810523398
0.1377989051601629 0.24051299153650207 -0.10069102810523398
0.25859118805044173 0.4983651628669054 -0.10069102810523398
0.5193255245889948 0.493506127932653 -0.10069102810523398
0.6191666834661849 0.22164035204852114 -0.10069102810523398
0.5469185613734294 0.4080203688422093 -0.10069102810523398
0.11785469142812614 0.23656848979329712 -0.10069102810523398
0.2791358528675097 0.20141900704646995 -0.10069102810523398
0.5866868986204964 0.4569894642537548 -0.09949012593517154
0.503953976812196 0.23172793027704547 -0.09884348630513792
0.5953056811179446 0.35995656891271094 -0.09884348630513792
0.4834277874131289 0.4550125945276519 -0.09884348630513792
0.4267082541501807 0.48812978129437334 -0.09884348630513792
-0.027251241551416568 0.4367588815427031 -0.09884348630513792
0.04752801280747051 0.32305192145579253 -0.09884348630513792
0.08577212806945847 0.2904705218110989 -0.09884348630513792
0.1599139805073124 0.48910897844842444 -0.09884348630513792
0.16621409804563989 0.39685197866062877 -0.09884348630513792
0.4484076325923086 0.38853804056019653 -0.09884348630513792
-0.07852976421308208 0.2729465878371881 -0.09884348630513792
0.3373703704065368 0.21534947221919415 -0.09884348630513792
0.5745208358668642 0.2768264256173898 -0.09764258413507551
0.30077056734663427 0.22512296834170212 -0.0969959445050419
0.5999337733271849 0.49349689022365245 -0.0969959445050419
0.5948437956679204 0.35247402462232197 -0.0969959445050419
0.4826148690210867 0.22689660846979437 -0.0969959445050419
0.11669997780306612 0.24136286076454624 -0.0969959445050419
-0.0733196963368112 0.40422367044301194 -0.0969959445050419
0.05139861287867167 0.2506375206010284 -0.0969959445050419
0.0056257647812923825 0.3223498555717561 -0.0969959445050419
0.4051382036340594 0.27039698015305547 -0.0969959445050419
0.13989586510327195 0.44992261686838747 -0.0969959445050419
0.22635158363876595 0.46861050217635886 -0.0969959445050419
0.44236617090599456 0.49261930786860686 -0.0969959445050419
0.12493077652249401 0.46317872928407644 -0.0969959445050419
-0.14332305514245006 0.22346941843061616 -0.09579504233497946
-0.019473090573012265 0.4283802794792676 -0.09514840270494586
-0.03334812949173346 0.2644386578477458 -0.09514840270494586
-0.029800849235549064 0.4552989635066669 -0.09514840270494586
-0.08555966076244746 0.4490450345133419 -0.09514840270494586
0.06899644852458643 0.2844660109607869 -0.09514840270494586
-0.06769393155551881 0.38723552359112895 -0.09514840270494586
0.3560213048785062 0.24115039345753522 -0.09514840270494586
0.23515512031622357 0.43870803814180453 -0.09514840270494586
0.08543033283644078 0.3966856998986201 -0.09514840270494586
0.09143484368675282 0.29031348075809077 -0.09514840270494586
0.03001331654256007 0.3225438474607662 -0.09514840270494586
0.659683275142291 0.3474856617620627 -0.09394750053488343
0.3599842820397122 0.2432565911096448 -0.09330086090484982
0.16177076001640897 0.31871943593456736 -0.09330086090484982
-0.024285936962262448 0.4353824629016315 -0.09330086090484982
0.29370371996126693 0.31433152415933924 -0.09330086090484982
-0.027168102170412243 0.27104361978308916 -0.09330086090484982
0.2149984392771758 0.24841123273191268 -0.09330086090484982
-0.0355836550698497 0.45495716827364907 -0.09330086090484982
0.053883556599800896 0.46381613120510956 -0.09330086090484982
-0.01745927001090755 0.2736209405942231 -0.09330086090484982
-0.06666854585646548 0.3420631265787808 -0.09330086090484982
0.5198428362930219 0.43672193070670123 -0.09330086090484982
0.30544484810087724 0.29627180306340045 -0.09330086090484982
0.5501887103595993 0.4569894642537548 -0.09209995873478741
0.31595736094342375 0.2239590170076417 -0.09209995873478741
0.008378602063435494 0.4481674521582961 -0.0914533191047538
0.24848513440391648 0.4004269720438146 -0.0914533191047538
-0.023085034792199935 0.44684645977122744 -0.0914533191047538
0.2629698621166694 0.2924658669552027 -0.0914533191047538
0.11593324795602628 0.4040296785540019 -0.0914533191047538
0.31876562447956974 0.4797788923579393 -0.0914533191047538
-0.03984223891907106 0.40068562789582796 -0.0914533191047538
0.32420663508085257 0.23693799815331623 -0.0914533191047538
0.4807396140939892 0.47087374088147654 -0.0914533191047538
-0.07295942568579246 0.4448511146271238 -0.0914533191047538
0.44709587791424044 0.4720099790885355 -0.0914533191047538
0.34129639673174084 0.49325670978963987 -0.09099143365472977
0.5213485828601002 0.4841668041331676 -0.09025241693469135
0.30162043657467846 0.4466801810092189 -0.09025241693469135
0.4305880919303823 0.27966240228053707 -0.09025241693469135
-0.04818389014650471 0.2991632059805508 -0.09025241693469135
-0.03853048424100291 0.2749511706902923 -0.08960577730465774
0.3375828377135478 0.2904428086840975 -0.08960577730465774
0.43318388815951725 0.4147084701585569 -0.08960577730465774
0.24719185514384923 0.40098123458384344 -0.08960577730465774
0.44626448410419717 0.24906711007094673 -0.08960577730465774
0.40891642661525573 0.4816449095760363 -0.08960577730465774
0.0979843793680933 0.2540462352222056 -0.08960577730465774
0.0975779201720722 0.25002783180699667 -0.08960577730465774
-0.06542145514140073 0.3257955210289351 -0.08960577730465774
0.5052564937812636 0.27072029996807234 -0.08960577730465774
-0.049624972750579546 0.286489069231892 -0.08840487513459533
0.28251685436168544 0.27448004753126776 -0.08840487513459533
0.6231850868813935 0.43264810103748946 -0.08840487513459533
-0.02455383052327634 0.27679871249038834 -0.08775823550456172
-4.988362860259488E-4 0.4057940809730936 -0.08775823550456172
0.2031372209205592 0.31522758193238587 -0.08775823550456172
0.21666122689726217 0.4321215516244621 -0.08775823550456172
0.34845562120711304 0.30718153739296755 -0.08775823550456172
0.3051769545398634 0.47699834194879487 -0.08775823550456172
0.515344072009788 0.2681984054109412 -0.08775823550456172
0.15310578897395855 0.24887311818193666 -0.08775823550456172
0.43753484909874346 0.24989850388099 -0.08775823550456172
0.34938862981616153 0.5056537152682844 -0.0872963500545377
-0.14332305514245006 0.2136497337631057 -0.08655733333449928
0.2989137878375378 0.420482038283857 -0.08655733333449928
-0.03985147662807158 0.43092064945439973 -0.08591069370446568
-0.07731962433401918 0.35960553597069267 -0.08591069370446568
0.0030761570971598864 0.4060434991161066 -0.08591069370446568
-0.07031744091165511 0.26585202732481933 -0.08591069370446568
0.3119943837822177 0.3412409704777381 -0.08591069370446568
0.44364097474806086 0.47733089947281215 -0.08591069370446568
0.4145329536875477 0.23680867022730956 -0.08591069370446568
0.43955790736984857 0.2458246742117782 -0.08591069370446568
0.36138841380778525 0.24397713241168215 -0.08591069370446568
-0.051851260619695264 0.28517731455382384 -0.08544880825444166
-0.04646567627241534 0.3072184882289695 -0.08470979153440325
0.29860894344052197 0.2988214107475331 -0.08470979153440325
0.39202065685337756 0.38545264575403626 -0.08470979153440325
0.4502274612654032 0.39950320114376653 -0.08406315190436964
0.36276483244885677 0.48423146809617074 -0.08406315190436964
0.3731018288203941 0.23889639246141806 -0.08406315190436964
0.3003918212776146 0.25012020889700154 -0.08406315190436964
0.5123325788756313 0.27180111192112844 -0.08406315190436964
0.3402432979056861 0.29367600683426565 -0.08406315190436964
-0.042428797439205516 0.2826092314516903 -0.08406315190436964
0.07317189299280347 0.4004639228798166 -0.08406315190436964
0.031389735183631626 0.313555556603299 -0.08406315190436964
0.3780532408446515 0.5056537152682844 -0.08360126645434564
-0.017394606047904146 0.42117486645889307 -0.08286224973430723
0.4826241067300872 0.48132158976101946 -0.08286224973430723
0.5501887103595993 0.27448004753126776 -0.08286224973430723
0.337970821491568 0.23699342440731913 -0.0822156101042736
0.2785076886554771 0.47210235617854035 -0.0822156101042736
0.3616378319507982 0.49483635802872195 -0.0822156101042736
0.462014777950016 0.43263886332848894 -0.0822156101042736
0.3203545104276523 0.3012971167596618 -0.0822156101042736
0.14222376777139292 0.25222640654911094 -0.0822156101042736
-0.05365261387478897 0.3254906766319194 -0.0822156101042736
-0.05596204112490902 0.4008149558218348 -0.0822156101042736
-0.03808707420897984 0.28178707535064756 -0.0822156101042736
-0.04416548673129581 0.45539134059667175 -0.0822156101042736
-0.05337548260477455 0.3040037654968024 -0.08101470793421117
0.40711507336016217 0.5056537152682844 -0.08101470793421117
0.6231850868813935 0.28665534799390063 -0.08101470793421117
0.004711231590244941 0.43377510153554805 -0.08036806830417756
0.2628220587726616 0.29362058058026275 -0.08036806830417756
-0.03077080868059952 0.4075769588101863 -0.08036806830417756
0.29287232615122366 0.4042051950250109 -0.08036806830417756
0.3369823866285166 0.29229035048419355 -0.08036806830417756
0.34766117823307174 0.23489646446421023 -0.08036806830417756
0.4488418049153311 0.3876974090411529 -0.08036806830417756
0.44284653177401945 0.3119759083642168 -0.08036806830417756
0.558207041772016 0.40872243472624575 -0.08036806830417756
-0.06399884795532669 0.2752560150873081 -0.07990618285415356
-0.06544916826840218 0.28184250160465046 -0.07916716613411515
0.5745208358668642 0.25997684440051383 -0.07916716613411515
0.5866868986204964 0.420482038283857 -0.07916716613411515
0.3245669057318713 0.2383144167943878 -0.07852052650408153
0.44656009079221265 0.31032235845313083 -0.07852052650408153
0.4330730356515115 0.2849463718288118 -0.07852052650408153
0.5093487988684764 0.4481489767402952 -0.07852052650408153
0.3060730123129099 0.30698754550395757 -0.07852052650408153
0.24719185514384923 0.4043068098240163 -0.07852052650408153
0.2053635087896749 0.311883531274212 -0.07852052650408153
0.007353216364382155 0.42381685123303037 -0.07852052650408153
0.005875182924305357 0.2805769354715847 -0.07852052650408153
-0.04678899608743211 0.44650466453820975 -0.07852052650408153
-0.06965232586362065 0.426098565356149 -0.0773196243340191
0.44082347350291434 0.27448004753126776 -0.0773196243340191
0.4285188451142748 0.49783861345387814 -0.0773196243340191
0.44991337915938695 0.23982940107046655 -0.0766729847039855
0.36300501288286924 0.4817834752110436 -0.0766729847039855
0.4005747753878222 0.47899368709289863 -0.0766729847039855
0.46361290160709906 0.428444943442271 -0.0766729847039855
0.31034083387113176 0.4115676490983937 -0.0766729847039855
-0.06338915916129498 0.3862101378920756 -0.0766729847039855
-0.0604423299901419 0.3212967567457013 -0.0766729847039855
0.1120626478848251 0.2838101336217528 -0.0766729847039855
0.15801101245321358 0.27547772010331967 -0.0766729847039855
0.1560895689811136 0.43591825002365947 -0.0766729847039855
0.02971770985454474 0.42505470423909475 -0.0766729847039855
-0.06821124325954568 0.420482038283857 -0.07621109925396148
-0.07095484283268827 0.26984271761302675 -0.07547208253392307
0.4163527823606423 0.4083159755302247 -0.07547208253392307
0.45405187279160186 0.4761577104297511 -0.07482544290388946
0.39404371512448266 0.4914184056985445 -0.07482544290388946
0.6085802689516344 0.3644645709049452 -0.07482544290388946
0.597374927934052 0.3883809995071884 -0.07482544290388946
0.31161563771319806 0.3060268237679075 -0.07482544290388946
0.031389735183631626 0.4189116277537755 -0.07482544290388946
0.16261139153545262 0.40990486147830724 -0.07482544290388946
-0.07252525336276991 0.25844338470643413 -0.07482544290388946
0.16725795916269415 0.2856392000038478 -0.07482544290388946
0.12009945471524291 0.27517287570630383 -0.07482544290388946
0.07497324624789717 0.43614919274867153 -0.07482544290388946
0.03387467890476085 0.44537766404015117 -0.07482544290388946
-0.06798953824353415 0.26915912714699114 -0.07436355745386546
-0.07573073838593662 0.420482038283857 -0.07362454073382704
0.44068490786790726 0.32962917026413446 -0.07362454073382704
0.24653597780481518 0.44186733461996874 -0.07297790110379342
0.20031048196641227 0.4435763107850575 -0.07297790110379342
-0.027629987620436225 0.4380336853847694 -0.07297790110379342
0.11390095197592065 0.2829325512667071 -0.07297790110379342
0.20443050018062642 0.27374103081122936 -0.07297790110379342
0.28734817616893654 0.40694879459815364 -0.07297790110379342
-0.0870469319115248 0.3574623874825813 -0.07297790110379342
0.30806835745701366 0.36992405692422897 -0.07297790110379342
0.5601377229531164 0.29814705799049795 -0.07297790110379342
0.4083529263662266 0.487372289156334 -0.07297790110379342
0.34318088936783875 0.4875478056273432 -0.07297790110379342
0.34063128168370627 0.4904207331264926 -0.07297790110379342
-0.07095484283268827 0.43551179082763836 -0.0725160156537694
-0.19198730615697968 0.3231535362547979 -0.07177699893373099
0.4258121963771341 0.5056537152682844 -0.07177699893373099
0.5745208358668642 0.250147922024003 -0.07177699893373099
0.16270376862545746 0.4459965905431833 -0.07113035930369738
-0.05295978569975293 0.4257198192871293 -0.07113035930369738
-0.06937519459360622 0.2947752942053228 -0.07113035930369738
0.12009945471524291 0.2745539492032716 -0.07113035930369738
0.24720109285284977 0.2989137878375378 -0.07113035930369738
0.002447992885127254 0.30974038278610055 -0.07113035930369738
0.004979125151258833 0.317269115621492 -0.07113035930369738
0.3190889442945865 0.3090198414840632 -0.07113035930369738
0.4074014423391771 0.22762638748083225 -0.07113035930369738
0.3846951536159968 0.23478561195620445 -0.07113035930369738
0.47653645649877063 0.238240515122384 -0.07113035930369738
0.6046819557534319 0.3619057255118122 -0.07113035930369738
-0.19198730615697968 0.4083159755302247 -0.06992945713363496
-0.04111704276113737 0.44350240911305366 -0.06992945713363496
0.22519687001370592 0.445239098405144 -0.06992945713363496
0.1010051102112503 0.42293003116898426 -0.06992945713363496
0.08367516812634944 0.2751636379973033 -0.06992945713363496
0.4163527823606423 0.28665534799390063 -0.06992945713363496
0.20280466339654188 0.44631067264919966 -0.06928281750360134
0.027528372821430985 0.44260635134000714 -0.06928281750360134
-0.0699571702606365 0.4590494733608619 -0.06928281750360134
0.07428041807286112 0.2731221043081971 -0.06928281750360134
0.20137281850146746 0.2817501245146456 -0.06928281750360134
0.0741326147288534 0.4102928452563274 -0.06928281750360134
0.030142644468566886 0.3054448481008774 -0.06928281750360134
0.304400986983823 0.3076064720069897 -0.06928281750360134
0.4565737673487332 0.48022230238996233 -0.06928281750360134
0.5446460849593112 0.2782675082214646 -0.06928281750360134
0.5988621990831293 0.39121697617033585 -0.06928281750360134
0.5589460584920545 0.4208145958078743 -0.06928281750360134
0.4285188451142748 0.5056537152682844 -0.06808191533353891
0.12966048353073986 0.44262482675800807 -0.06808191533353891
-0.05815137815802277 0.41439438805254064 -0.06808191533353891
0.058012812523015565 0.27709431917840366 -0.06808191533353891
0.49641600626780413 0.2379818592703705 -0.06808191533353891
0.16256520299045027 0.4417102935669605 -0.06743527570350531
-0.0351771958738286 0.42927633725231423 -0.06743527570350531
-0.06762002988351501 0.28164850971564037 -0.06743527570350531
0.12175300462632875 0.2785076886554771 -0.06743527570350531
0.2473766093238588 0.27280802220218087 -0.06743527570350531
-0.05840079630103575 0.324234348207854 -0.06743527570350531
-0.05943541970908948 0.33325958990132315 -0.06743527570350531
0.336797632448507 0.2896945542550587 -0.06743527570350531
0.38746646631614085 0.4895801016074488 -0.06743527570350531
0.458901670016854 0.4724256759935571 -0.06743527570350531
0.4489618951323374 0.3897758935662609 -0.06743527570350531
-0.08050663393918484 0.30181442846368867 -0.0669733902534813
0.324215872789853 0.36060320854274447 -0.06623437353344289
0.11416884553693454 0.4283248532252647 -0.06623437353344289
-0.09152722077675766 0.31098747350116546 -0.06623437353344289
0.25247582469212393 0.294184080829292 -0.06623437353344289
0.24197254955857794 0.44063871932290477 -0.06558773390340927
0.07428041807286112 0.43746094742673963 -0.06558773390340927
0.1124691070808462 0.4714741919665077 -0.06558773390340927
0.027676176165438587 0.27568094970133017 -0.06558773390340927
0.20588082049370177 0.27796266382444873 -0.06558773390340927
-0.00824927413742881 0.31132003102518274 -0.06558773390340927
-0.07949048594913202 0.3423217824307942 -0.06558773390340927
0.31141240811518744 0.31078424390315484 -0.06558773390340927
0.5745115981578637 0.4115768868073941 -0.06558773390340927
0.4361584304576719 0.2976759348314735 -0.06558773390340927
0.3806397993647859 0.2214371224505105 -0.06558773390340927
0.4700146339444317 0.2899809232340735 -0.06558773390340927
-0.11899092963518525 0.4836587301381411 -0.06438683173334685
0.0026789356101391795 0.43264810103748946 -0.06438683173334685
-0.065273651797393 0.31769405023551406 -0.06438683173334685
0.12028420889525247 0.290202628250085 -0.06438683173334685
0.19972850629938202 0.4435301222400551 -0.06374019210331323
0.03640581117089243 0.4405001536878976 -0.06374019210331323
-0.06515356158038671 0.27517287570630383 -0.06374019210331323
0.07509333646490346 0.28164850971564037 -0.06374019210331323
0.20900316613586414 0.2753668675953139 -0.06374019210331323
0.030105693632564923 0.4140803059465243 -0.06374019210331323
0.16136430082038788 0.29998536208159354 -0.06374019210331323
0.3149504506623713 0.3108858587021602 -0.06374019210331323
0.4169717088636746 0.23045312643497917 -0.06374019210331323
0.4471235910412417 0.23131223337202386 -0.06374019210331323
0.6010792492432447 0.3927227227374141 -0.06374019210331323
0.4447956883731209 0.33700086204651764 -0.06327830665328922
0.29278918677021937 0.2933342116012478 -0.06253928993325081
0.029357439203525997 0.2876160697299506 -0.06253928993325081
0.042595076201214166 0.44482340150012234 -0.06253928993325081
0.353554836575378 0.4083159755302247 -0.06253928993325081
0.5872873497055275 0.2988214107475331 -0.06253928993325081
0.12142044710231159 0.4444723685581041 -0.06189265030321719
-0.060885740022164965 0.42412169563004626 -0.06189265030321719
-0.07302408964879586 0.2894913246570481 -0.06189265030321719
0.11540669854299888 0.281352903027625 -0.06189265030321719
0.2936944822522664 0.3013063544686622 -0.06189265030321719
0.00858183166144611 0.3038651998617952 -0.06189265030321719
0.2578891221664053 0.40418671960701 -0.06189265030321719
0.33660364055949693 0.42767821359523117 -0.06189265030321719
0.42257899822696604 0.4885824290353969 -0.06189265030321719
0.42533183550910914 0.41508721622757666 -0.06189265030321719
0.48217145898906366 0.2826369445786917 -0.06189265030321719
0.24794010957288817 0.4297012718663363 -0.06143076485319319
-0.09005842504568126 0.41246370687144024 -0.06143076485319319
0.2502402991140077 0.289509800075049 -0.06143076485319319
0.659683275142291 0.3474856617620627 -0.060691748133154776
0.3514855897592704 0.40532295781406913 -0.060691748133154776
-0.04837788203551467 0.420482038283857 -0.060691748133154776
-0.19198730615697968 0.2379818592703705 -0.060691748133154776
0.15734589740517899 0.43989970260286637 -0.06004510850312116
-0.05202677709070444 0.43033867378736945 -0.06004510850312116
-0.07076085094367818 0.28187945244065243 -0.06004510850312116
0.07258991732577331 0.2719581529741367 -0.06004510850312116
0.2509238895800432 0.2783044590574666 -0.06004510850312116
-0.059731026397104946 0.39403447741548225 -0.06004510850312116
0.29278918677021937 0.30341255212077173 -0.06004510850312116
0.3349685660664119 0.4248699500590852 -0.06004510850312116
0.4307543706923909 0.23143232358903015 -0.06004510850312116
0.6173653302110911 0.36467703821195624 -0.06004510850312116
0.4306897067293875 0.4958894568547767 -0.06004510850312116
0.46578376322221177 0.2958653438673794 -0.06004510850312116
-0.15548911789608252 0.5178197780219169 -0.05884420633305873
-0.06322288039928646 0.45498488140065046 -0.05884420633305873
0.06584638975542274 0.29070146453611095 -0.05884420633305873
0.06356467563230414 0.438948218575817 -0.05884420633305873
0.44510977047913713 0.38711543337412263 -0.05884420633305873
0.5745208358668642 0.2768264256173898 -0.05884420633305873
0.11330973859988998 0.4462182955591948 -0.05819756670302513
-0.06654845563945931 0.42208939964994063 -0.05819756670302513
-0.0715737693357205 0.30060428858462573 -0.05819756670302513
0.13125860718782295 0.2425268120986068 -0.05819756670302513
0.11722652721609352 0.2940732283212862 -0.05819756670302513
0.24648055155081228 0.4214704731469084 -0.05819756670302513
0.3355043531884398 0.2995696651765719 -0.05819756670302513
0.4733124960576031 0.2860087083638671 -0.05819756670302513
0.4322324041324677 0.42939642746932044 -0.05819756670302513
0.4531281018915539 0.34156429029275487 -0.05819756670302513
0.46894305970037614 0.2947383433693208 -0.05819756670302513
-0.09483432059892961 0.4177199632927135 -0.05773568125300112
0.15275475603194033 0.2907291776631124 -0.05773568125300112
-0.06322288039928646 0.45498488140065046 -0.0569966645329627
-0.11899092963518525 0.235644718893249 -0.0569966645329627
0.19869388289132828 0.4336180604825399 -0.0569966645329627
0.47905835105590194 0.22816217460286017 -0.0569966645329627
0.156366700251128 0.4437610649650672 -0.056350024902929084
-0.057273795802977166 0.4373685703367348 -0.056350024902929084
-0.08175372465424971 0.2696117748880147 -0.056350024902929084
0.07810482959905994 0.2768171879083893 -0.056350024902929084
0.1997192685903816 0.2776670571364334 -0.056350024902929084
0.2486606508749255 0.4196875953098157 -0.056350024902929084
0.03467835958780265 0.422865367205981 -0.056350024902929084
0.07618338612696007 0.3068120290329484 -0.056350024902929084
0.31447932750334684 0.32783705471804125 -0.056350024902929084
0.45464308616763277 0.40941526290128183 -0.056350024902929084
0.5716663837857155 0.4248237615140828 -0.056350024902929084
0.4617653598070029 0.47322935667659893 -0.056350024902929084
0.48876718321540646 0.4346064953455913 -0.056350024902929084
-0.09961021615217783 0.45139141259946375 -0.05514912273286667
0.254785251942244 0.2844660109607869 -0.05514912273286667
0.2122456019950327 0.43478201181660037 -0.05514912273286667
0.6110190241277613 0.27448004753126776 -0.05514912273286667
0.16216798150342956 0.4378027426597573 -0.05450248310283305
-0.06280718349426483 0.43432012636657635 -0.05450248310283305
-0.08752729277954982 0.2974819429424634 -0.05450248310283305
-0.029274299822521672 0.3150058769163743 -0.05450248310283305
0.2536952022801872 0.2913665795841456 -0.05450248310283305
-0.09150874535875675 0.2546836371432387 -0.05450248310283305
0.3372410424805301 0.2991170174355484 -0.05450248310283305
0.44201513796397623 0.2954126961263559 -0.05450248310283305
0.4501073710483969 0.37766525706663145 -0.05450248310283305
0.4287313124212858 0.23754768694734796 -0.05450248310283305
0.46894305970037614 0.39230702583239246 -0.05450248310283305
-0.09961021615217783 0.2623139847776353 -0.05404059765280904
-0.09464956641891992 0.3231535362547979 -0.053301580932770626
0.15087950110484283 0.2800780991855587 -0.053301580932770626
0.659683275142291 0.3718177872693274 -0.053301580932770626
0.24953823322997126 0.43817225101977664 -0.052654941302737006
0.030733857844597555 0.44245854799599943 -0.052654941302737006
-0.07943505969512914 0.449876428323385 -0.052654941302737006
0.0337084001427522 0.2770666060514022 -0.052654941302737006
-0.07813254272606138 0.34852028517011646 -0.052654941302737006
0.11560992814100951 0.27679871249038834 -0.052654941302737006
0.24197254955857794 0.2756901874103307 -0.052654941302737006
0.31797118150552833 0.4007502918588314 -0.052654941302737006
0.43392290487955554 0.48886879801441185 -0.052654941302737006
0.4488325672063306 0.40649614685713004 -0.052654941302737006
0.5183648028529451 0.2621292305976257 -0.052654941302737006
0.46875830552036646 0.3561783459315145 -0.052654941302737006
0.6110190241277613 0.2843089699077786 -0.051454039132674594
0.29278918677021937 0.2821473460016663 -0.051454039132674594
-0.10994721252371516 0.28665534799390063 -0.051454039132674594
-0.14332305514245006 0.5056537152682844 -0.051454039132674594
0.07295942568579246 0.4432529909700407 -0.05080739950264098
-0.08037730601317815 0.4451282458971382 -0.05080739950264098
-0.06726899694149667 0.2835884286057413 -0.05080739950264098
0.09393826282588295 0.2386284989004042 -0.05080739950264098
0.007704249306400503 0.30589749584190085 -0.05080739950264098
0.23024989683696856 0.41191868204041193 -0.05080739950264098
0.3119943837822177 0.3023040270407141 -0.05080739950264098
0.45722040697876676 0.3362895584534807 -0.05080739950264098
0.4605275068009387 0.3808892175077991 -0.05080739950264098
0.43273124041849365 0.23378793938415254 -0.05080739950264098
0.537468385065938 0.4460243036701847 -0.05080739950264098
-0.1068248668815529 0.31098747350116546 -0.05034551405261696
0.2985165663505171 0.2927060473892152 -0.04960649733257855
0.6110190241277613 0.4349944791236115 -0.04960649733257855
-0.0663452260414487 0.29731566418045474 -0.04960649733257855
-0.19198730615697968 0.48132158976101946 -0.04960649733257855
0.43502219225061267 0.22397749242564263 -0.04895985770254495
0.48812978129437345 0.4427818678110162 -0.04895985770254495
0.43495752828760953 0.2931956459662406 -0.04895985770254495
0.463575950771097 0.31068262910414957 -0.04895985770254495
0.3461184808299916 0.42866664845828256 -0.04895985770254495
0.032239604411675796 0.2818609770226514 -0.04895985770254495
0.2892141933870335 0.42244043259195885 -0.04895985770254495
0.20897545300886272 0.4386895627238035 -0.04895985770254495
0.033671449306750235 0.2859532821098642 -0.04895985770254495
0.06571706182941607 0.29819324653550033 -0.04895985770254495
0.026392134614371877 0.41815413561573606 -0.04895985770254495
-0.09287592629082779 0.29441502355430405 -0.04895985770254495
-0.07772608353004028 0.4416456296039572 -0.04895985770254495
-0.10916200725867439 0.437544086807744 -0.047758955532482515
0.10703733418856391 0.27448004753126776 -0.047758955532482515
0.23641144874028885 0.44482340150012234 -0.047758955532482515
0.465017033375172 0.22206528666254316 -0.047758955532482515
0.4951596778437388 0.25201393924209997 -0.0471123159024489
0.45942821942988155 0.24228663166459433 -0.0471123159024489
0.5162401297828344 0.4420520887999783 -0.0471123159024489
0.45395949570159716 0.32573085706593186 -0.0471123159024489
0.3066087994349378 0.417285790969691 -0.0471123159024489
0.11855675731216271 0.43945629257084334 -0.0471123159024489
0.06734289861350047 0.4248976631860866 -0.0471123159024489
0.07405871305684959 0.43121625614241504 -0.0471123159024489
0.28927885735003694 0.43151186283043036 -0.0471123159024489
-0.0844973242273923 0.35677879701654563 -0.0471123159024489
0.0938920742808806 0.3093616367170809 -0.0471123159024489
0.1067694406275499 0.4175352091127039 -0.0471123159024489
0.035186433582828996 0.3025164943477251 -0.0471123159024489
-0.1044784887954309 0.273639416012224 -0.0471123159024489
-0.10916200725867439 0.3050753397408581 -0.0466504304524249
-0.19198730615697968 0.27448004753126776 -0.04591141373238648
0.022540009961171628 0.27448004753126776 -0.04591141373238648
0.19015823977488452 0.43726695553772954 -0.04591141373238648
0.6231850868813935 0.28665534799390063 -0.04591141373238648
0.5060139859193029 0.45192719972149165 -0.04526477410235287
0.5015798855990725 0.303939101533799 -0.04526477410235287
0.5225679604481634 0.2867939136289078 -0.04526477410235287
0.4472621566762491 0.3916880993293604 -0.04526477410235287
0.3072554390649713 0.3111629899721746 -0.04526477410235287
0.20443050018062642 0.2812512882286198 -0.04526477410235287
0.15429745343502055 0.29720481167244894 -0.04526477410235287
0.07484391832189048 0.4394747679888444 -0.04526477410235287
0.16048671846534227 0.2848909455748089 -0.04526477410235287
0.07830805919707055 0.4385048085437939 -0.04526477410235287
0.16564136008761016 0.2837824204947514 -0.04526477410235287
0.034622933333799774 0.4148655112115652 -0.04526477410235287
0.14062564411430983 0.40714278648716373 -0.04526477410235287
0.07253449107177044 0.29792535297448647 -0.04526477410235287
-0.07108417075869508 0.2910247843511278 -0.04526477410235287
-0.08894066225662321 0.44301281053602826 -0.04526477410235287
0.4803239171889677 0.22581579651673817 -0.04406387193229044
0.3798545940997452 0.2623139847776353 -0.04406387193229044
-0.06800801366153507 0.4218307437979271 -0.04406387193229044
-0.11394714052092314 0.30590673355090137 -0.04406387193229044
0.4222187275759472 0.2783598853114695 -0.04406387193229044
-0.10197506965630077 0.4199370134528287 -0.043417232302256824
-0.08377678292535481 0.2753576298863134 -0.043417232302256824
0.07161995788072287 0.42284689178797996 -0.043417232302256824
0.20559445151468697 0.2943503595913006 -0.043417232302256824
-0.0374681477059476 0.4052490561420653 -0.043417232302256824
0.2898054067630643 0.42331801494700444 -0.043417232302256824
-0.03864133674900867 0.31059025201414475 -0.043417232302256824
-0.07187861373273637 0.3510883682722499 -0.043417232302256824
0.12645499850757316 0.410957960304362 -0.043417232302256824
0.06411893817233298 0.3036527325547842 -0.043417232302256824
0.31907046887658547 0.30012392771660074 -0.043417232302256824
0.45464308616763277 0.3866535479240987 -0.043417232302256824
0.4615713679179929 0.40634834351312243 -0.043417232302256824
0.4409620391379214 0.48931220804643494 -0.043417232302256824
0.49966767983597316 0.23935827791144204 -0.043417232302256824
0.6087280722956421 0.34003083059867517 -0.043417232302256824
-0.10916200725867439 0.41026513212932597 -0.04221633013219441
0.2681891677019407 0.2839209861297586 -0.04221633013219441
0.015029752543781217 0.28385632216675516 -0.04221633013219441
0.09145331910475374 0.4353547497746301 -0.04221633013219441
0.3233105773078059 0.3465434154440137 -0.04221633013219441
0.5550200321668504 0.2623139847776353 -0.04221633013219441
0.44334536806004543 0.493201283535637 -0.04156969050216079
0.5825668804062822 0.4262925572451591 -0.04156969050216079
0.46958969933040967 0.4147546587035594 -0.04156969050216079
0.4521858555735049 0.37781306041063906 -0.04156969050216079
0.34248806119280284 0.42514708132909956 -0.04156969050216079
0.2844660109607868 0.41612183963563043 -0.04156969050216079
0.031186505585621145 0.2956805896873698 -0.04156969050216079
0.16431112999154096 0.43383052778955095 -0.04156969050216079
0.1568378234101525 0.29410094144828763 -0.04156969050216079
0.03375458868775456 0.4418580969109682 -0.04156969050216079
0.24491937872973116 0.3388576415556141 -0.04156969050216079
0.00727007698337783 0.4057848432640931 -0.04156969050216079
0.1592396277502774 0.4156969050216083 -0.04156969050216079
0.006087650231316365 0.313518605767297 -0.04156969050216079
0.1932990608350478 0.3090106037750627 -0.04156969050216079
-0.10894953995166326 0.27380569477423267 -0.04156969050216079
-0.05954627221709524 0.4366203159076959 -0.04156969050216079
0.659683275142291 0.3732865830004038 -0.04036878833209838
0.348917506657137 0.28223048538267065 -0.04036878833209838
0.2729650632551889 0.2874220778409405 -0.04036878833209838
-0.07885308402809886 0.3001978293886045 -0.04036878833209838
-0.10936523685668488 0.4584120714398287 -0.04036878833209838
0.13101842675381037 0.43827386581878186 -0.04036878833209838
-0.10083883144924166 0.44294814657302484 -0.039722148702064766
-0.09264498356581573 0.2915975223091575 -0.039722148702064766
0.25341807101017283 0.3050845774498586 -0.039722148702064766
0.011556373959600753 0.3077912261869993 -0.039722148702064766
0.1675443281417091 0.41915180818778797 -0.039722148702064766
0.20229658940151554 0.2844844863787878 -0.039722148702064766
-0.06771240697351973 0.32803104660705135 -0.039722148702064766
0.03149134998263687 0.3852863669920276 -0.039722148702064766
0.007168462184372588 0.402533169695924 -0.039722148702064766
0.33671449306750273 0.298627418858523 -0.039722148702064766
0.4697559780924183 0.3004472475316175 -0.039722148702064766
0.4542181515536105 0.3965748473906143 -0.039722148702064766
0.5206188038490622 0.2623694110316382 -0.039722148702064766
0.5195657050230075 0.4112258538653759 -0.039722148702064766
0.5387524266170047 0.4392992515178352 -0.039722148702064766
0.635351149635026 0.2988214107475331 -0.03852124653200235
0.49532595660574746 0.2623694110316382 -0.03852124653200235
0.048461021416519 0.42915624703530797 -0.03852124653200235
-0.13115699238881773 0.27448004753126776 -0.03852124653200235
0.004009165706208377 0.28928809505903746 -0.03852124653200235
0.22519687001370592 0.28934352131304036 -0.03852124653200235
-0.10941142540168737 0.43880965294080976 -0.037874606901968734
-0.11543441167000033 0.29446121209930637 -0.037874606901968734
0.2570023021023592 0.3085394806160382 -0.037874606901968734
0.026558413376380527 0.3069598323769561 -0.037874606901968734
0.12484763714148969 0.4148562735025646 -0.037874606901968734
0.2387947776624127 0.439160685882828 -0.037874606901968734
0.1961627506251967 0.28005038605855725 -0.037874606901968734
0.027870168054448675 0.3832910218479238 -0.037874606901968734
0.31008217801911825 0.30792055411300606 -0.037874606901968734
0.4626059913260467 0.42520250758310246 -0.037874606901968734
0.42632950808116105 0.43344254401153076 -0.037874606901968734
0.5176812123869095 0.4637422295331058 -0.037874606901968734
0.5613109119961774 0.273426948705213 -0.037874606901968734
0.5434821336252507 0.3119943837822177 -0.037874606901968734
0.14545696592156093 0.29282613760622145 -0.03667370473190629
-0.05815137815802277 0.31098747350116546 -0.03667370473190629
0.04168054301016659 0.44482340150012234 -0.03667370473190629
0.420269570976846 0.436564889653693 -0.03667370473190629
0.44068490786790726 0.3474856617620627 -0.03667370473190629
-0.07696859139200096 0.4313455840684217 -0.03602706510187267
-0.1196837578102213 0.42046356286585607 -0.03602706510187267
-0.11980384802722757 0.2725770794771688 -0.03602706510187267
0.0071776998933731125 0.3722057710473476 -0.03602706510187267
0.033061760512718516 0.41665762675765833 -0.03602706510187267
0.24547364126975985 0.302784387908739 -0.03602706510187267
0.03717254101793227 0.30254420747472655 -0.03602706510187267
0.1077855886176027 0.41790471747272306 -0.03602706510187267
0.17000155873583675 0.2999022227005892 -0.03602706510187267
0.15256076414293024 0.31167106396720096 -0.03602706510187267
0.3192736984745961 0.41000647627731246 -0.03602706510187267
0.46045360512893474 0.42792763173824416 -0.03602706510187267
0.6260118258355406 0.36104661857476755 -0.03602706510187267
0.6112776799797747 0.391124599080331 -0.03602706510187267
0.5554080159448705 0.2856946262578507 -0.03602706510187267
0.5501887103595993 0.2379818592703705 -0.034826162931810255
0.23520130886122595 0.4440751470710834 -0.034826162931810255
-0.08248350366528757 0.26085442675555953 -0.034826162931810255
