-0.4615340105768745 0.27478461532132065 -0.1167524248252952
0.02240479032397417 0.37362721817841554 -0.1167524248252952
-0.4846432071972946 0.3405784984578687 -0.1151957258276246
0.6225200374209799 0.0925652141489882 -0.1151957258276246
0.7455381757118994 0.28931640046457574 -0.1151957258276246
0.6157639637710896 0.18599828798917784 -0.1151957258276246
0.6627373560258 0.322108264850507 -0.1151957258276246
0.5254287209362645 0.1619939894450971 -0.1151957258276246
-0.13823876274064367 0.17819144251585975 -0.1151957258276246
0.6903454127494881 0.3107521456625 -0.113639026829954
0.5975817194782969 0.15074683918692705 -0.113639026829954
-0.24650717802863406 0.17631562022366667 -0.113639026829954
0.2399846092283944 0.15604739927399544 -0.113639026829954
-0.20785434191647303 0.3918328129561732 -0.11257268801654964
-0.1615347632407842 0.1047930847756909 -0.11257268801654964
0.7557890386115603 0.2073094972672884 -0.11257268801654964
0.05868366046468758 0.4860753702751516 -0.11257268801654964
-0.1264156338533355 0.13971762678843083 -0.11208232783228339
0.6335803837994295 0.43055570052322945 -0.11208232783228339
-0.06987632625793913 0.3493582808047309 -0.11208232783228339
-0.13638629093341564 0.17587196100933056 -0.1105256288346128
0.7170817180344807 0.2784662084508116 -0.1105256288346128
0.4136966503784568 0.1571760060473066 -0.1105256288346128
0.6832935662900402 0.19610126448406007 -0.1105256288346128
0.027931071765704873 0.46359663674878804 -0.11009753661025337
-0.6076613454882139 0.25856381176559307 -0.11009753661025337
0.6020183116216582 0.09651922960307162 -0.11009753661025337
0.7352873128122384 0.4020836758558342 -0.11009753661025337
0.7167625947399583 0.2665418941286548 -0.10896892983694219
-0.13481402494576836 0.16856325921526713 -0.10896892983694219
0.11421111371159799 0.3983787322413782 -0.10896892983694219
-0.19754899455189368 0.17716402117739713 -0.10896892983694219
-0.20785434191647303 0.3835589577835541 -0.10762238520395712
-0.16684310682284095 0.07404049607670807 -0.10762238520395712
0.7352873128122384 0.2073094972672884 -0.10762238520395712
0.05868366046468758 0.49434922544777093 -0.10762238520395712
0.5325428353556191 0.14836508972049106 -0.1074122308392716
0.6033181552847131 0.43288296552474703 -0.1074122308392716
-0.5396569497749736 0.23634971706883343 -0.1074122308392716
-0.4139690727030492 0.17102284363158657 -0.10585553184160097
0.720880063588797 0.2552091254256128 -0.10585553184160097
0.653895305719031 0.32926908023979173 -0.10585553184160097
0.6812465071081035 0.31297822522916896 -0.10585553184160097
0.07919316975899782 0.46359663674878804 -0.10513945030267251
-0.6076613454882139 0.24831294886593208 -0.10513945030267251
0.6122691745213189 0.10677009250273248 -0.10513945030267251
0.7147855870129166 0.4020836758558342 -0.10513945030267251
0.714131773433895 0.2775244055572209 -0.10429883284393038
-0.12803460081091292 0.13191856481010114 -0.10429883284393038
0.3601617718485649 0.15242807410441125 -0.10429883284393038
-0.19760347901681208 0.17710953671247873 -0.10429883284393038
-0.20785434191647303 0.3918328129561732 -0.10274213384625978
-0.1615347632407842 0.1047930847756909 -0.10274213384625978
0.7557890386115603 0.2073094972672884 -0.10274213384625978
0.05868366046468758 0.4860753702751516 -0.10274213384625978
0.6941204078188394 0.19611683147403672 -0.10274213384625978
-0.40481568259674605 0.17356026299778973 -0.10274213384625978
-0.19035704518265542 0.3176561057171691 -0.10274213384625978
0.6217416879221447 0.18910390248953068 -0.10118543484858918
0.6420410428517693 0.42347272008382825 -0.10118543484858918
0.6890144351064798 0.3087673544404699 -0.10118543484858918
-0.1204846106722105 0.13883809185474694 -0.10118543484858918
0.017680208866043896 0.4450641351815195 -0.10018136399509164
-0.6281630712875358 0.19705863436762752 -0.10018136399509164
0.7660399015112211 0.15604739927399544 -0.10018136399509164
0.7147855870129166 0.4430949109494663 -0.10018136399509164
0.658082826022765 0.32231063572020424 -0.09962873585091858
0.7110495094185071 0.2096211952788292 -0.09962873585091858
0.42025035315865017 0.15062230326711337 -0.09962873585091858
0.6752765664520366 0.1933536907531715 -0.09962873585091858
-0.1326969143089363 0.17102284363158657 -0.09807203685324796
0.6638659627991113 0.324910323046314 -0.09807203685324796
-0.5083439494368295 0.21604257864422047 -0.09807203685324796
0.5357340683008438 0.14838065671046774 -0.09807203685324796
-0.31036297091308224 0.3405784984578687 -0.09770621258879539
0.6122691745213189 0.08231435124932734 -0.09770621258879539
0.7250364499125774 0.28931640046457574 -0.09770621258879539
-0.13639407442840404 0.17587196100933056 -0.09651533785557737
0.7170817180344807 0.2784662084508116 -0.09651533785557737
0.20846923802055298 0.42067844538300964 -0.09651533785557737
0.5335936071790469 0.15069235472200854 -0.09651533785557737
0.07919316975899782 0.46359663674878804 -0.09522327768751077
-0.6281630712875358 0.2380620859662712 -0.09522327768751077
0.6532726261199626 0.11504394767535175 -0.09522327768751077
0.7352873128122384 0.4123345387554952 -0.09522327768751077
0.7044958066383139 0.2968508236133015 -0.09495863885790677
0.589027658486097 0.1390248957344674 -0.09495863885790677
0.35468997487175274 0.14662158684309995 -0.09495863885790677
-0.19760347901681208 0.17710953671247873 -0.09495863885790677
0.1097823050632251 0.4022782632305431 -0.09340193986023616
0.7228025868509202 0.2675303979921756 -0.09340193986023616
0.2822645540051279 0.42386967832823436 -0.09340193986023616
0.2944068061869586 0.1446134451361049 -0.09340193986023616
-0.5358975216955992 0.32204599689060015 -0.09274812628121451
-0.1258396552241973 0.06378963317704721 -0.09274812628121451
0.7352873128122384 0.24831294886593208 -0.09274812628121451
0.13371655215241066 0.42811946659187505 -0.09184524086256556
0.6941204078188394 0.19611683147403672 -0.09184524086256556
0.223927259067422 0.42379962687333905 -0.09184524086256556
0.6909058243886496 0.20057677410236308 -0.09184524086256556
-0.35137420600671426 0.15604739927399544 -0.09028854186489495
-0.4231302463043407 0.3508293613575297 -0.09028854186489495
-0.04382496853192163 0.04131089965068366 -0.09028854186489495
0.7250364499125774 0.3405784984578687 -0.09028854186489495
0.711135127863379 0.22233164259480975 -0.09028854186489495
-0.25810458556128013 0.30559168848522184 -0.09028854186489495
0.5807693703034543 0.4309837927475889 -0.09028854186489495
0.5214591384922043 0.4299485879141381 -0.09028854186489495
0.7149101229327303 0.23267590743433086 -0.08873184286722435
-0.5662064511802457 0.23274595888922603 -0.08873184286722435
-0.413478712518783 0.17341237659301098 -0.08873184286722435
0.4840827955581332 0.14506488784542934 -0.08873184286722435
0.007429345966383031 0.4430949109494663 -0.08779003997363363
-0.5871596196888922 0.16827526990069802 -0.08779003997363363
0.6327709003206409 0.12727181830205433 -0.08779003997363363
0.6737743519192846 0.4533457738491273 -0.08779003997363363
0.11225745646952134 0.4039672816430156 -0.08717514386955376
0.7228025868509202 0.2675303979921756 -0.08717514386955376
-0.3111101864319642 0.29919365560479577 -0.08717514386955376
0.6416674350923284 0.3954287876407925 -0.08717514386955376
0.7085432240322573 0.2113024301963135 -0.08561844487188315
-0.13552232298970843 0.1695673300687646 -0.08561844487188315
0.6978798358982139 0.20670238465819682 -0.08561844487188315
0.5443815312329041 0.14091628501663717 -0.08561844487188315
-0.31036297091308224 0.3405784984578687 -0.08531488856733738
0.6122691745213189 0.08231435124932734 -0.08531488856733738
0.7250364499125774 0.28931640046457574 -0.08531488856733738
-0.13639407442840404 0.17587196100933056 -0.08406174587421254
0.7170817180344807 0.2784662084508116 -0.08406174587421254
0.5904053370990353 0.15530018375511354 -0.08406174587421254
0.6151335006770331 0.18884704715491504 -0.08406174587421254
0.30471993704652645 0.5046000883474318 -0.08283195366605277
-0.5871596196888922 0.28931640046457574 -0.08283195366605277
0.3662328979394803 0.08626836670341063 -0.08283195366605277
0.7147855870129166 0.36108022425719055 -0.08283195366605277
0.6996077717856282 0.20505228372066608 -0.08250504687654193
0.10901173905937823 0.40518929035618706 -0.08250504687654193
0.6752765664520366 0.1933536907531715 -0.08250504687654193
0.5263082558699483 0.43479770529188194 -0.08250504687654193
0.6393012526158691 0.42131669197205457 -0.08094834787887134
0.6958950446761837 0.19366503055270554 -0.08094834787887134
-0.4781751228619732 0.2666041620885616 -0.08094834787887134
0.37420319680755376 0.1383866491454224 -0.08094834787887134
-0.0028215169332779454 0.4328440480498053 -0.0803568022597565
-0.23860693061545574 0.14579653637433446 -0.0803568022597565
0.7250364499125774 0.14579653637433446 -0.0803568022597565
0.6430217632203019 0.46359663674878804 -0.0803568022597565
-0.25704603024286404 0.3057395748900006 -0.07939164888120075
0.7094694599358714 0.30043123130794386 -0.07939164888120075
0.23167962007582169 0.43155977137672713 -0.07939164888120075
0.13798190740602811 0.42992523742917294 -0.07939164888120075
-0.5358975216955992 0.29957504685922504 -0.07783494988353012
-0.1565922439231801 0.05353877027738623 -0.07783494988353012
0.7557890386115603 0.25856381176559307 -0.07783494988353012
-0.13154495705066008 0.17422186007179968 -0.07783494988353012
0.7070176590145402 0.29866437794558764 -0.07783494988353012
0.2326525569493658 0.43253270825027124 -0.07783494988353012
0.1386824219549799 0.4308903908077287 -0.07783494988353012
0.6758214111012215 0.19101864225666548 -0.07627825088585953
0.13917278213924617 0.4408299139078556 -0.07627825088585953
0.714575432648231 0.2642379796121024 -0.07627825088585953
0.3430536498641649 0.13498526183551215 -0.07627825088585953
0.017680208866043896 0.4123345387554952 -0.07539871595217565
-0.6076613454882139 0.2073094972672884 -0.07539871595217565
0.6635234890196237 0.14777354410137616 -0.07539871595217565
0.7147855870129166 0.4430949109494663 -0.07539871595217565
0.6620524084668249 0.3190571348150726 -0.07472155188818892
0.6958950446761837 0.19366503055270554 -0.07472155188818892
-0.40481568259674605 0.17356026299778973 -0.07472155188818892
0.47184714143644224 0.438611617836175 -0.07472155188818892
-0.13633958996348552 0.17278191349895447 -0.07316485289051833
0.6845389254881766 0.32084733866239384 -0.07316485289051833
0.6263728674402147 0.4183044794115619 -0.07316485289051833
0.5530289941649642 0.1334441298278183 -0.07316485289051833
-0.4846432071972946 0.3405784984578687 -0.07292356454587938
0.6225200374209799 0.0925652141489882 -0.07292356454587938
0.7455381757118994 0.28931640046457574 -0.07292356454587938
-0.4139690727030492 0.17102284363158657 -0.07160815389284772
0.719821508270381 0.2670478213028977 -0.07160815389284772
0.19348601016797334 0.4356538897406007 -0.07160815389284772
0.09342918209269543 0.12776996198130897 -0.07160815389284772
0.027931071765704873 0.46359663674878804 -0.07044062964459477
-0.6076613454882139 0.25856381176559307 -0.07044062964459477
0.6020183116216582 0.09651922960307162 -0.07044062964459477
0.7352873128122384 0.4020836758558342 -0.07044062964459477
0.7167625947399583 0.2665418941286548 -0.07005145489517711
-0.13481402494576836 0.16856325921526713 -0.07005145489517711
-0.43802785571204833 0.2863508888740133 -0.07005145489517711
-0.4781751228619732 0.2666041620885616 -0.07005145489517711
-0.12881295030974818 0.1696762989986016 -0.06849475589750652
0.6638659627991113 0.324910323046314 -0.06849475589750652
-0.3085883340557377 0.29924035657472586 -0.06849475589750652
0.30617545060934837 0.4395300702448006 -0.06849475589750652
-0.5358975216955992 0.3303276355582078 -0.06796547823829852
-0.1258396552241973 0.055507994509439544 -0.06796547823829852
0.7557890386115603 0.24831294886593208 -0.06796547823829852
0.5727990714353808 0.45102629234259806 -0.06693805689983591
0.7018572018372623 0.20291182259886895 -0.06693805689983591
-0.1567556973179355 0.17789566970630236 -0.06693805689983591
0.02239700682898589 0.37363500167340397 -0.06693805689983591
0.30471993704652645 0.49632623317481256 -0.06538135790216532
-0.6281630712875358 0.28931640046457574 -0.06538135790216532
0.3662328979394803 0.09454222187602991 -0.06538135790216532
0.7147855870129166 0.37133108715685154 -0.06538135790216532
0.6978720524032256 0.3045954011267127 -0.06538135790216532
0.6207298335736589 0.18244901427448884 -0.06538135790216532
0.6392545516459389 0.40846614174628365 -0.06538135790216532
0.13922726660416457 0.4316376063266106 -0.06538135790216532
0.11174374580029013 0.4033835195188892 -0.06382465890449471
0.7094694599358714 0.30043123130794386 -0.06382465890449471
0.5324805673957124 0.4463406283596095 -0.06382465890449471
0.5702927860491311 0.12811243576079648 -0.06382465890449471
-0.31036297091308224 0.3508293613575297 -0.06300739193071764
0.6122691745213189 0.07404049607670807 -0.06300739193071764
0.7250364499125774 0.29957504685922504 -0.06300739193071764
-0.13428474728656037 0.1756073221797266 -0.0622679599068241
0.7000358640099876 0.30681369719839335 -0.0622679599068241
0.6731438888252279 0.3154455931404768 -0.0622679599068241
0.6832935662900402 0.19610126448406007 -0.0622679599068241
0.6581606609726485 0.32218609980039054 -0.060711260909153505
0.6868506234997177 0.18835668697064878 -0.060711260909153505
-0.3161538911844169 0.17510917850047195 -0.060711260909153505
0.5398826711296361 0.4483721205515696 -0.060711260909153505
0.027931071765704873 0.4328440480498053 -0.06053224052442139
-0.2283560677157949 0.11504394767535175 -0.06053224052442139
0.7250364499125774 0.17655690856830566 -0.06053224052442139
0.7004561727393587 0.473847499648449 -0.06053224052442139
-0.4145995357971058 0.16792501262622211 -0.05915456191148289
0.6631420977651943 0.3259221773948 -0.05915456191148289
0.11638270881334845 0.4003557399684198 -0.05915456191148289
0.1612000729562852 0.4968165933590787 -0.05804930562313677
0.6635234890196237 0.12529481057501263 -0.05804930562313677
0.5559244543006316 0.07404049607670807 -0.05804930562313677
0.4150587620014187 0.09454222187602991 -0.05804930562313677
0.28224898701515133 0.08429135897636905 -0.05804930562313677
0.14138329471593836 0.08429135897636905 -0.05804930562313677
0.016621653547627922 0.060769637121566196 -0.05804930562313677
-0.10814777111567091 0.03302926098307599 -0.05804930562313677
-0.23290941228398135 0.1355456734746736 -0.05804930562313677
-0.36572697076523725 0.1355456734746736 -0.05804930562313677
-0.5025685961554716 0.1663060456686447 -0.05804930562313677
-0.611233969687868 0.15604739927399544 -0.05804930562313677
-0.4846432071972946 0.3303276355582078 -0.05804930562313677
-0.36975103767421574 0.36108022425719055 -0.05804930562313677
-0.2409653295969268 0.36108022425719055 -0.05804930562313677
-0.12021997184260645 0.4225931851501443 -0.05804930562313677
0.007429345966383031 0.4020836758558342 -0.05804930562313677
0.11320704285810042 0.473847499648449 -0.05804930562313677
0.2540727351573134 0.49434922544777093 -0.05804930562313677
0.39091436054754763 0.48409836254811 -0.05804930562313677
0.5317800528467606 0.5046000883474318 -0.05804930562313677
0.6605657609240495 0.5046000883474318 -0.05804930562313677
0.711135127863379 0.22233164259480975 -0.057597862913812296
-0.25704603024286404 0.3057395748900006 -0.057597862913812296
0.5027476165402037 0.12640006686335883 -0.057597862913812296
-0.25443077592677743 0.3007970555723964 -0.057597862913812296
0.6903454127494881 0.3107521456625 -0.056041163916141695
0.5691719627708085 0.11758915053654317 -0.056041163916141695
0.35595868455485435 0.4480218632770936 -0.056041163916141695
-0.3111101864319642 0.29919365560479577 -0.056041163916141695
0.724958614962694 0.14579653637433446 -0.0555741542168405
0.6404454263791569 0.1047930847756909 -0.0555741542168405
0.4875075333530085 0.07404049607670807 -0.0555741542168405
0.35468997487175274 0.07404049607670807 -0.0555741542168405
0.21784834948151846 0.08429135897636905 -0.0555741542168405
0.07699044067729391 0.06378963317704721 -0.0555741542168405
-0.03570678325906939 0.06378963317704721 -0.0555741542168405
-0.1685165582453369 0.1355456734746736 -0.0555741542168405
-0.2932859829086357 0.14579653637433446 -0.0555741542168405
-0.4301198248038817 0.15604739927399544 -0.0555741542168405
-0.566961450194116 0.14579653637433446 -0.0555741542168405
-0.5548892494671805 0.29957504685922504 -0.0555741542168405
-0.4231302463043407 0.3303276355582078 -0.0555741542168405
-0.31036297091308224 0.3508293613575297 -0.0555741542168405
-0.18058875897227242 0.37133108715685154 -0.0555741542168405
-0.05582711780396199 0.4020836758558342 -0.0555741542168405
0.048814188819455956 0.4430949109494663 -0.0555741542168405
0.17760768039173325 0.49434922544777093 -0.0555741542168405
0.31846558919595785 0.49434922544777093 -0.0555741542168405
0.45933128149517055 0.48409836254811 -0.0555741542168405
0.6001969737943835 0.5046000883474318 -0.0555741542168405
0.7048382804178014 0.473847499648449 -0.0555741542168405
-0.12881295030974818 0.1696762989986016 -0.0544844649184711
0.6747706392777937 0.3238206337479446 -0.0544844649184711
-0.42675735496891326 0.18172514924057198 -0.0544844649184711
0.561909961946675 0.12551274843468654 -0.0544844649184711
-0.5307370645183211 0.3303276355582078 -0.05409529016905344
-0.39792728953205364 0.3452252449659154 -0.05409529016905344
-0.2610856641418193 0.3706772735778298 -0.05409529016905344
-0.13546005502980163 0.416498708574264 -0.05409529016905344
-0.003506464492252963 0.4193552512349895 -0.05409529016905344
0.117231109767079 0.48970247893972413 -0.05409529016905344
0.2580968020662918 0.49434922544777093 -0.05409529016905344
0.42310689581937566 0.5046000883474318 -0.05409529016905344
0.5639725881185886 0.4975015409180537 -0.05409529016905344
0.6927660796908659 0.48409836254811 -0.05409529016905344
0.7410626660935963 0.15604739927399544 -0.05409529016905344
0.6122691745213189 0.07404049607670807 -0.05409529016905344
0.4714034822221062 0.07749636785153682 -0.05409529016905344
0.33054557341788166 0.07404049607670807 -0.05409529016905344
0.1695595465737763 0.06378963317704721 -0.05409529016905344
0.027931071765704873 0.05353877027738623 -0.05409529016905344
-0.10412370420669244 0.035784618208952956 -0.05409529016905344
-0.22888534537500288 0.12545048047477977 -0.05409529016905344
-0.36975103767421574 0.1355456734746736 -0.05409529016905344
-0.5106167299734286 0.15028761298261425 -0.05409529016905344
0.05290830718332961 0.473847499648449 -0.053137920285486015
-0.6227457587756421 0.29957504685922504 -0.053137920285486015
-0.1565922439231801 0.06836632823019873 -0.053137920285486015
0.6574601464236967 0.12529481057501263 -0.053137920285486015
0.7303292265046575 0.42258540165515596 -0.053137920285486015
0.6903454127494881 0.3107521456625 -0.05292776592080048
0.6771990897141599 0.18504091810561038 -0.05292776592080048
-0.3678985658669877 0.2982051517412749 -0.05292776592080048
0.6448041835726346 0.37845298507119446 -0.05292776592080048
0.6860489235159173 0.46100473291766647 -0.05137106692312988
-0.15609410024392545 0.17855726678031233 -0.05137106692312988
-0.13342077934285315 0.3319621695057619 -0.05137106692312988
0.05555469547936966 0.45765783007267463 -0.05137106692312988
0.6524787096311506 0.35129637105683076 -0.05137106692312988
0.7164434714454359 0.23906615681976867 -0.05137106692312988
0.6151724181519748 0.12738857072687962 -0.05137106692312988
-0.42863317726110634 0.328988874420211 -0.05137106692312988
-0.5179876997273989 0.21751365919701923 -0.05137106692312988
-0.12012656990274621 0.1214186300708129 -0.05137106692312988
-0.17660360953823567 0.37845298507119446 -0.049814367925459284
0.6493886621207745 0.4942791739928757 -0.049814367925459284
-0.36171068735124706 0.1749690755906816 -0.049814367925459284
0.6631031802902525 0.31571023197008086 -0.049814367925459284
-0.4947306167022001 0.31686218922835707 -0.049814367925459284
-0.5312585586825408 0.16232867972959633 -0.049814367925459284
-0.4031188806892851 0.16110667101642495 -0.049814367925459284
-0.306323337014127 0.14249633449927285 -0.049814367925459284
-0.12847047653026067 0.16736460098706069 -0.049814367925459284
-0.0967605179477105 0.046097749068520724 -0.049814367925459284
-0.015594232209165173 0.06304241765816529 -0.049814367925459284
0.11306693994831005 0.11168926133537163 -0.049814367925459284
0.2379531170364343 0.08359084442741725 -0.049814367925459284
0.4244690074423375 0.11712992433223036 -0.049814367925459284
0.6245593131079284 0.19013910732298162 -0.049814367925459284
-0.11591569911404725 0.4072052155581704 -0.049814367925459284
-0.4686403415012408 0.27319678234369665 -0.049814367925459284
-0.34444689546708007 0.30105391090701206 -0.049814367925459284
-0.1015240168805825 0.4077422767123669 -0.049814367925459284
1.673451422496146E-4 0.3703114493133773 -0.049814367925459284
0.2515898002560286 0.4818644994864526 -0.049814367925459284
0.3780093258568584 0.4553072145861921 -0.049814367925459284
0.5629840842550677 0.4872973789883231 -0.049814367925459284
0.6803591886794312 0.47028265894378335 -0.049814367925459284
0.7220164538570967 0.3797139112593077 -0.049814367925459284
0.7215494441577954 0.2834165112634042 -0.049814367925459284
0.6762884208005226 0.1506067362771367 -0.049814367925459284
0.7332480371252899 0.16866444465011565 -0.049814367925459284
-0.17191794555524714 0.12826032216557512 -0.04825766892778868
0.07497451547531046 0.48424624895288876 -0.04825766892778868
-0.11548760688968779 0.33668675096369216 -0.04825766892778868
-0.0895452180935072 0.04622228498833441 -0.04825766892778868
-0.6098874250548829 0.29268665379453257 -0.04825766892778868
-0.4492594389802418 0.2835488306782062 -0.04825766892778868
-0.355491674855553 0.34275787705460753 -0.04825766892778868
-0.18209875700001293 0.32234955319514597 -0.04825766892778868
-0.11830523207547164 0.4071662980832287 -0.04825766892778868
0.05665995176771576 0.3851779247411315 -0.04825766892778868
0.11533193698992086 0.4794827500200165 -0.04825766892778868
0.2930213440790318 0.4547779369269842 -0.04825766892778868
0.4160472658649396 0.4847366091371549 -0.04825766892778868
0.5735618539442395 0.45049701468339 -0.04825766892778868
-0.5057209116257546 0.2130615000636813 -0.04825766892778868
-0.42633704623954216 0.17738974253205944 -0.04825766892778868
-0.29074856354243267 0.1731166037834536 -0.04825766892778868
-0.11753466607162467 0.10694132939247629 -0.04825766892778868
-0.08074208526167993 0.10734607113187059 -0.04825766892778868
0.09843396937020642 0.08115461049606273 -0.04825766892778868
0.21996546011835041 0.11259993024900897 -0.04825766892778868
0.3991337312552485 0.086408469613201 -0.04825766892778868
0.5206807889933691 0.11784600587115884 -0.04825766892778868
0.602259599966297 0.16739573496701413 -0.04825766892778868
0.7475307504289177 0.17356804649277813 -0.04825766892778868
0.6519027310020126 0.35087606232745977 -0.04825766892778868
0.6285678130269303 0.48968691194974734 -0.04825766892778868
0.32560305410027757 0.11753466607162467 -0.04825766892778868
0.02292628448819388 0.37310572401419584 -0.04825766892778868
0.7524421357665685 0.17004212326305418 -0.04670096993011809
-0.14612344316384532 0.1703067620926581 -0.04670096993011809
-0.5001012282441637 0.3158659018698479 -0.04670096993011809
-0.535274842096531 0.16267893700407224 -0.04670096993011809
-0.4521626826108974 0.16274898845896743 -0.04670096993011809
-0.32139996680656674 0.15480982357084727 -0.04670096993011809
-0.2139332515023768 0.13435479874145553 -0.04670096993011809
-0.09665154901787347 0.09865190722988035 -0.04670096993011809
-0.03454704250580478 0.05627077701829813 -0.04670096993011809
0.03194735517969496 0.07815796492554679 -0.04670096993011809
-0.5365357682846442 0.24924696826453446 -0.04670096993011809
-0.43288296552474703 0.3004467982979205 -0.04670096993011809
-0.23699574715286673 0.36480073486162323 -0.04670096993011809
-0.06252870698893385 0.4081392349567728 -0.04670096993011809
0.15372013427247794 0.48015213058901496 -0.04670096993011809
0.5745503578077604 0.45952586886987945 -0.04670096993011809
0.6496065999804483 0.41220221934069323 -0.04670096993011809
0.7257369644615292 0.34845539538608195 -0.04670096993011809
0.7146532675981146 0.3024160225299738 -0.04670096993011809
0.6730504868853676 0.18212989097996637 -0.04670096993011809
0.7419811185022221 0.2117227389256846 -0.04670096993011809
0.12422068826661997 0.42911575395038437 -0.04670096993011809
-0.4449162487767408 0.2916203149811283 -0.04670096993011809
-0.06670844379767947 0.04423749376630443 -0.04514427093244746
-0.6179666928527934 0.30257169242974097 -0.04514427093244746
0.5298808800696024 0.08869681713977676 -0.04514427093244746
0.10458293041100535 0.479295946140296 -0.04514427093244746
-0.13124918424110268 0.38189328985604654 -0.043587571934776866
-0.1359581987090563 0.41533896782099944 -0.043587571934776866
-0.6005005300989292 0.297193297392789 -0.043587571934776866
-0.3365699985388668 0.3462760167893431 -0.043587571934776866
-0.12848604352023732 0.04007332394753548 -0.042030872937106264
0.713952753049163 0.4476093380427109 -0.042030872937106264
-0.17342016008799926 0.37612572006967687 -0.042030872937106264
-0.1318718638401709 0.3810682393872812 -0.04047417393943567
0.654206645518565 0.4718237909514773 -0.04047417393943567
-0.45308113501952313 0.32461455023675667 -0.04047417393943567
0.3209096066223006 0.48307094120964733 -0.04047417393943567
0.6536773678593572 0.46871039295613603 -0.03891747494176507
0.7437635388545548 0.2685811698156033 -0.03891747494176507
0.23330637052838749 0.08351300947753368 -0.03891747494176507
0.0820497124197233 0.08086662118149363 -0.03891747494176507
-0.13289150168364516 0.41238123972542534 -0.03736077594409445
-0.12731851927198445 0.4068004738187761 -0.03736077594409445
-0.25652453607864445 0.36116584270206237 -0.03736077594409445
0.20419609927194712 0.49434922544777093 -0.036115416745957966
0.6007496019385565 0.08446259586611275 -0.035804076946423846
0.686352479820463 0.4524818059054199 -0.035804076946423846
-0.3505258050529838 0.33861705772080375 -0.035804076946423846
0.7349837565076928 0.27060487851257514 -0.035804076946423846
-0.614915562817359 0.30008097403346795 -0.03424737794875325
0.05511881976002191 0.4574710261929544 -0.03424737794875325
0.0820497124197233 0.08086662118149363 -0.03424737794875325
-0.6047036173926399 0.29450799162180724 -0.03424737794875325
-0.20738733221717184 0.37030366581838886 -0.03424737794875325
0.6949999427525233 0.31396672909268974 -0.03424737794875325
0.6435510408795098 0.2004989391524795 -0.03424737794875325
0.39166935956141796 0.3020268477805562 -0.03424737794875325
0.313507502888377 0.22012113001811745 -0.03424737794875325
0.17762324738171004 0.20079471196203688 -0.03424737794875325
-0.07911533480911413 0.29746571971738134 -0.03424737794875325
-0.011577948795175087 0.06986854276295085 -0.03424737794875325
-0.174252994051753 0.19859198288033297 -0.03424737794875325
-0.4261424588648333 0.30011210801342136 -0.03424737794875325
-0.581866843096812 0.30049349926785063 -0.03424737794875325
0.7151202772974157 0.45794581938724377 -0.03269067895108266
0.0376215230262043 0.07161982913533034 -0.03269067895108266
0.6634223035847749 0.2222460241499378 -0.03269067895108266
-0.11611028648875601 0.13022176290264015 -0.03269067895108266
0.025004477650084102 0.13693891907758882 -0.03269067895108266
-0.43329549075912976 0.20623537495889563 -0.03269067895108266
-0.3612358941569575 0.2871525888578136 -0.03269067895108266
-0.13255681139914594 0.21145031660109215 -0.03269067895108266
-0.07341003298265146 0.29217294312530134 -0.03269067895108266
0.15527683327014846 0.21647067086857993 -0.03269067895108266
0.2273052958923672 0.2974268022424396 -0.03269067895108266
0.4559921621451671 0.2217167464907298 -0.03269067895108266
0.5280128412723977 0.30267287786458946 -0.03269067895108266
0.7306172158192267 0.253053097313839 -0.03269067895108266
0.7228804218008037 0.3724908279101161 -0.03269067895108266
-0.060092473057579456 0.19806270522112499 -0.03269067895108266
0.41124484945712564 0.08661862397788654 -0.03269067895108266
0.6485713951469976 0.47499945690672524 -0.031133979953412057
0.6896760321804899 0.46031978535869145 -0.031133979953412057
-0.6085175299369328 0.24693527025299353 -0.031133979953412057
-0.5783487033620764 0.26822312904613915 -0.031133979953412057
-0.4072441330331122 0.28634310537902485 -0.031133979953412057
-0.3326315500747602 0.20797887783628674 -0.031133979953412057
-0.09584984903407316 0.2917837683758836 -0.031133979953412057
-0.10051216253209665 0.16018043511281094 -0.031133979953412057
-0.06825735930036171 0.06150128565047133 -0.031133979953412057
0.24668619841336625 0.29776149252693873 -0.031133979953412057
0.3212676473917648 0.21936613100424726 -0.031133979953412057
0.5580804824124054 0.30319437202880917 -0.031133979953412057
0.6326619313908038 0.2247990105061176 -0.031133979953412057
0.1889170986098102 0.21396438548233024 -0.031133979953412057
0.7262506751307606 0.22368597072278312 -0.031133979953412057
0.4987313331262136 0.30524921470573435 -0.031133979953412057
0.03625941140324255 0.07441410383614903 -0.02957728095574143
0.686352479820463 0.4524818059054199 -0.02957728095574143
-0.0891404763541129 0.08068760079676154 -0.02957728095574143
-0.08998109381285495 0.16887459901480117 -0.02957728095574143
-0.5783487033620764 0.2682386960361158 -0.02957728095574143
-0.36455166302199593 0.20742624969211368 -0.02957728095574143
-0.2924998499148121 0.28835124708602 -0.02957728095574143
-0.06381298366201216 0.2126489748292986 -0.02957728095574143
-0.004673988740505959 0.2933716013535077 -0.02957728095574143
0.22401287751229407 0.21766932909678627 -0.02957728095574143
0.2960335566395244 0.29861767697565755 -0.02957728095574143
0.5247204228923243 0.22291540471893614 -0.02957728095574143
0.5967488855145431 0.30387153609279594 -0.02957728095574143
0.7127385278309798 0.30589524478976765 -0.02957728095574143
-0.5137379114637582 0.28758068108217305 -0.02957728095574143
-0.5624781570808248 0.20089589739688551 -0.02957728095574143
0.55002456509946 0.4870716576336609 -0.02957728095574143
-0.16773042525151324 0.09943025672871561 -0.028020581958070834
0.6846401109230253 0.45347809326392924 -0.028020581958070834
0.6504082999642488 0.22495468040588462 -0.028020581958070834
0.5101964212440577 0.22250287948455344 -0.028020581958070834
0.4514154670920156 0.30148978662635983 -0.028020581958070834
0.22978044729866354 0.21761484463186775 -0.028020581958070834
0.17099949314662163 0.29659396827868584 -0.028020581958070834
-0.09226944133943082 0.16715444662237514 -0.028020581958070834
-0.07337111550770961 0.29232861302506835 -0.028020581958070834
-0.294990568311085 0.20847702151554137 -0.028020581958070834
-0.3537948729480921 0.2874327946773943 -0.028020581958070834
-0.49400675166828323 0.2849887772510515 -0.028020581958070834
-0.17342016008799926 0.37612572006967687 -0.028020581958070834
0.4685780735413341 0.21884463684002756 -0.028020581958070834
-0.16149584576584247 0.20786212541146143 -0.028020581958070834
0.001007962600991772 0.06872436899966301 -0.028020581958070834
0.7247251101130434 0.22959364341894306 -0.02646388296040024
0.656300405670432 0.4683212182067183 -0.02646388296040024
0.7204286208794726 0.4650132328366684 -0.02646388296040024
0.4829853227647755 0.08787955016599977 -0.02646388296040024
-0.5130996648747131 0.286942434493128 -0.02646388296040024
0.7150190918625673 0.4386271848261516 -0.02646388296040024
-0.016139076858349942 0.2956132479101533 -0.02646388296040024
-0.5743246364530981 0.21124016223640663 -0.024907183962729642
0.6466488718848742 0.4911424255125695 -0.024907183962729642
0.6896915991704664 0.4603042183687147 -0.024907183962729642
0.7292006197313464 0.2880165568015208 -0.024907183962729642
-0.3547989438015896 0.3428901964694095 -0.024907183962729642
-0.5871051352239737 0.16724784856223537 -0.024907183962729642
-0.12130187764598749 0.14487808396570884 -0.024907183962729642
-0.11999425048794424 0.13833994817549228 -0.023350484965059044
0.1448002490158254 0.22233164259480975 -0.023350484965059044
-0.13481402494576836 0.38275725779975367 -0.023350484965059044
0.7202496004947405 0.2207905105871158 -0.023350484965059044
-0.09721974415202331 0.08530321332485491 -0.023350484965059044
0.694003655394014 0.3111024029369759 -0.023350484965059044
0.027658649441112435 0.42665616953406477 -0.023350484965059044
0.037496987106390725 0.08010383867263504 -0.023350484965059044
-0.5784732392818902 0.20638326136367438 -0.023350484965059044
-0.07584626691400585 0.06095644100128667 -0.02179378596738842
0.7244526877884511 0.23294832975892318 -0.02179378596738842
-0.6125415968459113 0.16400213115209228 -0.02179378596738842
0.7335749439148007 0.2840002733875306 -0.02179378596738842
-0.579461743145411 0.281493988001281 -0.02179378596738842
-0.35405951177769607 0.3428590624894562 -0.02179378596738842
-0.2402570315529866 0.2918693868207556 -0.02179378596738842
-0.11200060113490569 0.2941110333774012 -0.02179378596738842
0.19485590528592361 0.436167600409832 -0.02179378596738842
0.21850994655552833 0.2998786031637708 -0.02179378596738842
0.4966998409342535 0.48597418484030297 -0.02179378596738842
0.47503059088667876 0.3043541127820738 -0.02179378596738842
0.7206309917491696 0.3900114751288988 -0.02179378596738842
-0.5803412780790949 0.23290162878899306 -0.02179378596738842
-0.44995995352919355 0.20333213132824002 -0.02179378596738842
-0.338227882971386 0.14542292861489362 -0.02179378596738842
-0.10468411584585387 0.20932542246927183 -0.02179378596738842
-0.09010562973266864 0.07850043870503441 -0.02179378596738842
0.06234968660420188 0.08070316778673821 -0.02179378596738842
0.36887150274053193 0.21758371065191442 -0.02179378596738842
0.40765665826749503 0.08672759290772344 -0.02179378596738842
0.7141784744038251 0.22360813577289954 -0.02179378596738842
-0.5771578286288586 0.20934877295423687 -0.02023708696971782
-0.5698179928548416 0.20985470012847982 -0.02023708696971782
0.6524942766211274 0.4732170365543925 -0.02023708696971782
-0.13033851532746535 0.0526825858286674 -0.02023708696971782
-0.6082684580973056 0.17602763090909757 -0.02023708696971782
-0.6024152698660641 0.2968352566233247 -0.02023708696971782
-0.3935451818536109 0.28902841115000666 -0.02023708696971782
-0.30389488657776087 0.35235492637524685 -0.02023708696971782
-0.09283763647358054 0.2942744867721566 -0.02023708696971782
0.048923157749292866 0.29674963817845285 -0.02023708696971782
0.048028055825632306 0.45062933409819195 -0.02023708696971782
0.1844960734564256 0.415331184326011 -0.02023708696971782
0.34963848662431163 0.3020034972955911 -0.02023708696971782
0.424414522977419 0.3802042714435738 -0.02023708696971782
0.650346032004342 0.30724957291774113 -0.02023708696971782
0.10182757318512839 0.47539641515113135 -0.02023708696971782
-0.5507250796484117 0.29628262847915166 -0.02023708696971782
-0.38024318891851555 0.1489722023295825 -0.02023708696971782
-0.28466965395652893 0.2063676943736977 -0.02023708696971782
-0.20733284775225333 0.2077142390066828 -0.02023708696971782
-0.09133542194082843 0.20973016420866622 -0.02023708696971782
0.05975778277308034 0.08049301342205278 -0.02023708696971782
0.09939912274876216 0.19382848394746097 -0.02023708696971782
0.3604653281531106 0.08573908904420266 -0.02023708696971782
0.3812161257920597 0.21796510190634366 -0.02023708696971782
0.6309417789983779 0.12122404269610403 -0.02023708696971782
0.6819314546670786 0.22321117752849365 -0.02023708696971782
0.7265542314353064 0.2966095352686625 -0.02023708696971782
0.6895203622807227 0.45165675543665457 -0.02023708696971782
0.40806140000688934 0.3791534996201463 -0.02023708696971782
-0.5743402034430748 0.20522352061040977 -0.018680387972047224
-0.11355730013257631 0.14114978986628776 -0.018680387972047224
0.6493886621207745 0.4942791739928757 -0.018680387972047224
0.4864801120145459 0.39496956143647965 -0.018680387972047224
-0.5591701717107747 0.30488339044128177 -0.018680387972047224
-0.5397192177348805 0.2019466692203132 -0.018680387972047224
-0.43489110723174207 0.1537979692223614 -0.018680387972047224
-0.2283560677157949 0.20734841474223012 -0.018680387972047224
-0.16261666904416533 0.12010321941778127 -0.018680387972047224
-0.09638691018826953 0.09018346468255221 -0.018680387972047224
-0.06075407013158941 0.04777898398600504 -0.018680387972047224
-0.015594232209165173 0.0630346341631769 -0.018680387972047224
0.21647845436356822 0.2150929922556414 -0.018680387972047224
0.23796090053142246 0.08360641141739392 -0.018680387972047224
0.5278649548676189 0.22052587175751187 -0.018680387972047224
0.5493551845304615 0.08903929091926438 -0.018680387972047224
0.4931427837245762 0.43931213238512656 -0.018680387972047224
-0.5648988240222025 0.2860395490744791 -0.018680387972047224
-0.3551258505911004 0.3428279285095027 -0.018680387972047224
-0.2535045400231634 0.29147242857634953 -0.018680387972047224
-0.12004873495286264 0.29379969357786706 -0.018680387972047224
0.13377882011231743 0.4208808162527067 -0.018680387972047224
0.15575940995942633 0.29861767697565755 -0.018680387972047224
0.3772154093680464 0.3670968658831874 -0.018680387972047224
0.6005238805838944 0.4890797993406558 -0.018680387972047224
0.5383337556269537 0.3052959156756645 -0.018680387972047224
0.725269954762228 0.3523627098702351 -0.018680387972047224
0.7327109759710936 0.2665418941286548 -0.018680387972047224
0.6944161806283967 0.15605518276898384 -0.018680387972047224
-0.5784498887969252 0.2771585812927684 -0.017123688974376626
-0.5719039695117202 0.27711188032283823 -0.017123688974376626
0.6562147872255601 0.47141126571709463 -0.017123688974376626
0.4785565141164025 0.4856550615457805 -0.017123688974376626
0.38605745967481536 0.41297278534454007 -0.017123688974376626
0.20839140307066953 0.46467854255216917 -0.017123688974376626
-0.1551912148252765 0.09032356759234257 -0.017123688974376626
-0.608610931876793 0.23396018410740915 -0.017123688974376626
-0.5029110699349592 0.31534440770562816 -0.017123688974376626
-0.32481692110645377 0.2902270693782131 -0.017123688974376626
-0.2449271285459985 0.36332187081383616 -0.017123688974376626
-0.024101592231435046 0.295473145000363 -0.017123688974376626
0.11765920199143835 0.2979482964066592 -0.017123688974376626
0.13458830359110613 0.4208885997476951 -0.017123688974376626
0.28454511803671534 0.3670968658831874 -0.017123688974376626
0.49569577008075605 0.30454870015678254 -0.017123688974376626
0.4979996845973085 0.4552293796363086 -0.017123688974376626
0.18574921614955045 0.400931718597558 -0.017123688974376626
-0.5637235162789612 0.29736453428253284 -0.017123688974376626
-0.542443440980804 0.2018921847553947 -0.017123688974376626
-0.332296859790261 0.1447301975609302 -0.017123688974376626
-0.22862070654539882 0.18966431412869214 -0.017123688974376626
-0.12173775336533524 0.13802082488096984 -0.017123688974376626
-0.06642823797809876 0.19793816930131142 -0.017123688974376626
0.10271489161380055 0.08124022894093459 -0.017123688974376626
0.12359022517256336 0.2133494893782503 -0.017123688974376626
0.4034224369938309 0.08649408805807285 -0.017123688974376626
0.4241810181277684 0.21872010092021385 -0.017123688974376626
0.6532103581600559 0.14266757138901665 -0.017123688974376626
0.7247484605980086 0.2241062794521542 -0.017123688974376626
0.7279007760682915 0.3302264501233592 -0.017123688974376626
0.7149334734176952 0.43935104986006857 -0.017123688974376626
-0.037582605551262464 0.21303814957871622 -0.015566989976706028
0.12032894077244347 0.22161556105588118 -0.015566989976706028
0.21912484265960827 0.4867603178341266 -0.015566989976706028
0.2825214093397436 0.4824015606406489 -0.015566989976706028
0.185912669544306 0.43003420635900996 -0.015566989976706028
0.4829464052898338 0.4861298547400701 -0.015566989976706028
0.7299322682602516 0.16832197087062814 -0.015566989976706028
0.7249196974877522 0.29706097797798703 -0.015566989976706028
0.717042800559539 0.42294344242462034 -0.015566989976706028
0.6460028418008409 0.477793731607544 -0.015566989976706028
0.4867758848241034 0.452326136005653 -0.015566989976706028
0.3702258308685054 0.3672525357829545 -0.015566989976706028
0.16388537872726697 0.2986021099856809 -0.015566989976706028
0.15690358372271426 0.4214412278918681 -0.015566989976706028
0.08074208526168004 0.4790313073106921 -0.015566989976706028
-0.1434459208878518 0.3768028841336637 -0.015566989976706028
-0.36863799789088125 0.2893086169695874 -0.015566989976706028
-0.47492940545183004 0.32070723575260346 -0.015566989976706028
0.576216025735268 0.08935063071879844 -0.015566989976706028
0.5706041258486654 0.2214287571761608 -0.015566989976706028
0.29594015469966417 0.08446259586611275 -0.015566989976706028
0.2903282548130616 0.21654072232347513 -0.015566989976706028
0.15019421104275402 0.2140967048971322 -0.015566989976706028
-0.09882314411962405 0.0949002626454942 -0.015566989976706028
-0.17696165030769997 0.13085222599669677 -0.015566989976706028
-0.23817105489610801 0.20733284775225344 -0.015566989976706028
-0.4299875053890797 0.15320642360324663 -0.015566989976706028
-0.5184157919517584 0.2024681633845328 -0.015566989976706028
-0.5795006606203527 0.2751426560907849 -0.015566989976706028
0.18152277837087494 0.4186858706659913 -0.014010290979035403
0.2636308670030107 0.48207465385113807 -0.014010290979035403
0.1789153075497766 0.480595789803351 -0.014010290979035403
0.47113105989751386 0.3834889063286588 -0.014010290979035403
0.485950834355338 0.4825650140354044 -0.014010290979035403
0.5730403597800198 0.0939662432468918 -0.014010290979035403
0.4147007212319545 0.12069476503689604 -0.014010290979035403
0.2571939166476428 0.07545709216458833 -0.014010290979035403
0.13349083079774843 0.12122404269610403 -0.014010290979035403
-0.17085160674184277 0.10675452551275581 -0.014010290979035403
0.41189866303614736 0.3640613028377297 -0.012453591981364807
0.19703528388266245 0.4646629755621924 -0.012453591981364807
0.38132509472189674 0.4809304800878502 -0.012453591981364807
0.47756022675789345 0.4858029479505592 -0.012453591981364807
0.4879278420823796 0.3869603450934642 -0.012453591981364807
0.5249150102670331 0.45034912827861123 -0.012453591981364807
0.6060968629955552 0.44038625469351933 -0.012453591981364807
0.5497054418049375 0.11679523404773114 -0.012453591981364807
0.5609136745881659 0.13497747834052387 -0.012453591981364807
0.47917919371547085 0.13132701919098624 -0.012453591981364807
0.40710403012332197 0.1444422082463611 -0.012453591981364807
0.3380021616167238 0.1358881472541611 -0.012453591981364807
0.24600125085439126 0.08880578606961378 -0.012453591981364807
0.27567193374999305 0.13125696773609108 -0.012453591981364807
0.20687362154794053 0.14582767035428792 -0.012453591981364807
0.13353753176767855 0.13110908133131244 -0.012453591981364807
0.1348996433906403 0.14440329077141936 -0.012453591981364807
-0.15006189162795194 0.11108214872628007 -0.012453591981364807
0.5375709731180952 0.4243522550175121 -0.01206441723194715
0.6162932414302976 0.4492283050002883 -0.01206441723194715
0.535804119755739 0.1290308881694221 -0.01206441723194715
0.4266639530290532 0.13213650266977495 -0.01206441723194715
0.34843982839610527 0.15743286138192225 -0.01206441723194715
0.2500486682483349 0.12581630473923233 -0.01206441723194715
0.16214187584987585 0.11165812735541818 -0.01206441723194715
0.117231109767079 0.13027624736755855 -0.011441737632878922
0.1373592278069599 0.18837225396062557 -0.011441737632878922
0.199627187713784 0.10534571291986394 -0.011441737632878922
0.2630704553638495 0.18837225396062557 -0.011441737632878922
0.27769564244696476 0.10722153521205702 -0.011441737632878922
0.3667621755986882 0.14736880236198188 -0.011441737632878922
0.42516173849630096 0.15085580811676397 -0.011441737632878922
0.4150587620014187 0.10715926725215011 -0.011441737632878922
0.5076278678979012 0.10633421678338474 -0.011441737632878922
0.535804119755739 0.13616835307374184 -0.011441737632878922
0.5719117530067086 0.1678705281613037 -0.011441737632878922
0.5980020282076679 0.3977327021573449 -0.011441737632878922
0.6252209101819385 0.4620243707611407 -0.011441737632878922
0.5116519348068795 0.43127178206215805 -0.011441737632878922
0.5393845274503815 0.39026833046351433 -0.011441737632878922
0.23797646752139925 0.3562233233844583 -0.011441737632878922
0.19536961595515492 0.3738295890481128 -0.01089689298369421
0.14731431789706337 0.42355833852870006 -0.01089689298369421
0.1985219314254379 0.37421876379753033 -0.01089689298369421
0.3750048967913542 0.4840205275982263 -0.01089689298369421
0.408715213585911 0.42950492869980184 -0.01089689298369421
0.5383104051419888 0.46953544342490144 -0.01089689298369421
0.5221285190612027 0.47254765598539406 -0.01089689298369421
0.5909346147582435 0.46915405217047207 -0.01089689298369421
0.598951614596247 0.43544373537591524 -0.01089689298369421
0.5559166708056433 0.17106954460151672 -0.01089689298369421
0.5559166708056433 0.17106954460151672 -0.01089689298369421
0.49096340512783737 0.11604801852884933 -0.01089689298369421
0.4921153623861136 0.13366206768749214 -0.01089689298369421
0.4086762961109693 0.17549835324988958 -0.01089689298369421
0.34241540327512004 0.12471883194587452 -0.01089689298369421
0.34037612758817154 0.17827706096073162 -0.01089689298369421
0.2715544649011541 0.14110308889635764 -0.01089689298369421
0.27413858523728746 0.11226523996450974 -0.01089689298369421
0.1975489945518938 0.11531636999994409 -0.01089689298369421
0.21022830788792077 0.14778132759636456 -0.01089689298369421
0.14831060525557255 0.1171065738472653 -0.01089689298369421
0.1466527208230534 0.1288596512796784 -0.01089689298369421
-0.16917037182435857 0.11613363697372119 -0.01089689298369421
0.1937039480276474 0.3405784984578687 -0.010507718234276552
0.33456964032686015 0.3562233233844583 -0.010507718234276552
0.5488881748311604 0.1071748342421269 -0.010507718234276552
0.28192986372062867 0.1047930847756909 -0.010507718234276552
0.17045464849743697 0.48591970037538446 -0.009340193986023612
0.2279357589864239 0.369533099814542 -0.009340193986023612
0.5189217191260013 0.4621644736709311 -0.009340193986023612
0.5218716637265872 0.45783685045740696 -0.009340193986023612
0.6067740270595418 0.4379967217320951 -0.009340193986023612
0.6088600037164205 0.45766561356766305 -0.009340193986023612
0.5607268707084454 0.11400095934691246 -0.009340193986023612
0.5598395522797731 0.15638987305348295 -0.009340193986023612
0.4782218238319035 0.11884229322966802 -0.009340193986023612
0.5040241097182937 0.11367405255740161 -0.009340193986023612
0.4032512001040872 0.1190290971093885 -0.009340193986023612
0.41462288628207083 0.15690358372271426 -0.009340193986023612
0.3409988071872399 0.17092165819673807 -0.009340193986023612
0.35025338272839157 0.14830282176058415 -0.009340193986023612
0.3366478334887503 0.1412976762710665 -0.009340193986023612
0.28048991714778354 0.1464659169433329 -0.009340193986023612
0.270667146472482 0.13841778312537587 -0.009340193986023612
0.2018299167954878 0.1464814839333096 -0.009340193986023612
0.18607612293906128 0.11563549329446654 -0.009340193986023612
0.14983617027328971 0.12871954836988805 -0.009340193986023612
0.13768613459647072 0.15755739730173596 -0.009340193986023612
-0.15494992648063763 0.11511399913024693 -0.009340193986023612
0.19196044515025618 0.35700945637828196 -0.008951019236605956
0.16499063501561306 0.46415704838794947 -0.007783494988353014
0.5310951052877854 0.4210754036274156 -0.007783494988353014
0.25355902448808204 0.08499965702030912 -0.007783494988353014
-0.16668743692307394 0.10631086629841968 -0.007783494988353014
0.47440791128761045 0.11175152929527842 -0.006771640639867103
0.1870646268025822 0.3562233233844583 -0.006771640639867103
0.41974442598440725 0.43127178206215805 -0.006771640639867103
0.19761126251180045 0.3671513503481059 -0.00622679599068239
0.5730403597800198 0.0939662432468918 -0.00622679599068239
-0.15993914676817184 0.10521339350506186 -0.00622679599068239
0.12876624933981817 0.4232314317391895 -0.004670096993011792
0.5553562591664818 0.0852487288599364 -0.004670096993011792
-0.1601259506478923 0.10144618193069904 -0.004670096993011792
