0.5247685381048898 0.6079110121392061 -0.1206924339907079
0.48265066719387223 0.3360120660035476 -0.1206924339907079
0.4669011163906005 0.5904403764027932 -0.1198264793073665
0.6024554976341552 0.5654684082219356 -0.1198264793073665
0.6120892434863283 0.40987800049256917 -0.1198264793073665
0.4959105982825376 0.32008932426360753 -0.1198264793073665
0.4456311044810273 0.5239350567221737 -0.1198264793073665
0.5577614115401972 0.6013730542799783 -0.11906876895944278
0.4693907361052071 0.48926439608789224 -0.11906876895944278
0.5873445884098477 0.3687776263344779 -0.11906876895944278
0.512417859433733 0.5897151393554948 -0.11906876895944278
0.46665215441913993 0.3754671262632902 -0.11906876895944278
0.599024152201415 0.4557086521084128 -0.11906876895944278
0.4945142463556495 0.5983530373218253 -0.11906876895944278
0.46402181706849044 0.35280076242682906 -0.11906876895944278
0.6036894830579168 0.37371356802952393 -0.11906876895944278
0.5522625993009792 0.6012756343781026 -0.11906876895944278
0.4820444989155333 0.5614092456437727 -0.11906876895944278
0.5727640764290869 0.5823869978477182 -0.11906876895944278
0.4911370230906181 0.3526816936578695 -0.11906876895944278
0.5419252652685912 0.3412619162713048 -0.11906876895944278
0.4692067207349971 0.47595034283151816 -0.11906876895944278
0.46572125313454793 0.5952139515947128 -0.11852754728235441
0.6095346771704713 0.35285488459453784 -0.11852754728235441
0.4598868834555352 0.5418494942337989 -0.11766159259901302
0.4313753255065195 0.4241337794670771 -0.11766159259901302
0.5206336044919345 0.61546646675136 -0.11766159259901302
0.6309670555831709 0.4526453374160926 -0.11766159259901302
0.5978767622459877 0.32880299326473045 -0.11766159259901302
0.4751926324835945 0.517213083492736 -0.11690388225108928
0.5526631033420246 0.33162817041913173 -0.11690388225108928
0.5827875018887637 0.5811854857245822 -0.11690388225108928
0.4638486261318221 0.445739348816445 -0.11690388225108928
0.5864245115587976 0.3500080585730529 -0.11690388225108928
0.5838482963758569 0.5897259637890366 -0.11690388225108928
0.4627878316447289 0.511530255883308 -0.11690388225108928
0.4978698207535975 0.3270927327651312 -0.11690388225108928
0.6026286885708235 0.39815513896683496 -0.11690388225108928
0.5586706639577057 0.6043605979375063 -0.11690388225108928
0.5872579929415136 0.4361380762648972 -0.11690388225108928
0.4750843881481768 0.4361272518313554 -0.11690388225108928
0.5908841781780059 0.3604861102414839 -0.11690388225108928
0.5759464598903665 0.326908717394921 -0.11636266057400091
0.47520345691713617 0.6094697305692207 -0.11636266057400091
0.6118186326477842 0.3919527385474021 -0.1154967058906595
0.5927459807471899 0.5991540454039161 -0.1154967058906595
0.4562282249184177 0.5381908356966815 -0.1154967058906595
0.6167112766086631 0.2958209442629647 -0.1154967058906595
0.5022970140721803 0.5927459807471896 -0.11473899554273577
0.46602433727371734 0.3617200956652455 -0.11473899554273577
0.5992406408722503 0.4456202800474856 -0.11473899554273577
0.49529360557065677 0.5972597695341068 -0.11473899554273577
0.4631666868186907 0.37417901867181985 -0.11473899554273577
0.5989159078659972 0.37410324763702757 -0.11473899554273577
0.5734676646093018 0.5936335842976148 -0.11473899554273577
0.4611641666134637 0.5111405762758044 -0.11473899554273577
0.4792517950617573 0.332450827368306 -0.11473899554273577
0.6010050235395583 0.36910235934073093 -0.11473899554273577
0.5970324564297298 0.5703177544486475 -0.11473899554273577
0.47582044962901693 0.41270317764697045 -0.11473899554273577
0.535885231352285 0.5904403764027932 -0.11473899554273577
0.5875935503813084 0.35802896382750266 -0.11473899554273577
0.4622899077018075 0.5952139515947128 -0.1141977738656474
0.6024554976341552 0.5890548489094471 -0.11333181918230599
0.608105851942958 0.3401145263158775 -0.11333181918230599
0.47071131699730273 0.3066453778047322 -0.11333181918230599
0.454398895649859 0.5149832501831318 -0.11333181918230599
0.502037227667178 0.6109202046638174 -0.11257410883438226
0.4678969642764431 0.366493670857165 -0.11257410883438226
0.5986019992932861 0.4561416294500836 -0.11257410883438226
0.48465318739909924 0.5902238877319578 -0.11257410883438226
0.4609801512432537 0.35380743474621346 -0.11257410883438226
0.5993380607741262 0.3843972839352484 -0.11257410883438226
0.5570469989264405 0.5995653738785032 -0.11257410883438226
0.4576029279782223 0.48928604495497574 -0.11257410883438226
0.48524853124389655 0.331335910713504 -0.11257410883438226
0.5993380607741262 0.38932240119675265 -0.11257410883438226
0.5655550036902698 0.6018385049222744 -0.11257410883438226
0.4665980322514311 0.46828664388394675 -0.11257410883438226
0.5718764728786621 0.3485467600449144 -0.11257410883438226
0.4801177497450987 0.3498781653705517 -0.11257410883438226
0.4456311044810273 0.43495821300884463 -0.11203288715729388
0.4463563415283258 0.42493478754916786 -0.1111669324739525
0.6167112766086631 0.3100767232374726 -0.1111669324739525
0.6201426220414034 0.4224235189674778 -0.1111669324739525
0.5594824964733381 0.609166646430051 -0.11040922212602877
0.464130061403908 0.4676155290043572 -0.11040922212602877
0.5659555077313151 0.34021194621775347 -0.11040922212602877
0.589054848909447 0.5797674849306106 -0.11040922212602877
0.46345894652431846 0.4860278904589037 -0.11040922212602877
0.5385047442693928 0.32533917453136474 -0.11040922212602877
0.6007127638339308 0.49177566466958234 -0.11040922212602877
0.4901087019041502 0.6010374968401838 -0.11040922212602877
0.4681783995485292 0.3899393939086334 -0.11040922212602877
0.601773558321024 0.3373434713291851 -0.11040922212602877
0.5940990349399108 0.5359393535199938 -0.11040922212602877
0.4761235337681865 0.5669188823165324 -0.11040922212602877
0.47124171424084926 0.43277167743340744 -0.11040922212602877
0.5921939346365597 0.3541213433189247 -0.11040922212602877
0.595950013075553 0.47045153059230027 -0.11040922212602877
0.6151309093115651 0.40987800049256917 -0.10986800044894038
0.4598868834555352 0.549762155152831 -0.10986800044894038
0.6089934554933828 0.5131106231804061 -0.10900204576559898
0.5918692016303067 0.3100767232374726 -0.10900204576559898
0.45262368854900914 0.3385991056200301 -0.10900204576559898
0.5759248110232831 0.3249927926580282 -0.10824433541767527
0.46729079599810414 0.42109211364184035 -0.10824433541767527
0.5957876465724264 0.373475430491605 -0.10824433541767527
0.5380934157948055 0.602845177241659 -0.10824433541767527
0.46320998455285783 0.411187756951123 -0.10824433541767527
0.5961232040122213 0.3344966453077001 -0.10824433541767527
0.5908408804438388 0.5500111171242915 -0.10824433541767527
0.465807848602882 0.5355929716466573 -0.10824433541767527
0.45484269742507144 0.3633545851300523 -0.10824433541767527
0.5948567452878344 0.32817517611930785 -0.10824433541767527
0.5998468091505893 0.5265978673734484 -0.10824433541767527
0.5035418239294837 0.5922588812378102 -0.10824433541767527
0.5274638220567898 0.33232093416580477 -0.10824433541767527
0.5917717817284307 0.4856165619843166 -0.10824433541767527
0.5917501328613473 0.43547778581884933 -0.10824433541767527
0.48079968905823006 0.3142224812839695 -0.10770311374058689
0.5535615313259913 0.2958209442629647 -0.10683715905724549
0.6151309093115651 0.3956222215180614 -0.10683715905724549
0.5773752851178799 0.6136912596505099 -0.10683715905724549
0.4849670959718105 0.6237255095437286 -0.10683715905724549
0.4313753255065195 0.3956222215180614 -0.10683715905724549
0.594878394154918 0.3658009071104918 -0.10607944870932175
0.5433107927619375 0.6000957711220498 -0.10607944870932175
0.47674052648006726 0.3821674506256443 -0.10607944870932175
0.5962855705153478 0.34213869538818803 -0.10607944870932175
0.59097077364634 0.5679796768036256 -0.10607944870932175
0.46099097567679553 0.47776884766653516 -0.10607944870932175
0.52121812390319 0.3150884359673109 -0.10607944870932175
0.6090908753952587 0.43172170737985605 -0.10607944870932175
0.5239350567221737 0.6133989999448823 -0.10607944870932175
0.45298089485588744 0.4299897980131733 -0.10607944870932175
0.5983097395876583 0.43658187804010967 -0.10607944870932175
0.5163904265435617 0.5952464248953382 -0.10607944870932175
0.5535615313259913 0.6203807595793221 -0.1055382270322334
0.45281852835276093 0.3976788638909972 -0.1055382270322334
0.6095346771704713 0.5137709136264539 -0.1055382270322334
0.44219975904828707 0.39219087608532105 -0.10467227234889197
0.5926810341459392 0.31538069567293864 -0.10467227234889197
0.6151309093115651 0.5096792777476657 -0.10467227234889197
0.4598868834555352 0.6094697305692207 -0.10467227234889197
0.4668686430899752 0.3515234792689004 -0.10391456200096824
0.6017843827545657 0.4309423481648488 -0.10391456200096824
0.471165943206057 0.5591794123341688 -0.10391456200096824
0.48581140178806836 0.3228279059496747 -0.10391456200096824
0.606839393218571 0.42966506500692025 -0.10391456200096824
0.46897940763061996 0.5856559767773319 -0.10391456200096824
0.45842558492739655 0.3403959615879635 -0.10391456200096824
0.6007777104351814 0.37564031719995855 -0.10391456200096824
0.5769206589091257 0.6059950874023133 -0.10391456200096824
0.5857642211127498 0.37331306398847847 -0.10391456200096824
0.5199841384794285 0.2958209442629647 -0.10337334032387988
0.6309670555831709 0.4526453374160926 -0.10250738564053846
0.5257860348578158 0.3029217726663642 -0.10250738564053846
0.44699498310729 0.5096792777476657 -0.10250738564053846
0.5635091857508757 0.6141134125586389 -0.10250738564053846
0.5881131231913134 0.5778082624595505 -0.10174967529261474
0.47164221828189473 0.3708017954067884 -0.10174967529261474
0.6045879110418835 0.42206631266059946 -0.10174967529261474
0.48457741636430685 0.6023039555645705 -0.10174967529261474
0.4720751956235655 0.3305673759320385 -0.10174967529261474
0.6096970436735978 0.4292753853994166 -0.10174967529261474
0.5154487008254278 0.6098052880090156 -0.10174967529261474
0.46033068523074766 0.3970510467455746 -0.10174967529261474
0.5614308945108564 0.3208686834786148 -0.10174967529261474
0.606287347107941 0.5011387996832112 -0.10174967529261474
0.4631017402174401 0.4330531127054935 -0.10174967529261474
0.6167112766086631 0.5096792777476657 -0.10120845361552636
0.4497010914927319 0.3992592311880953 -0.10120845361552636
0.45281852835276093 0.5263813787026131 -0.10034249893218497
0.5507796519057572 0.6179236131653412 -0.10034249893218497
0.6221776155472557 0.4224235189674778 -0.10034249893218497
0.5881997186596475 0.2930823625768975 -0.10034249893218497
0.548084367953857 0.31954810258651917 -0.09958478858426124
0.5915769419246789 0.5515914844213896 -0.09958478858426124
0.4667820476216411 0.40678221249962365 -0.09958478858426124
0.5874853060458908 0.3296797723816135 -0.09958478858426124
0.5642993693994248 0.6010807945743508 -0.09958478858426124
0.4594214328132391 0.3981659634003768 -0.09958478858426124
0.5892713375802825 0.3246139374840664 -0.09958478858426124
0.6000308245207994 0.5523491947693134 -0.09958478858426124
0.45325150569443173 0.5051654889607486 -0.09958478858426124
0.5080447882828589 0.5965345324868085 -0.09958478858426124
0.5821380358762576 0.5704043499169816 -0.09958478858426124
0.4723133331614843 0.4695855759089589 -0.09958478858426124
0.44624809719290803 0.39841492537183737 -0.09904356690717286
0.5739439396851396 0.6160834594632405 -0.09904356690717286
0.513489478354368 0.6237255095437286 -0.09817761222383145
0.6079867831739986 0.533926008881225 -0.09817761222383145
0.4884092658380927 0.267309386313949 -0.09817761222383145
0.44197244594390994 0.3956222215180614 -0.09817761222383145
0.4802801162482252 0.3293009172076517 -0.09741990187590774
0.6004096796947612 0.46828664388394675 -0.09741990187590774
0.4568993397980074 0.4615863195215927 -0.09741990187590774
0.5508987206747166 0.3137137329075065 -0.09741990187590774
0.5954087913984646 0.5273772265884558 -0.09741990187590774
0.4510757945525364 0.43658187804010967 -0.09741990187590774
0.5548496389174616 0.3118519303383225 -0.09741990187590774
0.6088094401231728 0.5034444040276077 -0.09741990187590774
0.4522773066756726 0.5054252753657511 -0.09741990187590774
0.5663884850729859 0.4326417842309062 -0.09741990187590774
0.5995653738785033 0.41232432247300865 -0.09741990187590774
0.4674315136341472 0.4482506173981351 -0.09741990187590774
0.597346365002441 0.4605363494680413 -0.09741990187590774
0.6151309093115651 0.5524466146711894 -0.09687868019881936
0.44722229621166715 0.36711066356904576 -0.09687868019881936
0.4313753255065195 0.3545651450941371 -0.09601272551547796
0.5132513408164491 0.6237255095437286 -0.09601272551547796
0.6095346771704713 0.38406172649545356 -0.09601272551547796
0.5498595750547068 0.3188986365740131 -0.09525501516755423
0.5885028027988171 0.5799947980349875 -0.09525501516755423
0.46763717787144066 0.4014782400641576 -0.09525501516755423
0.5970108075626461 0.344238635495291 -0.09525501516755423
0.5706208385878171 0.6057028276966855 -0.09525501516755423
0.4531865590931811 0.40556987594294575 -0.09525501516755423
0.5706316630213587 0.3150018404989768 -0.09525501516755423
0.6093290129331776 0.5009547843130011 -0.09525501516755423
0.4552756747667422 0.5216943989790277 -0.09525501516755423
0.4769461907173608 0.3176538267167099 -0.09525501516755423
0.4870020894776628 0.3852199408844227 -0.09525501516755423
0.5596232141093812 0.4886582278095533 -0.09525501516755423
0.5601860846535531 0.4951204146339884 -0.09525501516755423
0.49704716380442304 0.44636716596186743 -0.09525501516755423
0.47756318342924153 0.5160115713695999 -0.09525501516755423
0.588362085162774 0.5024593805753068 -0.09525501516755423
0.5397603785602378 0.4840253702536767 -0.09525501516755423
0.5852879460369119 0.3884780953804947 -0.09525501516755423
0.4461723261581158 0.38783945380153045 -0.09471379349046587
0.4456311044810273 0.2958209442629647 -0.09384783880712444
0.6167112766086631 0.5381908356966815 -0.09384783880712444
0.4640109926349486 0.6237255095437286 -0.09384783880712444
0.48760825775600175 0.32497114379094477 -0.09309012845920071
0.6041116359660457 0.4619110525278457 -0.09309012845920071
0.4581657985223941 0.4751060370152603 -0.09309012845920071
0.553345042655156 0.31127823536060883 -0.09309012845920071
0.6072074239589912 0.5066159630553455 -0.09309012845920071
0.4539442694411048 0.45793848541801696 -0.09309012845920071
0.5282215324047136 0.3093081884560071 -0.09309012845920071
0.6147087564034361 0.40468227239252075 -0.09309012845920071
0.48648251666765796 0.6081816229777504 -0.09309012845920071
0.4589235088703179 0.3611788739881571 -0.09309012845920071
0.5778190868930924 0.4612507620817978 -0.09309012845920071
0.5199624896123449 0.6001498932897587 -0.09309012845920071
0.48349497301013017 0.47399112036045826 -0.09309012845920071
0.5261215922976107 0.4738179294237899 -0.09309012845920071
0.5542326462055809 0.4404029030803537 -0.09309012845920071
0.5977793423441118 0.5091597049376609 -0.09309012845920071
0.5781221710322619 0.40351323357000995 -0.09309012845920071
0.49967750115507265 0.32701696173033873 -0.09309012845920071
0.5563867084803926 0.32595616724324555 -0.09309012845920071
0.5031846176226054 0.6175555824249209 -0.09254890678211235
0.451703611697959 0.34252837499569166 -0.09168295209877095
0.6024554976341552 0.6237255095437286 -0.09168295209877095
0.4988764930729819 0.4535004676658923 -0.09092524175084721
0.5520677594972275 0.4742292578983772 -0.09092524175084721
0.5815102187308352 0.5962855705153477 -0.09092524175084721
0.46810262851373674 0.3781732346487321 -0.09092524175084721
0.5917609572948889 0.3888028283867478 -0.09092524175084721
0.5055876418688776 0.6067203244496115 -0.09092524175084721
0.4644656188437029 0.34590559826072315 -0.09092524175084721
0.5993705340747515 0.3685936109642679 -0.09092524175084721
0.5561052732083067 0.6111150444675693 -0.09092524175084721
0.4464429369966599 0.40955326748631615 -0.09092524175084721
0.535744513716242 0.3045237888305458 -0.09092524175084721
0.6150876115773979 0.42566002459646624 -0.09092524175084721
0.5401284093006579 0.4851619357755623 -0.09092524175084721
0.511302942778931 0.4495603738566889 -0.09092524175084721
0.4600492499586617 0.4038054932756377 -0.09092524175084721
0.5036067705307342 0.44038125421327007 -0.09092524175084721
0.5923130034055191 0.3629432566554652 -0.09092524175084721
0.5972272962334816 0.44043537638097885 -0.09092524175084721
0.560932970567935 0.500164600664452 -0.09092524175084721
0.5047541604861615 0.5987968390970377 -0.09092524175084721
0.48346249970950483 0.5145394484079193 -0.09092524175084721
0.5493183533776185 0.5012903417527961 -0.09092524175084721
0.4778554431348693 0.3850792232483798 -0.09092524175084721
0.49161329816645577 0.32572885413886843 -0.09092524175084721
0.5143879063383346 0.6211601187943294 -0.09038402007375883
0.46572125313454793 0.6237255095437286 -0.08951806539041744
0.6201426220414034 0.35285488459453784 -0.08951806539041744
0.44722229621166715 0.36474011262339856 -0.08951806539041744
0.49662501089629424 0.46532074909350246 -0.08876035504249372
0.49382148260897646 0.45755963024405516 -0.08876035504249372
0.4830728201020012 0.5374764230829248 -0.08876035504249372
0.5518079730922251 0.5646024535385942 -0.08876035504249372
0.5847683732269071 0.48122184196635887 -0.08876035504249372
0.4879113418951713 0.49493639926377847 -0.08876035504249372
0.5640720562950476 0.4467135478352041 -0.08876035504249372
0.5438303655719423 0.45949720384803155 -0.08876035504249372
0.560142786919386 0.45456126215298553 -0.08876035504249372
0.5071138869982669 0.5948350964207509 -0.08876035504249372
0.5395005921552354 0.5679255546359169 -0.08876035504249372
0.5233721861780017 0.5543408905409987 -0.08876035504249372
0.4889180142145557 0.5852338238692032 -0.08876035504249372
0.46893610989645285 0.5683044098098786 -0.08876035504249372
0.5185444888183735 0.3071541261811954 -0.08876035504249372
0.5944778901138726 0.5328002677928811 -0.08876035504249372
0.4521907112073385 0.4599734789238693 -0.08876035504249372
0.5563434107462256 0.3142874278852201 -0.08876035504249372
0.5996844426474627 0.5298343730024369 -0.08876035504249372
0.449462953954813 0.444527012259767 -0.08876035504249372
0.49780487415234687 0.3081175007664127 -0.08876035504249372
0.6071208284906572 0.3830442297425275 -0.08876035504249372
0.5870090309700531 0.6107145404265237 -0.08876035504249372
0.4984435157313111 0.5962314483476389 -0.08876035504249372
0.5462333898182148 0.5466555427263436 -0.08876035504249372
0.46625165037809446 0.5144853262402106 -0.08876035504249372
0.47517098361651083 0.3770799668610136 -0.08876035504249372
0.5892172154125735 0.3981226656662097 -0.08876035504249372
0.5263272565349043 0.43459018226842444 -0.08876035504249372
0.49720953030754955 0.3248304261549017 -0.08876035504249372
0.6008859547705989 0.4716638671489782 -0.08876035504249372
0.5501626591938764 0.529271502458265 -0.08876035504249372
0.44722229621166715 0.35285488459453784 -0.08821913336540534
0.4417451328395328 0.37054200900178597 -0.08735317868206392
0.6207271414526588 0.3757702104024597 -0.08735317868206392
0.5235345526811283 0.42107046477475685 -0.08659546833414021
0.548647238498029 0.4338541207875843 -0.08659546833414021
0.5589953969639586 0.4790244819573802 -0.08659546833414021
0.5699605481417691 0.4973394235100508 -0.08659546833414021
0.5757949178207818 0.5315338090684945 -0.08659546833414021
0.5761304752605767 0.601578718517272 -0.08659546833414021
0.5635200101844174 0.5731321071695069 -0.08659546833414021
0.5626648799346179 0.507384497836811 -0.08659546833414021
0.5613767723431475 0.6010374968401838 -0.08659546833414021
0.4877814486926701 0.5741279550553495 -0.08659546833414021
0.5140956466327069 0.5520677594972274 -0.08659546833414021
0.5700796169107285 0.5876801458496426 -0.08659546833414021
0.4866340587372428 0.5905919184723781 -0.08659546833414021
0.48954583135997815 0.5437437701036082 -0.08659546833414021
0.4947199105929431 0.4993852414494449 -0.08659546833414021
0.5538429665980773 0.4482506173981351 -0.08659546833414021
0.5867817178656759 0.40890380147381006 -0.08659546833414021
0.5706749607555258 0.4820877966497004 -0.08659546833414021
0.4985192867661035 0.47768225219820093 -0.08659546833414021
0.4836032173455479 0.439872505836807 -0.08659546833414021
0.4984759890319364 0.4303578287535933 -0.08659546833414021
0.4736880362212887 0.42370080212540634 -0.08659546833414021
0.5887950625044446 0.42376574872665695 -0.08659546833414021
0.5279942193003365 0.411566612125085 -0.08659546833414021
0.48730517361683234 0.32470053295240053 -0.08659546833414021
0.6002040154574676 0.4304552486554692 -0.08659546833414021
0.45658543122529605 0.4838846526176338 -0.08659546833414021
0.47415348686358477 0.564938010978389 -0.08659546833414021
0.56200458948857 0.48711033381308055 -0.08659546833414021
0.5835885099708544 0.6072940194273255 -0.08659546833414021
0.6058976675004374 0.4775523589956997 -0.08659546833414021
0.6077053479019124 0.5130456765791556 -0.08659546833414021
0.4705381260606344 0.5928325762155239 -0.08659546833414021
0.4601899675947046 0.3493694169940887 -0.08659546833414021
0.6078460655379555 0.38699514798527257 -0.08659546833414021
0.5378552782568867 0.6159427418271975 -0.08659546833414021
0.4503180842046127 0.3883806754786188 -0.08659546833414021
0.5586598395241639 0.30945973052559184 -0.08659546833414021
0.540918592949207 0.5842271515498189 -0.08659546833414021
0.473493196417537 0.5542975928068316 -0.08659546833414021
0.5976494491416106 0.47578797632839165 -0.08659546833414021
0.532345641584127 0.4087522594042254 -0.08659546833414021
0.5961232040122213 0.39440988496138335 -0.08659546833414021
0.47103605000355575 0.39462637363221864 -0.08659546833414021
0.46730162043164597 0.495098765766905 -0.08659546833414021
0.540117584867116 0.5717898774103278 -0.08659546833414021
0.6207271414526588 0.35285488459453784 -0.08518829197371043
0.43430874699633853 0.36711066356904576 -0.08518829197371043
0.5645699802379689 0.43055266855734514 -0.0844305816257867
0.5535940046266167 0.494167864482313 -0.0844305816257867
0.5197351765079679 0.46639236801413747 -0.0844305816257867
0.5570578233599823 0.5465689472580095 -0.0844305816257867
0.4877489753920448 0.4604389295661654 -0.0844305816257867
0.5693543798634302 0.4580900274876017 -0.0844305816257867
0.5147992348129218 0.5515481866872225 -0.0844305816257867
0.5503250256970029 0.49300965009334385 -0.0844305816257867
0.540074287132949 0.5866951223973417 -0.0844305816257867
0.4733957765156611 0.41327687262468427 -0.0844305816257867
0.5859482364829598 0.49963420342090553 -0.0844305816257867
0.5374331253487578 0.6136696107834265 -0.0844305816257867
0.4538252006721454 0.40840587753088886 -0.0844305816257867
0.5970324564297298 0.3566109630335311 -0.0844305816257867
0.594412943512622 0.5176460608344067 -0.0844305816257867
0.5916851862600966 0.5693110821292631 -0.0844305816257867
0.46588361963767444 0.46367543519515375 -0.0844305816257867
0.5240433010575912 0.30533562134617837 -0.0844305816257867
0.6078568899714973 0.49674407966525364 -0.0844305816257867
0.5903754298015427 0.546406580754883 -0.0844305816257867
0.4686654990579086 0.41426189607698505 -0.0844305816257867
0.47012679758604725 0.6069692864210724 -0.0844305816257867
0.45070776381211636 0.36401487557610024 -0.0844305816257867
0.6042523536020887 0.3422794130242309 -0.0844305816257867
0.5979633577143217 0.5918259038961396 -0.0844305816257867
0.44705992970854064 0.4581874473894776 -0.0844305816257867
0.5868033667327593 0.33684554738626366 -0.0844305816257867
0.5209150397640205 0.39920510902038636 -0.0844305816257867
0.5990566255020403 0.3974840240872454 -0.0844305816257867
0.598093250916823 0.5010630286484189 -0.0844305816257867
0.46143477745200795 0.508694254295365 -0.0844305816257867
0.6151309093115651 0.3385991056200301 -0.08388935994869832
0.5927459807471899 0.3100767232374726 -0.08302340526535693
0.45464785762131976 0.32786126754659667 -0.08302340526535693
0.5396413097912783 0.41703295106367755 -0.08226569491743319
0.5837725253410645 0.6024879709347806 -0.08226569491743319
0.47611270933464467 0.5027083425467674 -0.08226569491743319
0.4566720266936303 0.3748501335514094 -0.08226569491743319
0.6086362491865046 0.4040003330793893 -0.08226569491743319
0.6018385049222746 0.49666830863046124 -0.08226569491743319
0.5922805301048938 0.5569712278916481 -0.08226569491743319
0.4556870032413293 0.4479800065595908 -0.08226569491743319
0.45980028798720113 0.35295230449641374 -0.08226569491743319
0.610249089784228 0.3680090915530124 -0.08226569491743319
0.5143770819047928 0.6124897475273738 -0.08226569491743319
0.5957010511040923 0.4455012112785261 -0.08226569491743319
0.47243240193044367 0.5131972186487402 -0.08226569491743319
0.4580683786205182 0.5240324766240496 -0.08226569491743319
0.47578797632839165 0.3162250014891965 -0.08226569491743319
0.6140484659573884 0.3733996594568126 -0.08226569491743319
0.5379959958929296 0.6176205290261715 -0.08226569491743319
0.4621600144993063 0.4669660629918511 -0.08226569491743319
0.5649813087125561 0.40090454508644396 -0.08226569491743319
0.5934062711932376 0.35726042904603716 -0.08226569491743319
0.4662408259445528 0.3830983519102363 -0.08226569491743319
0.5092787737066204 0.5273122799872051 -0.08226569491743319
0.5056417640365866 0.5225495292288275 -0.08226569491743319
0.5647323467410954 0.47530087681901206 -0.08226569491743319
0.506410298818052 0.5517754997915997 -0.08226569491743319
0.5172455567933613 0.45458291102006904 -0.08226569491743319
0.5674168062594538 0.5016367236261325 -0.08226569491743319
0.5129807299779049 0.5376387895860513 -0.08226569491743319
0.6094805550027623 0.3100767232374726 -0.08172447324034482
0.6238770516133132 0.37142961255221085 -0.08085851855700342
0.5311766027616162 0.43085575269651466 -0.08085851855700342
0.5784685529055984 0.5020588765342615 -0.08085851855700342
0.4313753255065195 0.3813664425435535 -0.08085851855700342
0.5776134226557988 0.4176391193420165 -0.08010080820907968
0.5407670508796221 0.5878858100869362 -0.08010080820907968
0.47387205159149887 0.4089254503408937 -0.08010080820907968
0.4894808847587276 0.6147087564034359 -0.08010080820907968
0.5119199354908117 0.4053533872721103 -0.08010080820907968
0.5715842131730343 0.3166038566631583 -0.08010080820907968
0.5996736182139211 0.45085930588170103 -0.08010080820907968
0.5923346522726027 0.5600237181504265 -0.08010080820907968
0.4580683786205182 0.4907689923501979 -0.08010080820907968
0.4532731545615152 0.4139155142036485 -0.08010080820907968
0.5894120552163253 0.32742829020492586 -0.08010080820907968
0.5950299362245027 0.5924320721744785 -0.08010080820907968
0.5643859648677588 0.4079620757556762 -0.08010080820907968
0.4815573994061537 0.6124031520590395 -0.08010080820907968
0.45179020716629303 0.34856840891199786 -0.08010080820907968
0.6010374968401837 0.3296797723816135 -0.08010080820907968
0.5999225801853817 0.5833070746987685 -0.08010080820907968
0.44717899847750003 0.42576826893188396 -0.08010080820907968
0.5034011062934406 0.39948654429247243 -0.08010080820907968
0.5983746861889089 0.3602371482700233 -0.08010080820907968
0.4625929918409771 0.36236956167775153 -0.08010080820907968
0.6000632978214248 0.517721831869199 -0.08010080820907968
0.5526198056078575 0.5420659829046343 -0.08010080820907968
0.5202006271502639 0.4693907361052071 -0.08010080820907968
0.546363283020716 0.550509041067213 -0.08010080820907968
0.5159033270341821 0.4695855759089589 -0.08010080820907968
0.5639746363931717 0.5008898377117506 -0.08010080820907968
0.587149748606096 0.2958209442629647 -0.07955958653199131
0.6158777952259471 0.3385991056200301 -0.07869363184864991
0.45080518371399225 0.3243433266455222 -0.07869363184864991
0.4919921533404176 0.45019901543565316 -0.07869363184864991
0.5282648301388806 0.43838955844158484 -0.07869363184864991
0.5754485359474454 0.44027300987785245 -0.07869363184864991
0.5703502277492728 0.5122879662312317 -0.07869363184864991
0.4734174253827446 0.4067713880660818 -0.07793592150072619
0.5917717817284307 0.44334714900371436 -0.07793592150072619
0.5067999784255557 0.6081166763764998 -0.07793592150072619
0.5342182685868528 0.6037003074914584 -0.07793592150072619
0.4960729647856641 0.6135288931473835 -0.07793592150072619
0.6039709183300027 0.4683948882193645 -0.07793592150072619
0.4535437654000594 0.3765387451839252 -0.07793592150072619
0.6087336690883806 0.39630416083119263 -0.07793592150072619
0.6062224005066904 0.4254760092262562 -0.07793592150072619
0.4636321374609868 0.4646388097803711 -0.07793592150072619
0.46336152662244257 0.3265948088222098 -0.07793592150072619
0.613366526644257 0.39971385739684956 -0.07793592150072619
0.5866193513625494 0.5416546544300471 -0.07793592150072619
0.4636537863280703 0.4329881661042429 -0.07793592150072619
0.45469115535548676 0.47679464864777604 -0.07793592150072619
0.5341749708526857 0.29838633501236367 -0.07793592150072619
0.6113856553061134 0.47252982183231956 -0.07793592150072619
0.4507510615462833 0.47928426836238264 -0.07793592150072619
0.4644656188437029 0.517537816498989 -0.07793592150072619
0.5384289732346004 0.4627986560782706 -0.07793592150072619
0.570480120951774 0.47453234203754663 -0.07793592150072619
0.4925874971852149 0.47885129102071183 -0.07793592150072619
0.5750805052070251 0.48562738641785835 -0.07793592150072619
0.5015068304236313 0.5411675549206676 -0.07793592150072619
0.5125910503704013 0.5103395681937136 -0.07793592150072619
0.5687806848857165 0.5381908356966815 -0.0765287451402964
0.4792084973275902 0.44682179217062173 -0.0765287451402964
0.5591577634670851 0.44649705916436866 -0.0765287451402964
0.6242017846195662 0.43572674779031006 -0.0765287451402964
0.5596881607106318 0.25305360733944127 -0.0765287451402964
0.5234479572127941 0.40857906846755704 -0.07577103479237268
0.5850931062331601 0.5736949777136789 -0.07577103479237268
0.4726272417341955 0.5866518246631747 -0.07577103479237268
0.5756000780170301 0.6138319772865529 -0.07577103479237268
0.5336012758749721 0.6153582224159421 -0.07577103479237268
0.48229346088699393 0.6137345573846772 -0.07577103479237268
0.5941531571076195 0.5870306798371365 -0.07577103479237268
0.5983313884547418 0.3439572002232049 -0.07577103479237268
0.45866372246531545 0.41151248995737605 -0.07577103479237268
0.4631233890845236 0.49307459669459447 -0.07577103479237268
0.5940016150380348 0.520979986365271 -0.07577103479237268
0.5999983512201741 0.47781214540070216 -0.07577103479237268
0.6052482014879313 0.510231323858296 -0.07577103479237268
0.5619179940202359 0.4053425628385686 -0.07577103479237268
0.46800520861186085 0.5717032819419937 -0.07577103479237268
0.48389547705117564 0.3113540063954011 -0.07577103479237268
0.6163540703017848 0.4505886950431568 -0.07577103479237268
0.4635022442584856 0.587658496982559 -0.07577103479237268
0.4648444740176647 0.3202408663331922 -0.07577103479237268
0.6171659028174173 0.44026218544431067 -0.07577103479237268
0.49529360557065677 0.31915842297901553 -0.07577103479237268
0.5600128937168848 0.31435237448647074 -0.07577103479237268
0.4640001682014068 0.35688157387207536 -0.07577103479237268
0.5094086669091217 0.5422391738413025 -0.07577103479237268
0.5571768921289417 0.4947956816277354 -0.07577103479237268
0.49536937660544905 0.48437175212701333 -0.07577103479237268
0.5650679041808903 0.4590425776392773 -0.07577103479237268
0.5256669660888564 0.5503899722982534 -0.07577103479237268
0.4984435157313111 0.46336152662244257 -0.07577103479237268
0.5169208237871084 0.5594608476062547 -0.0743638584319429
0.5099931863203772 0.4443862946237241 -0.0743638584319429
0.6309670555831709 0.3813664425435535 -0.0743638584319429
0.43817306977074955 0.3956222215180614 -0.0743638584319429
0.5637364988552528 0.4083517553631799 -0.07360614808401918
0.5872255196408883 0.5719089461792872 -0.07360614808401918
0.4793059172294661 0.5293797467936827 -0.07360614808401918
0.48611448592723794 0.31358383970500525 -0.07360614808401918
0.5704368232176069 0.40289624085812914 -0.07360614808401918
0.6077594700696214 0.41749840170597347 -0.07360614808401918
0.4677562466404002 0.5412108526548345 -0.07360614808401918
0.4559576140798736 0.4398183836690982 -0.07360614808401918
0.5379094004245956 0.3003888552175907 -0.07360614808401918
0.6055188123264754 0.49715540813984077 -0.07360614808401918
0.5744526880616028 0.4123892690742592 -0.07360614808401918
0.4755281899233892 0.5664534316742365 -0.07360614808401918
0.4565529579246707 0.33164981928621523 -0.07360614808401918
0.6185189570101384 0.37520733985828775 -0.07360614808401918
0.5615716121468994 0.6161375816309493 -0.07360614808401918
0.4447976230983112 0.43077998166172227 -0.07360614808401918
0.4819795523142827 0.3261618314805392 -0.07360614808401918
0.5239675300227989 0.4801826963463493 -0.07360614808401918
0.5613226501754387 0.4820012011813662 -0.07360614808401918
0.505522695267627 0.5084885900580713 -0.07360614808401918
0.5455081527709164 0.47301692134169915 -0.07360614808401918
0.5373140565797982 0.5508987206747166 -0.07360614808401918
0.5060747413782571 0.490249419540193 -0.07360614808401918
0.5381691868295979 0.5893038108809078 -0.07360614808401918
0.6167112766086631 0.2958209442629647 -0.0721989717235894
0.5793020342883145 0.4867531275062022 -0.0721989717235894
0.5036284193978178 0.45360871200131003 -0.0721989717235894
0.44693003650603946 0.32983131445119834 -0.0721989717235894
0.4663382458464287 0.5206660777925598 -0.07144126137566567
0.454961766194031 0.41640513391825495 -0.07144126137566567
0.5309384652236971 0.30492429287159123 -0.07144126137566567
0.6037003074914585 0.42950269850379375 -0.07144126137566567
0.5997060915145463 0.42343019128686205 -0.07144126137566567
0.4559034919121648 0.48049660491906054 -0.07144126137566567
0.5519595151618097 0.30102749679655494 -0.07144126137566567
0.5999658779195488 0.5120390042597711 -0.07144126137566567
0.6053347969562655 0.5254180041173958 -0.07144126137566567
0.5793886297566486 0.4133201703588512 -0.07144126137566567
0.46245227420493407 0.46529910022641896 -0.07144126137566567
0.4445053633926835 0.425021383017502 -0.07144126137566567
0.5869549088023442 0.3132807555658357 -0.07144126137566567
0.5757191467859895 0.3932300217053308 -0.07144126137566567
0.5974762582049422 0.3460138425961407 -0.07144126137566567
0.5535723557595331 0.5111730495764297 -0.07144126137566567
0.552089408364311 0.5174079232964878 -0.07144126137566567
0.5569712278916481 0.5035634727965671 -0.07144126137566567
0.4877489753920448 0.4614456018855496 -0.07144126137566567
0.5614308945108564 0.4637728550970297 -0.07144126137566567
0.5115843780510169 0.5511260337790937 -0.07144126137566567
0.5133379362847833 0.5060963902453407 -0.07144126137566567
0.5343265129222704 0.6025745664031148 -0.07144126137566567
0.48079968905823006 0.4825857205926216 -0.07090003969857729
0.4313753255065195 0.35285488459453784 -0.07003408501523589
0.6253599990085353 0.3733238884220203 -0.07003408501523589
0.5542651195062062 0.44631304379415865 -0.07003408501523589
0.4908772366856156 0.5524466146711894 -0.07003408501523589
0.4560550339817495 0.4109712682802877 -0.06927637466731215
0.6123165565907055 0.36429631084818614 -0.06927637466731215
0.455145781564241 0.44405073718392923 -0.06927637466731215
0.4817414147763639 0.3150018404989768 -0.06927637466731215
0.6106604182588151 0.4388550090838809 -0.06927637466731215
0.5063561766503432 0.40151071336478295 -0.06927637466731215
0.5946943787847079 0.5359826512541609 -0.06927637466731215
0.46317751125223255 0.5283514256072148 -0.06927637466731215
0.4588802111361508 0.5385155687029345 -0.06927637466731215
0.5105344079974655 0.2960915551015089 -0.06927637466731215
0.6103248608190203 0.49394055137793585 -0.06927637466731215
0.5975953269739016 0.449278938584603 -0.06927637466731215
0.48196872788074085 0.40585131121503165 -0.06927637466731215
0.46495271835308244 0.3885213931146619 -0.06927637466731215
0.5482142611563582 0.3403093661196292 -0.06927637466731215
0.5658797366965228 0.4641517102709915 -0.06927637466731215
0.5010522042148771 0.49150505383103804 -0.06927637466731215
0.5089215673997421 0.547012749033222 -0.06927637466731215
0.5617015053494004 0.4813842084694854 -0.06927637466731215
0.5358419336181179 0.4497443892268991 -0.06927637466731215
0.5611494592387705 0.5099282397191264 -0.06927637466731215
0.4933668564002222 0.4849562715382688 -0.06927637466731215
0.5283947233413818 0.5815968141991691 -0.06927637466731215
0.5815426920314605 0.49541267433961617 -0.06873515299022379
0.49028189284081836 0.28156516528845693 -0.06786919830688239
0.6245806397935282 0.4241337794670771 -0.06786919830688239
0.5548929366516288 0.4614672507526333 -0.06786919830688239
0.4925009017168808 0.5239350567221737 -0.06786919830688239
0.4647145808151635 0.39366299904700136 -0.06711148795895866
0.599208167571625 0.3313575595805875 -0.06711148795895866
0.6052698503550148 0.41933855540807397 -0.06711148795895866
0.48336507980762894 0.3103581585095585 -0.06711148795895866
0.6135721908815505 0.44425640142122286 -0.06711148795895866
0.4778770920019527 0.3995623153272647 -0.06711148795895866
0.5991756942709997 0.44210233914641117 -0.06711148795895866
0.48314859113679365 0.4097805805906933 -0.06711148795895866
0.4402188877101435 0.3620015309373314 -0.06711148795895866
0.5886651693019436 0.31372455734104826 -0.06711148795895866
0.5707290829232347 0.39689950467598994 -0.06711148795895866
0.47816935170758046 0.5466880160269689 -0.06711148795895866
0.5470993445015562 0.4485645259708463 -0.06711148795895866
0.5374006520481325 0.46457386317912047 -0.06711148795895866
0.5057716572390878 0.5121039508610218 -0.06711148795895866
0.5722878013532492 0.47100357670293047 -0.06711148795895866
0.5010305553477936 0.5187718019227505 -0.06711148795895866
0.5193130235998389 0.4495820227237725 -0.06711148795895866
0.5732511759384665 0.49049838151165365 -0.06711148795895866
0.5938825462690754 0.5591794123341688 -0.06711148795895866
0.5303106480782748 0.5820406159743815 -0.06711148795895866
0.5858399921475421 0.49530443000419844 -0.06570431159852887
0.5246061716017633 0.5583675798185361 -0.06570431159852887
0.47520345691713617 0.5006084024396646 -0.06570431159852887
0.5862621450556711 0.419057120135988 -0.06570431159852887
0.5205794823242257 0.2843470447086912 -0.06570431159852887
0.4313753255065195 0.40987800049256917 -0.06570431159852887
0.4502423131698203 0.35616716125831865 -0.06494660125060515
0.6072398972596166 0.3952974885118084 -0.06494660125060515
0.45492929289340567 0.41750922613951524 -0.06494660125060515
0.5591361146000017 0.3045887354317964 -0.06494660125060515
0.5774943538868393 0.3993782999570547 -0.06494660125060515
0.44877019020813996 0.408633190635266 -0.06494660125060515
0.556137746508932 0.40736673191087913 -0.06494660125060515
0.44694086093958124 0.46978041571271073 -0.06494660125060515
0.5405722110758703 0.2948359208106639 -0.06494660125060515
0.6066878511489864 0.48439340099409683 -0.06494660125060515
0.557447502967486 0.4891561517524745 -0.06494660125060515
0.5525440345730652 0.48730517361683234 -0.06494660125060515
0.5712811290338647 0.4734390742498281 -0.06494660125060515
0.49405962014689525 0.48571398188619247 -0.06494660125060515
0.5457462903088353 0.4494846028218966 -0.06494660125060515
0.5602185579541785 0.5186527331537911 -0.06494660125060515
0.5000888296296597 0.49816208045922517 -0.06494660125060515
0.47304939464232443 0.545659694840501 -0.06494660125060515
0.47934921496363325 0.5573825563662352 -0.06494660125060515
0.5935036910951135 0.5477596349476039 -0.06494660125060515
0.5311766027616162 0.28156516528845693 -0.06440537957351677
0.6167112766086631 0.3066453778047322 -0.06353942489017537
0.4456311044810273 0.2958209442629647 -0.06353942489017537
0.48294292689949997 0.49541267433961617 -0.06353942489017537
0.47414266243004294 0.4526453374160926 -0.06353942489017537
0.6124680986602903 0.4547561019567373 -0.06278171454225165
0.5566140215847697 0.30560623218472266 -0.06278171454225165
0.4581657985223941 0.3916496544082327 -0.06278171454225165
0.5681961654744611 0.405136898601275 -0.06278171454225165
0.4447759742312277 0.36073507221294454 -0.06278171454225165
0.6121000679198701 0.3916929521423998 -0.06278171454225165
0.4551241326971575 0.4385843982453367 -0.06278171454225165
0.5216078035106936 0.2935911109533607 -0.06278171454225165
0.6151742070457322 0.46974794241208545 -0.06278171454225165
0.5475647951438521 0.40532091397148495 -0.06278171454225165
0.4676588267385243 0.5260458212628183 -0.06278171454225165
0.5331141763655926 0.45943225724678094 -0.06278171454225165
0.5661936452692341 0.4823908807888698 -0.06278171454225165
0.5045268473817844 0.5335796270078884 -0.06278171454225165
0.5427587466513073 0.4650284893878747 -0.06278171454225165
0.5554558071958007 0.5513316980163872 -0.06278171454225165
0.48530265341160533 0.4664356657483044 -0.06278171454225165
0.5475106729761433 0.47781214540070216 -0.06278171454225165
0.5894553529504925 0.5381583623960561 -0.06278171454225165
0.6002689620587182 0.5373790031810488 -0.06278171454225165
0.5455730993721669 0.28277750184513484 -0.06224049286516327
0.47760648116340865 0.4669011163906005 -0.06137453818182187
0.5948459208542928 0.4669011163906005 -0.06137453818182187
0.5955386846009658 0.3018285048786457 -0.06137453818182187
0.5031846176226054 0.2853861903287008 -0.06137453818182187
0.6142216568940565 0.4436394087093421 -0.060616827833898136
0.5164878464454375 0.29917651866091266 -0.060616827833898136
0.46105592227804615 0.32243822634217106 -0.060616827833898136
0.6156504821215699 0.4303361798865098 -0.060616827833898136
0.4590642265063608 0.3936088768792926 -0.060616827833898136
0.5020697009678033 0.4054291583069027 -0.060616827833898136
0.4423296522507883 0.43220880688923563 -0.060616827833898136
0.5895744217194518 0.3103040363418497 -0.060616827833898136
0.6100326011133925 0.449094923214393 -0.060616827833898136
0.48175223920990556 0.3257180297053266 -0.060616827833898136
0.5407670508796221 0.3035712386788703 -0.060616827833898136
0.5929408205509417 0.531696175571621 -0.060616827833898136
0.5278967993984606 0.45943225724678094 -0.060616827833898136
0.5417412498983812 0.45815497408885225 -0.060616827833898136
0.5448803356254939 0.5458545346442528 -0.060616827833898136
0.5149399524489648 0.477963687470287 -0.060616827833898136
0.5763686127984955 0.46717172722914474 -0.060616827833898136
0.5002836694334116 0.5447937401571596 -0.060616827833898136
0.5369676747064617 0.5399443939304478 -0.060616827833898136
0.44722229621166715 0.31934243834922554 -0.06007560615680976
0.6151309093115651 0.3100767232374726 -0.06007560615680976
0.5537130733955761 0.4526453374160926 -0.059209651473468364
0.5823328756800095 0.491927206739167 -0.059209651473468364
0.5739439396851396 0.2907875826660429 -0.059209651473468364
0.47414266243004294 0.28156516528845693 -0.059209651473468364
0.45097837465066043 0.41359078119739545 -0.05845194112554463
0.6142433057611402 0.42794398007377915 -0.05845194112554463
0.46916342300082997 0.32623760251533146 -0.05845194112554463
0.6073806148956595 0.396802084774114 -0.05845194112554463
0.4528401772198446 0.3419330311508944 -0.05845194112554463
0.6129119004355027 0.4050286542658574 -0.05845194112554463
0.4657645508687149 0.396802084774114 -0.05845194112554463
0.46320998455285783 0.31635489469169775 -0.05845194112554463
0.6177828955292981 0.3824164125971049 -0.05845194112554463
0.5702852811480222 0.41641595835179673 -0.05845194112554463
0.5243680340638442 0.2997826869392516 -0.05845194112554463
0.5308302208882796 0.5432350217271452 -0.05845194112554463
0.5048191070874122 0.5468720313971791 -0.05845194112554463
0.5444148849831978 0.48033423841593403 -0.05845194112554463
0.5033686329928153 0.5507904763392989 -0.05845194112554463
0.5278751505313769 0.4495928471573142 -0.05845194112554463
0.560283504555429 0.5276803107276251 -0.05845194112554463
0.5703502277492728 0.28156516528845693 -0.05791071944845626
0.4953369033048238 0.267309386313949 -0.05704476476511485
0.5444473582838231 0.27792815561842305 -0.05704476476511485
0.5969458609613956 0.4263203150425141 -0.05704476476511485
0.4884092658380927 0.5524466146711894 -0.05704476476511485
0.5037474881667772 0.41923031107265635 -0.05704476476511485
0.5275828908257494 0.45987605902199336 -0.05628705441719113
0.5061829857136749 0.5408536463479562 -0.05628705441719113
0.5425963801481809 0.47490037277796676 -0.05628705441719113
0.5540811041359962 0.5510286138772178 -0.05628705441719113
0.49399467354564464 0.4601683187276211 -0.05628705441719113
0.5489936203713655 0.5398361495950301 -0.05628705441719113
0.6130959158057128 0.42097304487288095 -0.05628705441719113
0.4526561618496344 0.3822107483598114 -0.05628705441719113
0.5704368232176069 0.391119257164686 -0.05628705441719113
0.44831556399938566 0.39317589953762183 -0.05628705441719113
0.6092965396325524 0.3405150303569229 -0.05628705441719113
0.5515048889530555 0.40556987594294575 -0.05628705441719113
0.4414312242668216 0.41458662908323807 -0.05628705441719113
0.5992947630399592 0.3158353218816929 -0.05628705441719113
0.5792695609876892 0.4086115417681823 -0.05628705441719113
0.5140198755979146 0.3005079239865501 -0.05628705441719113
0.5423690670438038 0.267309386313949 -0.05574583274010275
0.5423690670438038 0.558421701986245 -0.05574583274010275
0.4905849769799879 0.2885469249228969 -0.054879878056761346
0.5776134226557988 0.2918700260202196 -0.054879878056761346
0.5756974979189059 0.4526453374160926 -0.054879878056761346
0.568661616116757 0.5524466146711894 -0.054879878056761346
0.5040938700401139 0.45468033092194493 -0.054879878056761346
0.5243572096303026 0.46270123617639464 -0.054122167708837626
0.5541460507372468 0.4820012011813662 -0.054122167708837626
0.5058366038403384 0.5005759291390394 -0.054122167708837626
0.5454432061696657 0.4576678745794729 -0.054122167708837626
0.56200458948857 0.549199284608659 -0.054122167708837626
0.5027083425467676 0.47307104350940793 -0.054122167708837626
0.4465078835979105 0.4138180943017726 -0.054122167708837626
0.5158816781670986 0.39827420773579436 -0.054122167708837626
0.6077919433702467 0.34889314191825094 -0.054122167708837626
0.45185515376754365 0.402160179377289 -0.054122167708837626
0.6141350614257225 0.3727393690107648 -0.054122167708837626
0.4867747763732857 0.40671726589837304 -0.054122167708837626
0.4831052934026265 0.3000100000436287 -0.054122167708837626
0.6190277053866013 0.4239930618310341 -0.054122167708837626
0.5554666316293424 0.30566035435243144 -0.054122167708837626
0.4919921533404176 0.2875619014705961 -0.05358094603174925
0.5089323918332838 0.2742586726477639 -0.05271499134840785
0.49923369937986023 0.4275651248998173 -0.05271499134840785
0.48839844140455085 0.2864686336828776 -0.05271499134840785
0.5199841384794285 0.4241337794670771 -0.05271499134840785
0.5264138520032384 0.542866990986725 -0.05195728100048412
0.5200923828148462 0.4791651995934231 -0.05195728100048412
0.5350409255360271 0.547986948051981 -0.05195728100048412
0.5164445487112704 0.4612615865153396 -0.05195728100048412
0.5614633678114817 0.49979656992403204 -0.05195728100048412
0.5003161427340369 0.5074061467038946 -0.05195728100048412
0.5136085471233274 0.532020908577874 -0.05195728100048412
0.5139765778637475 0.2936019353869024 -0.05195728100048412
0.4754307700215133 0.3896254853359222 -0.05195728100048412
0.6132149845746722 0.34743184339011224 -0.05195728100048412
0.6128686027013356 0.4053425628385686 -0.05195728100048412
0.4874783645535005 0.40668479259774776 -0.05195728100048412
0.5038016103344861 0.28934793300498773 -0.05195728100048412
0.6162566503999088 0.4246425278435401 -0.05195728100048412
0.5649163621113056 0.31004424993684726 -0.05195728100048412
0.565035430880265 0.2824852421395071 -0.051416059323395734
0.4598868834555352 0.4669011163906005 -0.050550104640054334
0.6167112766086631 0.3157703752804423 -0.050550104640054334
0.5309168163566137 0.4186241427943174 -0.050550104640054334
0.5373681787475072 0.4647578785493306 -0.04979239429213062
0.49412456674814587 0.474283380066086 -0.04979239429213062
0.5421850516735937 0.5474457263748927 -0.04979239429213062
0.5619937650550282 0.48175223920990556 -0.04979239429213062
0.5413407458573357 0.5517213776238908 -0.04979239429213062
0.49228441304604537 0.4606770671040842 -0.04979239429213062
