0.48633985751641157 0.4652735010950181 0.024912909675252663
0.4924783984603938 0.2785661908248047 0.024912909675252663
0.2534141172166697 0.3006888546164292 0.024912909675252663
0.3744310672551769 0.42896044395236993 0.024912909675252663
0.2971113607870628 0.45690276344413316 0.024912909675252663
0.14553125315895574 0.4061202883620983 0.02620838097836579
0.5820153958332519 0.3180382049142751 0.02620838097836579
0.21994113177700028 0.5415667956845117 0.026905942449272868
0.5365543182578508 0.4166036407534445 0.026905942449272868
0.27925378713184174 0.2984466927456564 0.026905942449272868
0.23391229152288195 0.4149793190426181 0.026905942449272868
0.445153835241284 0.44951857701638825 0.026905942449272868
0.5142722118443049 0.2706638158758147 0.026905942449272868
0.29321498171385324 0.3017850226421403 0.026905942449272868
0.36769461647898855 0.3104248197175178 0.026905942449272868
0.5392748079943883 0.39046501592216953 0.028201413752385992
0.6836501021444124 0.4298373783729387 0.028201413752385992
0.24415647998134576 0.32089820694499405 0.02889897522329307
0.26320987330097906 0.299004741922382 0.02889897522329307
0.36654862263392685 0.44266254427375884 0.02889897522329307
0.48238368745998156 0.4578992798311433 0.02889897522329307
0.4483327225158462 0.41879597680486674 0.02889897522329307
0.2269665723054215 0.3864689852102589 0.02889897522329307
0.4556770482881107 0.4270670628170506 0.02889897522329307
0.5463201788505497 0.41815820631718037 0.02889897522329307
0.48677832472669613 0.35109265347140023 0.030194446526406196
0.6442777396936432 0.35109265347140023 0.030194446526406196
0.5035496955200761 0.2771511375552504 0.030892007997313273
0.28894989157745005 0.28809288748462136 0.030892007997313273
0.21574579778768768 0.3728266758720906 0.030892007997313273
0.3584469444075348 0.4484423393184174 0.030892007997313273
0.4037685096887543 0.33132176835311977 0.030892007997313273
0.45295655855157313 0.42742580871637426 0.030892007997313273
0.544835369433905 0.32900985033525637 0.030892007997313273
0.5672171274861517 0.41187018791514657 0.030892007997313273
0.5523989288113115 0.3642167742883234 0.03218747930042643
0.603829139544903 0.3773408951052464 0.03218747930042643
0.23464971364926943 0.4144412001936326 0.03288504077133351
0.2887406231361779 0.45264763847160006 0.03288504077133351
0.45906520400394507 0.4265787697874157 0.03288504077133351
0.298705787006279 0.27781880353454724 0.03288504077133351
0.28569128299192703 0.4556471527965005 0.03288504077133351
0.4496979499660501 0.3283621146836997 0.03288504077133351
0.5493595538309306 0.3261000224851868 0.03288504077133351
0.603829139544903 0.33796853265447724 0.033383298964838534
0.5570127996831682 0.3393636555962914 0.03418051207444664
0.6442777396936432 0.39046501592216953 0.03418051207444664
0.5018556176621589 0.2766130187062649 0.034878073545353716
0.29676258005160916 0.29050445714118583 0.034878073545353716
0.2324374472701069 0.41948357311190376 0.034878073545353716
0.4983179844882732 0.4690602633656564 0.034878073545353716
0.3703951758877859 0.30355882181101823 0.034878073545353716
0.4449943926193623 0.3666183787810177 0.034878073545353716
0.5530366992989979 0.3282126372256483 0.034878073545353716
0.5498677771883059 0.4169922821443785 0.034878073545353716
0.11928301152510958 0.3485615018483945 0.03617354484846684
0.6442777396936432 0.33543738103147147 0.03617354484846684
0.2396223304204498 0.506190463945653 0.03687110631937392
0.40902015104829753 0.4132852411847009 0.03687110631937392
0.4633900851235689 0.4227521468612969 0.03687110631937392
0.4078841223671061 0.32838204501143997 0.03687110631937392
0.30784384227516165 0.4663397736291189 0.03687110631937392
0.4591150298232955 0.41416217560526986 0.03687110631937392
0.5511333529998086 0.32880058189398426 0.03687110631937392
0.5544716828962925 0.417640017795935 0.03687110631937392
0.1980277364266481 0.3248444118375541 0.03816657762248704
0.604905377242874 0.35109265347140023 0.03816657762248704
0.2181972280997325 0.5535449226563732 0.03886413909339412
0.3539227600105088 0.43782943979675987 0.03886413909339412
0.459254542117477 0.45408262206889455 0.03886413909339412
0.4582879212220771 0.290215467388953 0.03886413909339412
0.24462484268324047 0.4409585012519715 0.03886413909339412
0.48719686160924025 0.4617757285766126 0.03886413909339412
0.5585773304107742 0.32785389132632464 0.03886413909339412
0.575039781124181 0.3330856023581276 0.03886413909339412
0.48677832472669613 0.33796853265447724 0.04015961039650725
0.6836501021444124 0.3248444118375541 0.04015961039650725
0.2561744676086877 0.4396331344572481 0.040857171867414326
0.24903941027769536 0.4400915319952727 0.040857171867414326
0.4579790011421041 0.45206965896713414 0.040857171867414326
0.4972716422819125 0.4694389395927204 0.040857171867414326
0.3878242474965926 0.3148493524758427 0.040857171867414326
0.21494858467807962 0.3729761533301421 0.040857171867414326
0.5873965843231064 0.3805098172159385 0.040857171867414326
0.5981091354834649 0.38629957742446724 0.040857171867414326
0.5655230496282346 0.4429614991898618 0.042152643170527485
0.6574018605105664 0.43236852999594444 0.042152643170527485
0.46510409330922625 0.2864087747905743 0.04285020464143456
0.4521792757697052 0.31670287295568156 0.04285020464143456
0.2908432727127692 0.2967625800516093 0.04285020464143456
0.4284821160866049 0.44102825739906226 0.04285020464143456
0.46318081668229677 0.29343421531899555 0.04285020464143456
0.4484622696461576 0.4228717288277381 0.04285020464143456
0.5849351888471913 0.36321029273744304 0.04285020464143456
0.549110424734178 0.41335499733179165 0.04285020464143456
0.5655230496282346 0.4398623332262604 0.04414567594454769
0.6442777396936432 0.35109265347140023 0.04414567594454769
0.4993045357114131 0.27591545723535793 0.04484323741545477
0.2709727359557877 0.30312035460073383 0.04484323741545477
0.32362866184540173 0.45805872245306484 0.04484323741545477
0.4657119683053025 0.4544015073127379 0.04484323741545477
0.4614967039882497 0.2822134408012617 0.04484323741545477
0.3526970448544864 0.30968739759113034 0.04484323741545477
0.5909641129886026 0.41408245429430895 0.04484323741545477
0.5813377646900849 0.41280691331893604 0.04484323741545477
0.5748703733383893 0.4059907412317869 0.04613870871856789
0.6311536188767201 0.3642167742883234 0.04613870871856789
0.4930763082925999 0.27497873183156835 0.04683627018947497
0.28766438543820694 0.4440277717239627 0.04683627018947497
0.49816850703022164 0.474142496939408 0.04683627018947497
0.4590950994955554 0.2917202071333382 0.04683627018947497
0.21339401911434377 0.4094386879308419 0.04683627018947497
0.25113209469041653 0.43406260785386164 0.04683627018947497
0.5951395166501747 0.350773768227557 0.04683627018947497
0.5835400659053773 0.4177695649262464 0.04683627018947497
0.48677832472669613 0.35109265347140023 0.048131741492588094
0.6311536188767201 0.3642167742883234 0.048131741492588094
0.20406662573192927 0.37517845454543447 0.04882930296349517
0.2081025170993202 0.3967430691603332 0.04882930296349517
0.4598026261303325 0.4223236448148825 0.04882930296349517
0.4627423494720123 0.4590751691678152 0.04882930296349517
0.20955743102435498 0.3398021228065758 0.04882930296349517
0.39729115317318864 0.40755527195939273 0.04882930296349517
0.33108260442023724 0.44816331473005455 0.04882930296349517
0.5679146889570588 0.3220641311177959 0.04882930296349517
0.6065097686259603 0.40329018182298954 0.04882930296349517
0.4999024455436192 0.35109265347140023 0.0501247742666083
0.22567110100230828 0.5194640622206276 0.05082233573751538
0.46051015276510965 0.4184173005778029 0.05082233573751538
0.46436667118283875 0.3244059446272696 0.05082233573751538
0.28890006575809957 0.29850648372887695 0.05082233573751538
0.4731160850607875 0.4192743046706316 0.05082233573751538
0.3369321556119866 0.2881825739594523 0.05082233573751538
0.44972784545766037 0.36188492594271965 0.05082233573751538
0.33327494047165945 0.3078039816196813 0.05082233573751538
0.591392615035017 0.41488963256778716 0.05082233573751538
0.1980277364266481 0.32641890772903004 0.05211780704062854
0.6189861537913266 0.34020072936137974 0.05211780704062854
0.32709653887219686 0.44524352171611503 0.052815368511535614
0.3604100816899446 0.4357267902201684 0.052815368511535614
0.46437663634670895 0.33197946916854637 0.052815368511535614
0.492299025510732 0.27105245726674865 0.052815368511535614
0.342692020328905 0.45519872042234594 0.052815368511535614
0.468621796155372 0.41482984158456654 0.052815368511535614
0.337669577738374 0.4450442184387129 0.052815368511535614
0.5940832092799441 0.33168051425244344 0.052815368511535614
0.5977802850757518 0.4186066386913349 0.052815368511535614
0.5521796952061694 0.3214064303023692 0.05411083981464874
0.6442777396936432 0.33796853265447724 0.05411083981464874
0.48951874479097385 0.273762981839416 0.054808401285555815
0.24394721154007362 0.4345309705557564 0.054808401285555815
0.4626626281610516 0.4599022777690336 0.054808401285555815
0.46195510152627445 0.28580089979449824 0.054808401285555815
0.4569525892634836 0.46276227979975265 0.054808401285555815
0.49742111973996406 0.26718597368514935 0.054808401285555815
0.4053330404163602 0.4062797309840198 0.054808401285555815
0.2158952752457392 0.3443462375313419 0.054808401285555815
0.5736247278546267 0.41908496655709976 0.054808401285555815
0.18490361560972493 0.4151387616645397 0.056103872588668946
0.5581388632004897 0.43237849515981447 0.056103872588668946
0.2110322752771299 0.5273564720057476 0.05680143405957602
0.40830265924965037 0.4112822432468106 0.05680143405957602
0.4698873719668748 0.3278937519818049 0.05680143405957602
0.3184368114690791 0.3035787521387584 0.05680143405957602
0.462413499064299 0.44946875119703783 0.05680143405957602
0.4032602863313792 0.32840197533918014 0.05680143405957602
0.35482958992268815 0.3180382049142751 0.05680143405957602
0.45992220809677375 0.3309829527815363 0.05680143405957602
0.6149104017684554 0.33381305932064503 0.05680143405957602
0.609539178442471 0.422662460386466 0.05680143405957602
0.5523989288113115 0.3495081924160541 0.05809690536268915
0.6836501021444124 0.3773408951052464 0.05809690536268915
0.4799222919840666 0.3260701269935765 0.05879446683359622
0.34015090354202915 0.3075448873590586 0.05879446683359622
0.24852122175645006 0.44032073076428513 0.05879446683359622
0.48716696611762994 0.469498730575941 0.05879446683359622
0.2377688099406111 0.44068944182747877 0.05879446683359622
0.3106141578310496 0.435776616039519 0.05879446683359622
0.330275426146759 0.31621457992604657 0.05879446683359622
0.5980692748279846 0.3273157724773392 0.05879446683359622
0.6023941559476085 0.4186464993468152 0.05879446683359622
0.5392748079943883 0.35109265347140023 0.06008993813670935
0.5786471704451578 0.4319599582772702 0.06008993813670935
0.48638968333576216 0.276324028954032 0.060787499607616424
0.24668763160435148 0.4355175217788963 0.060787499607616424
0.44517376556902416 0.45209955445874445 0.060787499607616424
0.46192520603466414 0.28835198174524407 0.060787499607616424
0.3370617027422979 0.442881777878901 0.060787499607616424
0.475039361687717 0.4066683723749538 0.060787499607616424
0.3453327887544818 0.4223435751426228 0.060787499607616424
0.20000083887292802 0.3818850098300125 0.060787499607616424
0.5763252872634242 0.4177396694346361 0.060787499607616424
0.1980277364266481 0.41671325755601557 0.06208297091072959
0.5557472238716655 0.4298373783729387 0.06208297091072959
0.20788328349417792 0.5515718202100931 0.06278053238163667
0.4556272224687602 0.45066457086144995 0.06278053238163667
0.4563347491035374 0.3214363257939795 0.06278053238163667
0.2593832503748602 0.30343923984457705 0.06278053238163667
0.47865671617256367 0.4159658702657581 0.06278053238163667
0.34135668837031147 0.3077541558003307 0.06278053238163667
0.3509531411772187 0.43435159760609454 0.06278053238163667
0.3507936985552972 0.3131552746179255 0.06278053238163667
0.6041779202803566 0.32699688723349585 0.06278053238163667
0.582613305665458 0.4240974439837606 0.06278053238163667
0.572857410236629 0.33796853265447724 0.06407600368474979
0.7230224645951818 0.3773408951052464 0.06407600368474979
0.43772978815805863 0.44235362419378566 0.06477356515565687
0.4654329437169396 0.32733570280507934 0.06477356515565687
0.2305241358070476 0.31263708609668034 0.06477356515565687
0.48342006450247205 0.42029075138538197 0.06477356515565687
0.30074864559964964 0.2991542193804335 0.06477356515565687
0.3702158029381241 0.32909953681008725 0.06477356515565687
0.3596826247274273 0.40955826989728317 0.06477356515565687
0.6056228690415213 0.330255495819019 0.06477356515565687
0.6052740883060678 0.4163644768205621 0.06477356515565687
0.11928301152510958 0.3485615018483945 0.06606903645876999
0.5583082709862813 0.3356067888172632 0.06606903645876999
0.186587728303772 0.5598030455667965 0.06676659792967707
0.2544803897507705 0.4369026795568404 0.06676659792967707
0.4655325953556406 0.4626128023417011 0.06676659792967707
0.46226402160624747 0.2832697481714925 0.06676659792967707
0.4279539624014896 0.4447352983587399 0.06676659792967707
0.49511916688597063 0.2787455637744665 0.06676659792967707
0.3777893274794008 0.3291991884487882 0.06676659792967707
0.363798237405779 0.41882587229647705 0.06676659792967707
0.5840881499182329 0.3242265716776078 0.06676659792967707
0.6057125555163521 0.4183973702500628 0.06676659792967707
0.1980277364266481 0.3248444118375541 0.06806206923279019
0.5523989288113115 0.4429614991898618 0.06806206923279019
0.6311536188767201 0.35109265347140023 0.06806206923279019
0.45731133516280725 0.45557739664940977 0.06875963070369727
0.4473760667843165 0.2959554017781311 0.06875963070369727
0.19473923234951462 0.34934874979413255 0.06875963070369727
0.48748585136147327 0.4241273394753709 0.06875963070369727
0.22586043911584025 0.3098069795575716 0.06875963070369727
0.470006953933316 0.3819946266325836 0.06875963070369727
0.423758628412177 0.3902557474808974 0.06875963070369727
0.615867057499985 0.3312619773698992 0.06875963070369727
0.5871474552263538 0.4208189050704973 0.06875963070369727
0.6347510430338267 0.39046501592216953 0.06925788889720233
0.1980277364266481 0.31172029102063104 0.07005510200681041
0.5523989288113115 0.41671325755601557 0.07005510200681041
0.6311536188767201 0.38708682537020517 0.07005510200681041
0.4758664702889355 0.27871566828285627 0.07075266347771748
0.30324990173104505 0.3099664221794932 0.07075266347771748
0.30733561891778644 0.4386964090534585 0.07075266347771748
0.48149678787554256 0.3272460163302484 0.07075266347771748
0.24211362138797507 0.44191515698350126 0.07075266347771748
0.4386166877424976 0.30581094884566107 0.07075266347771748
0.3549392067252592 0.33373333800968413 0.07075266347771748
0.3133745082230676 0.4291996078852522 0.07075266347771748
0.3773209647775061 0.40792398302258653 0.07075266347771748
0.5868285699825108 0.41809841533395975 0.07075266347771748
0.6331665819784804 0.39046501592216953 0.07125092167122253
0.19704118520350805 0.3248444118375541 0.07204813478083064
0.5699774778781699 0.4114616161964725 0.07204813478083064
0.20074822616318563 0.5483730026077908 0.07274569625173771
0.4881834128323803 0.3246152130685418 0.07274569625173771
0.193782576617985 0.3928466900871236 0.07274569625173771
0.46705726542776616 0.46359935356484117 0.07274569625173771
0.42862162838078627 0.3048044672947809 0.07274569625173771
0.3613767025853445 0.4303854623857942 0.07274569625173771
0.4669675789529353 0.3190845471206356 0.07274569625173771
0.37684263691174125 0.38429657948657686 0.07274569625173771
0.34968756536571594 0.3323481802317402 0.07274569625173771
0.37627462257114547 0.3910629257543755 0.07274569625173771
0.6166144447902425 0.32647869871225066 0.07274569625173771
0.6153289386509996 0.4147002944542552 0.07274569625173771
0.49314606443969067 0.4035891367390926 0.07324395444524275
0.6008993813670932 0.4323087390127239 0.07404116755485084
0.6311536188767201 0.39046501592216953 0.07404116755485084
0.4892397202026111 0.2731949674988204 0.07473872902575791
0.3927669687761627 0.40967785186372435 0.07473872902575791
0.4860209722725684 0.3791246594379945 0.07473872902575791
0.21326447198403256 0.32247270283647 0.07473872902575791
0.48972801323224596 0.42672824724546726 0.07473872902575791
0.32803326427598634 0.31198935044512377 0.07473872902575791
0.4763149026630899 0.3604300120176849 0.07473872902575791
0.3512022702739713 0.3333148011271399 0.07473872902575791
0.38147643811133825 0.3814764381113384 0.07473872902575791
0.6161261517606078 0.32989674991969536 0.07473872902575791
0.592279514619456 0.42227381899553207 0.07473872902575791
0.6311536188767201 0.3516805981397362 0.07523698721926297
0.5059313696850303 0.39046501592216953 0.07603420032887105
0.6442777396936432 0.3642167742883234 0.07603420032887105
0.1894676606622312 0.5593845086842523 0.07673176179977813
0.48803393537432876 0.2750983137980096 0.07673176179977813
0.25096268690462487 0.43532818366536447 0.07673176179977813
0.3845457085833294 0.41493945838713764 0.07673176179977813
0.4658714109272241 0.2819543465406391 0.07673176179977813
0.3798022905811614 0.4131257985627792 0.07673176179977813
0.27862598180802534 0.44472533319486973 0.07673176179977813
0.488641810370405 0.3529561391151091 0.07673176179977813
0.20570091260662585 0.4064391736059415 0.07673176179977813
0.3100262131627137 0.4272265054389723 0.07673176179977813
0.4846756751501047 0.36349928248967606 0.07673176179977813
0.6149402972600658 0.3317203749079238 0.07673176179977813
0.16980639234652184 0.39046501592216953 0.07723001999328315
0.16585022229009166 0.35109265347140023 0.07802723310289128
0.5830318425480022 0.33796853265447724 0.07802723310289128
0.1858702365051247 0.5600023488441986 0.07872479457379836
0.4651937797840571 0.4195035034396439 0.07872479457379836
0.3979887146440957 0.34589083793120745 0.07872479457379836
0.3913220200149981 0.3948197925334037 0.07872479457379836
0.46437663634670895 0.2823928137509235 0.07872479457379836
0.37822779468968537 0.4147002944542552 0.07872479457379836
0.4888112181561967 0.268919912198547 0.07872479457379836
0.3387358502724748 0.4089105342457266 0.07872479457379836
0.19129128565045975 0.3549691022168695 0.07872479457379836
0.47854709936999257 0.39511874744950676 0.07872479457379836
0.37033538490456536 0.3975602125976814 0.07872479457379836
0.6331865123062207 0.4030809133817174 0.07872479457379836
0.6462907027954036 0.39046501592216953 0.07922305276730339
0.5523989288113115 0.41671325755601557 0.08002026587691145
0.19042431639376092 0.5497581603857349 0.08071782734781853
0.40542272689119113 0.41025583136819016 0.08071782734781853
0.436484142674296 0.3028811906678514 0.08071782734781853
0.37527810618413543 0.4001511552039077 0.08071782734781853
0.4655126650279005 0.28579093463062805 0.08071782734781853
0.39878592775370375 0.41457074732394394 0.08071782734781853
0.43135208328119395 0.2969618833290113 0.08071782734781853
0.244774320141292 0.31494900411454374 0.08071782734781853
0.18674717092569365 0.38387804260403274 0.08071782734781853
0.37674298527304034 0.37475991766289024 0.08071782734781853
0.6003413321903677 0.3267278278090032 0.08071782734781853
0.6208895000905159 0.41280691331893604 0.08071782734781853
0.5130265663605423 0.39299616754517513 0.0820132986509317
0.19269637375614393 0.5519903570926374 0.08271086012183877
0.436474177510426 0.4428917430427711 0.08271086012183877
0.45483000935915213 0.29088313336824967 0.08271086012183877
0.3083520656325368 0.43256783327334647 0.08271086012183877
0.493863556238338 0.324734795034983 0.08271086012183877
0.370205837774254 0.4078841223671061 0.08271086012183877
0.49470063000342634 0.31909451228450575 0.08271086012183877
0.47698256864238675 0.4092493498173099 0.08271086012183877
0.1874546975604708 0.3894684995351594 0.08271086012183877
0.376414134865327 0.3815661245861693 0.08271086012183877
0.3798521164005118 0.37232841767858554 0.08271086012183877
0.592090176505924 0.319024756137415 0.08271086012183877
0.15997077560673215 0.38699713889537424 0.08320911831534379
0.5110833594058726 0.3773408951052464 0.08400633142495186
0.6836501021444124 0.41671325755601557 0.08400633142495186
0.47106326130354664 0.46533329207823865 0.08470389289585893
0.30971729308274065 0.31886531351549346 0.08470389289585893
0.39633449744165894 0.4041073252603379 0.08470389289585893
0.46851217935280076 0.2811471682671609 0.08470389289585893
0.37256758161146786 0.40304105272623697 0.08470389289585893
0.4964046730252137 0.319014790973545 0.08470389289585893
0.4866886382518652 0.36337970052323487 0.08470389289585893
0.1764730869756194 0.3810579012287941 0.08470389289585893
0.347226169889801 0.40425680271838926 0.08470389289585893
0.6279249057828075 0.4151287965006696 0.08470389289585893
0.6033707420068785 0.3242265716776078 0.08470389289585893
0.15527718342391453 0.4067480936859145 0.0859993641989721
0.5523989288113115 0.41671325755601557 0.0859993641989721
0.17914375089280649 0.5599824185164584 0.08669692566987917
0.4088906039179863 0.4153779255974222 0.08669692566987917
0.46072938637025196 0.3213167438275383 0.08669692566987917
0.1736130849449005 0.3937535199993029 0.08669692566987917
0.495348365654983 0.3995333150439615 0.08669692566987917
0.20881004373409737 0.3172011311491866 0.08669692566987917
0.46348973676226995 0.33220866793755877 0.08669692566987917
0.4851041771965191 0.40324035600363906 0.08669692566987917
0.18174465866290296 0.3664290406674858 0.08669692566987917
0.37623476191566513 0.37129204063609506 0.08669692566987917
0.17359315461716018 0.38082870245978173 0.08669692566987917
0.6375811495729353 0.35147132969846406 0.08669692566987917
0.6464202499257149 0.35751021900374536 0.08669692566987917
0.14553125315895574 0.4035891367390926 0.08799239697299234
0.5842475925401545 0.33796853265447724 0.08799239697299234
0.4683328064031391 0.2816653567884062 0.08868995844389942
0.36075886242539823 0.398506903165341 0.08868995844389942
0.49333540255322267 0.3509531411772189 0.08868995844389942
0.22087785718078973 0.3151283770642056 0.08868995844389942
0.5016363840570168 0.42728629642219285 0.08868995844389942
0.3433596863082017 0.3273655982966896 0.08868995844389942
0.4556571179603705 0.43803870823803187 0.08868995844389942
0.38552229464259935 0.37269712874177935 0.08868995844389942
0.34560184817897455 0.3405495100968334 0.08868995844389942
0.1829604086550553 0.39170069624206205 0.08868995844389942
0.6410191311081201 0.35737070670956383 0.08868995844389942
0.6091903977070176 0.3211174405501363 0.08868995844389942
0.15865537397587876 0.40151638265411155 0.0899854297470125
0.590206760534475 0.31172029102063104 0.0899854297470125
0.5047554803483583 0.3218747930042639 0.09068299121791958
0.4673562203438691 0.3258907540439147 0.09068299121791958
0.35630443417546304 0.40493443386155625 0.09068299121791958
0.46559238633886124 0.2853425022564735 0.09068299121791958
0.35854659604623573 0.40808342564450806 0.09068299121791958
0.4760358780747272 0.28397727480626966 0.09068299121791958
0.3717703685018598 0.39125226386790746 0.09068299121791958
0.49076439027473645 0.3475450551336443 0.09068299121791958
0.3242863626608283 0.33809807978478845 0.09068299121791958
0.18053887383462064 0.3938432064741338 0.09068299121791958
0.34392770064879746 0.3411374547651693 0.09068299121791958
0.6451945347696926 0.36988695253041076 0.09068299121791958
0.14655766503757608 0.3647648583011789 0.09118124941142468
0.587157420390224 0.4298373783729387 0.09197846252103274
0.10615889070818642 0.35109265347140023 0.09197846252103274
0.4699371977862252 0.4645958699518512 0.09267602399193982
0.49840767096310395 0.42299131079417934 0.09267602399193982
0.503539730356206 0.40130711421283943 0.09267602399193982
0.31665304713633097 0.41932413048998207 0.09267602399193982
0.4738933678426554 0.2745004039658036 0.09267602399193982
0.40383826583584503 0.42190510793233826 0.09267602399193982
0.3979588191524854 0.39351435606642043 0.09267602399193982
0.49271756239327624 0.3525774628880453 0.09267602399193982
0.1715502960237895 0.3614962845517857 0.09267602399193982
0.35916443620618194 0.38539274751228814 0.09267602399193982
0.6072870514078282 0.32288127455514415 0.09267602399193982
0.6334854672223238 0.3324478318704412 0.09267602399193982
0.12902894179006835 0.3773408951052464 0.09397149529505291
0.6540236699586021 0.315756182388022 0.09397149529505291
0.1586354436481386 0.3824031983512577 0.09466905676595999
0.23905431607985403 0.31125192831873616 0.09466905676595999
0.3547598337755974 0.33858637281442344 0.09466905676595999
0.3502755100340519 0.3877744216772422 0.09466905676595999
0.168441164896318 0.3612969812743837 0.09466905676595999
0.19112187786466794 0.40473513058415417 0.09466905676595999
0.5126179946418681 0.42291158948321844 0.09466905676595999
0.4602410933406169 0.4255922185642757 0.09466905676595999
0.502343910691794 0.4026324810075628 0.09466905676595999
0.5059612651766406 0.3408683953406766 0.09466905676595999
0.48169609115294454 0.36451572920442626 0.09466905676595999
0.609748446883743 0.32389772126989447 0.09466905676595999
0.6656629813588801 0.3117103258567609 0.09516731495946508
0.1717794947928019 0.4298373783729387 0.09596452806907314
0.6836501021444124 0.3248444118375541 0.09596452806907314
0.22249221372774616 0.3218448975126536 0.09666208953998022
0.31468990985392103 0.3235888011899213 0.09666208953998022
0.3666781697642382 0.38372856514598125 0.09666208953998022
0.1603893124892764 0.3835491921963194 0.09666208953998022
0.27406193675551904 0.4266784214261166 0.09666208953998022
0.46155649497147033 0.28806299199301105 0.09666208953998022
0.4625829068500907 0.4506247102059695 0.09666208953998022
0.5003608430816439 0.34621968833892075 0.09666208953998022
0.5084027303248153 0.34718630923432064 0.09666208953998022
0.6129273341583054 0.32564162494716214 0.09666208953998022
0.13765877370157584 0.3657514095243189 0.09716034773348525
0.5523989288113115 0.4314218394282849 0.09795756084309339
0.6665498809433191 0.43523849719053354 0.09795756084309339
0.6612882744199056 0.32282148357192353 0.09865512231400046
0.5018456524982889 0.3973908048118897 0.09865512231400046
0.5110434987503921 0.37934389304313665 0.09865512231400046
0.48114800714008893 0.4150391100258387 0.09865512231400046
0.49699261769354963 0.27565636297473534 0.09865512231400046
0.3506143256056354 0.3504349526559735 0.09865512231400046
0.25695175039055557 0.4350989848963522 0.09865512231400046
0.16108687396018342 0.4017256510953837 0.09865512231400046
0.34624958383053106 0.3954575630210901 0.09865512231400046
0.16500318336113312 0.3897375589596521 0.09865512231400046
0.14008030852201037 0.35109265347140023 0.09915338050750548
0.5238387691596019 0.4035891367390926 0.09995059361711356
0.14973655231213837 0.36363879478385747 0.10064815508802064
0.25148087542587005 0.31104265987746404 0.10064815508802064
0.3530956514092905 0.34390777032105735 0.10064815508802064
0.3311324302395878 0.4042468375545193 0.10064815508802064
0.17967190457792181 0.3449640776912881 0.10064815508802064
0.4143315833910614 0.4222638538316619 0.10064815508802064
0.4932058554229113 0.47810863215970817 0.10064815508802064
0.5147106790545893 0.3202803667850478 0.10064815508802064
0.5104655192459263 0.37056458367357775 0.10064815508802064
0.49805889022765043 0.34376825802687594 0.10064815508802064
0.6436100737143463 0.42003165712475937 0.10064815508802064
0.13240713234203258 0.3627319648716783 0.10114641328152572
0.5523989288113115 0.41671325755601557 0.10194362639113379
0.6836501021444124 0.4298373783729387 0.10194362639113379
0.14200358514894 0.3797524647618109 0.10264118786204086
0.22620921985129375 0.3134741598617687 0.10264118786204086
0.32830232370047907 0.404216942062909 0.10264118786204086
0.16885970177886225 0.3846254298942902 0.10264118786204086
0.4154775772361231 0.32217374792036696 0.10264118786204086
0.4927574230487567 0.2746997072432056 0.10264118786204086
0.4630313392242452 0.45509906878364487 0.10264118786204086
0.5095387590060069 0.3757564340499003 0.10264118786204086
0.5130763921798928 0.3776398500213494 0.10264118786204086
0.6599629076251824 0.41838740508619265 0.10264118786204086
0.6058620329744038 0.4156270546941746 0.10264118786204086
0.11947234963864141 0.39046501592216953 0.10393665916515396
0.523260789655136 0.3870369995508547 0.10393665916515396
0.18493351110133524 0.3591345407145718 0.10463422063606104
0.28706647560600085 0.3223132602145483 0.10463422063606104
0.18931818320417967 0.3322684589207794 0.10463422063606104
0.2882323997788027 0.4271467841280115 0.10463422063606104
0.18260166275573164 0.41499924937035826 0.10463422063606104
0.21000586339850955 0.3286311741081924 0.10463422063606104
0.33874581543634497 0.3612471554550333 0.10463422063606104
0.38129706516167644 0.37437127627195627 0.10463422063606104
0.5017460008595879 0.27920396131249126 0.10463422063606104
0.502842168885299 0.41986224933896754 0.10463422063606104
0.5193544454180564 0.3491295161889903 0.10463422063606104
0.653635028567668 0.324346153644049 0.10463422063606104
0.6443474958407339 0.4149593887148779 0.10463422063606104
0.11947234963864141 0.39046501592216953 0.1059296919391742
0.6838793009134246 0.35109265347140023 0.1059296919391742
0.1932344926051294 0.34991676413472833 0.10662725341008128
0.3439575961404078 0.3423731350850618 0.10662725341008128
0.14650783921822563 0.34747529898655355 0.10662725341008128
0.2605591397115321 0.3220442007900556 0.10662725341008128
0.21145081215967415 0.4173709583714423 0.10662725341008128
0.49296669149002886 0.27594535272696824 0.10662725341008128
0.4564842265615889 0.2911521927927424 0.10662725341008128
0.41118259160810944 0.332138911790468 0.10662725341008128
0.5069976422191311 0.3227019016054823 0.10662725341008128
0.49235881649395263 0.4098173641579057 0.10662725341008128
0.6603914096715965 0.3181478217168462 0.10662725341008128
0.6597038133645596 0.33256741383688243 0.10662725341008128
0.10615889070818642 0.3642167742883234 0.10792272471319443
0.7230224645951818 0.3642167742883234 0.10792272471319443
0.13057354218993403 0.3627518951994185 0.10862028618410151
0.24313006810272542 0.3142215471520263 0.10862028618410151
0.3084218217796274 0.42137695424722293 0.10862028618410151
0.19519762988753933 0.3862497516051168 0.10862028618410151
0.3387856760918254 0.3598420673493489 0.10862028618410151
0.49869666071533697 0.2714709941492929 0.10862028618410151
0.45215934544196507 0.30082836691061055 0.10862028618410151
0.44003174101205206 0.43558727792598706 0.10862028618410151
0.5224735417093981 0.4215961878523652 0.10862028618410151
0.5131860089824638 0.3982278785769782 0.10862028618410151
0.6480346064726714 0.4249145874211088 0.10862028618410151
0.10615889070818642 0.39046501592216953 0.10911854437760654
0.19161017089430296 0.42653890913193526 0.1099157574872146
0.18697636969470594 0.39351435606642043 0.11061331895812168
0.1635283391083582 0.3418649117276866 0.11061331895812168
0.14538177570090421 0.3752980365118757 0.11061331895812168
0.312517504130239 0.33181006138275465 0.11061331895812168
0.2231399493793027 0.41963305056995526 0.11061331895812168
0.27247747570017294 0.326119952812927 0.11061331895812168
0.4938236955828575 0.27779887320680696 0.11061331895812168
0.4830613186031484 0.4720199170350765 0.11061331895812168
0.5019751996286002 0.3221538175926268 0.11061331895812168
0.5189359085355121 0.3963743580971394 0.11061331895812168
0.6567441596951397 0.4267780730648177 0.11061331895812168
0.18645818117346075 0.42418713045859135 0.11111157715162678
0.11589485580927518 0.39046501592216953 0.11190879026123485
0.5523989288113115 0.3248444118375541 0.11190879026123485
0.18778354796818414 0.34387787482944704 0.11260635173214192
0.14996575108115065 0.40272216748239376 0.11260635173214192
0.2724675105363029 0.4223734706342331 0.11260635173214192
0.3291393974655676 0.337858915851906 0.11260635173214192
0.3110027992219836 0.34016086870589946 0.11260635173214192
0.3849841757936139 0.3740623561919832 0.11260635173214192
0.46069949087864165 0.29228822147393396 0.11260635173214192
0.5243071318614966 0.32038998358761883 0.11260635173214192
0.5206598818850396 0.4228717288277381 0.11260635173214192
0.646041573698651 0.4203605075324727 0.11260635173214192
0.6531068748825527 0.31414182584106554 0.11260635173214192
0.10615889070818642 0.3526671493628762 0.113901823035255
0.6836501021444124 0.35109265347140023 0.113901823035255
0.1795224271198703 0.36996667384137166 0.11459938450616208
0.12131590495461012 0.3656517578856178 0.11459938450616208
0.3118398729870721 0.4068776408162259 0.11459938450616208
0.28553184037000534 0.31969242211671184 0.11459938450616208
0.28068877072913617 0.41471025961812535 0.11459938450616208
0.4296779357510171 0.43604567546401174 0.11459938450616208
0.4978396566225083 0.277410231815873 0.11459938450616208
0.3880534462656049 0.37188995046830114 0.11459938450616208
0.5331263018865361 0.417829355909467 0.11459938450616208
0.6643376145641566 0.33006615770548703 0.11459938450616208
0.6528378154580601 0.3136136721559502 0.11459938450616208
0.09302480472739325 0.3773408951052464 0.11589485580927525
0.7098983437782587 0.4035891367390926 0.11589485580927525
0.15778840471917993 0.38865135609781115 0.11659241728018233
0.17796786155613462 0.3848745589910428 0.11659241728018233
0.3241667806943871 0.40288161010431545 0.11659241728018233
0.3111722070077754 0.3512222006017116 0.11659241728018233
0.24032985705522694 0.3257811372413435 0.11659241728018233
0.4517707040510311 0.45528840689717687 0.11659241728018233
0.4097376428469448 0.42771479846860727 0.11659241728018233
0.49626516073103233 0.32147618644945997 0.11659241728018233
0.5294790519100792 0.3537433870608472 0.11659241728018233
0.6608697375373613 0.4173709583714423 0.11659241728018233
0.1761542017317762 0.3255818339639415 0.11709067547368734
0.1798014517082332 0.4215463620330147 0.11788788858329549
0.15154024697262664 0.36425663494380367 0.11858545005420257
0.14999564657276096 0.35360387476666566 0.11858545005420257
0.13451974708249403 0.3720394279263527 0.11858545005420257
0.3257811372413435 0.3996230015187924 0.11858545005420257
0.22120670758850305 0.4161053825599395 0.11858545005420257
0.26624924828135976 0.32874079091076364 0.11858545005420257
0.4507941179917612 0.45111300323560455 0.11858545005420257
0.47755058298298253 0.45882604007106276 0.11858545005420257
0.5257720109504015 0.32256238931130093 0.11858545005420257
0.5373515313674591 0.31581597337124245 0.11858545005420257
0.6442378790381629 0.4223734706342331 0.11858545005420257
0.18910891476290753 0.4108138805449158 0.11908370824770759
0.19161017089430296 0.40125728839348895 0.11988092135731565
0.14525222857059286 0.3815162987668187 0.12057848282822273
0.13343354422065293 0.3975502474338114 0.12057848282822273
0.12300998281252731 0.3742317639777749 0.12057848282822273
0.2001602814948497 0.41256774938605356 0.12057848282822273
0.3256017642916817 0.37027559392134474 0.12057848282822273
0.24983662338730345 0.4170919337830795 0.12057848282822273
0.44798394178039275 0.45161126142910957 0.12057848282822273
0.5016862098763673 0.4642570543802677 0.12057848282822273
0.5052637037057335 0.423658976773476 0.12057848282822273
0.4895087796271038 0.31770935450656174 0.12057848282822273
0.6487620634351885 0.4280137533847102 0.12057848282822273
0.17305503576817485 0.3256814856026426 0.12107674102172783
0.19000577951121667 0.37061440949292823 0.1218739541313359
0.1276936098314748 0.3663293890287847 0.12257151560224297
0.11959193160508262 0.36037022103446426 0.12257151560224297
0.20199387164694826 0.41137192972164155 0.12257151560224297
0.26552179131884246 0.42155632719688474 0.12257151560224297
0.21228788592476266 0.35883558579846875 0.12257151560224297
0.25275641640124297 0.41517862232002006 0.12257151560224297
0.45087383930272196 0.293673379251878 0.12257151560224297
0.4907544251108665 0.46687789247810435 0.12257151560224297
0.530355986330648 0.32237305119776893 0.12257151560224297
0.5049448184618903 0.41697235181663833 0.12257151560224297
0.6572424178886446 0.4234198128405936 0.12257151560224297
0.667446745691628 0.4311328496760518 0.12257151560224297
0.10615889070818642 0.4035891367390926 0.12386698690535607
0.18913881025451784 0.38698717373150426 0.12386698690535607
0.11237715296312942 0.36957803245043774 0.12456454837626314
0.16503307885274343 0.3672661144325743 0.12456454837626314
0.2049933859718487 0.3478041493942669 0.12456454837626314
0.22151562766847627 0.42529326364817266 0.12456454837626314
0.3037880205800305 0.3492391329915615 0.12456454837626314
0.2619343323256061 0.4067181981943042 0.12456454837626314
0.385691702428391 0.38492438481039326 0.12456454837626314
0.39526822490755814 0.40871123096832446 0.12456454837626314
0.5021645377421321 0.41705207312759907 0.12456454837626314
0.5030315069988309 0.42883089682205855 0.12456454837626314
0.6569932887918922 0.42463556283274595 0.12456454837626314
0.6725489095931197 0.37689246273109184 0.12456454837626314
0.10615889070818642 0.3526671493628762 0.1258600196793763
0.19080299262082473 0.3739627045532822 0.1258600196793763
0.1194324889831611 0.3604200468538149 0.12655758115028337
0.2299860169580621 0.32803326427598645 0.12655758115028337
0.18049901317914033 0.41147158136034245 0.12655758115028337
0.20986635110432802 0.35202937887518965 0.12655758115028337
0.31812789138910585 0.37366374963717913 0.12655758115028337
0.4385369664315369 0.4278742410905288 0.12655758115028337
0.4465589233469683 0.3073754795732669 0.12655758115028337
0.5050942959199418 0.32598044051874564 0.12655758115028337
0.5349399617108943 0.4303754972219242 0.12655758115028337
0.6705658419829698 0.37025566359360457 0.12655758115028337
0.6573719650189559 0.36173544848466815 0.12655758115028337
0.171002212010934 0.34153606131997327 0.1270558393437884
0.1565327940715473 0.3436686063881749 0.12785305245339654
0.16585022229009166 0.41671325755601557 0.12785305245339654
0.11690133736015537 0.3910031347711549 0.12855061392430361
0.31825743851941724 0.3543313317291831 0.12855061392430361
0.19600480816101754 0.3635590734728967 0.12855061392430361
0.23834678944507687 0.33145131548343104 0.12855061392430361
0.21427095353491277 0.41014621456561906 0.12855061392430361
0.4422838680466949 0.4476550913726794 0.12855061392430361
0.47237866293440006 0.29061407394375693 0.12855061392430361
0.5415468653567714 0.4242768169334223 0.12855061392430361
0.6113229427752191 0.3237681741395831 0.12855061392430361
0.6587371924691597 0.4285917328891761 0.12855061392430361
0.6721801985299263 0.3834296102298782 0.12855061392430361
0.15554624284840726 0.410923497347487 0.12904887211780863
0.15517753178521346 0.3910629257543755 0.1298460852274167
0.16069823256924945 0.41671325755601557 0.1298460852274167
0.11261631689601186 0.35665321491091667 0.13054364669832377
0.28096779531749905 0.411611093654524 0.13054364669832377
0.2025220253320636 0.32920915361265835 0.13054364669832377
0.3002204919145343 0.35354408378344504 0.13054364669832377
0.420400368187953 0.42509396037077063 0.13054364669832377
0.4299569603393798 0.30226335050790504 0.13054364669832377
0.5403809411839697 0.32296099586610505 0.13054364669832377
0.5136743020120988 0.41916468786806055 0.13054364669832377
0.6733959485220784 0.3675849996764175 0.13054364669832377
0.647715721228828 0.3845955344026799 0.13054364669832377
0.148221847403883 0.4046653744370635 0.13104190489182888
0.1503842879636949 0.3980186101357061 0.13183911800143694
0.1717794947928019 0.3739627045532822 0.13183911800143694
0.5686820065750567 0.4135543006091936 0.13183911800143694
0.22084796168917942 0.3324179363788309 0.13253667947234402
0.19485881431595584 0.38069915532947046 0.13253667947234402
0.20040941059160214 0.3429710449172679 0.13253667947234402
0.23098253334507216 0.4103953436623717 0.13253667947234402
0.39398271876831503 0.3906942146911818 0.13253667947234402
0.46737615067160937 0.28253232604510503 0.13253667947234402
0.5064395930424055 0.32407709421955627 0.13253667947234402
0.5336345252439111 0.42865152387239674 0.13253667947234402
0.6321601004276002 0.32239298152550927 0.13253667947234402
0.6414376679906644 0.41663353624505484 0.13253667947234402
0.5883731703823765 0.3248444118375541 0.13303493766584903
0.16965691488847032 0.35081362888303735 0.13303493766584903
0.13914358311822092 0.360439977181555 0.13383215077545713
0.1304838557151031 0.38708682537020517 0.13383215077545713
0.5523989288113115 0.4035891367390926 0.13383215077545713
0.1009172145125133 0.3789951123076831 0.1345297122463642
0.3149689344422839 0.3663194238649147 0.1345297122463642
0.1809873062087752 0.35190979690874846 0.1345297122463642
0.23766915830191002 0.3389949445330976 0.1345297122463642
0.300389899700326 0.36969761441687893 0.1345297122463642
0.48795421406336803 0.27797824615646877 0.1345297122463642
0.48527358498231077 0.47128249490868906 0.1345297122463642
0.5145213409410574 0.3212469876804475 0.1345297122463642
0.675418876787709 0.36449579887668615 0.1345297122463642
0.6497386494944586 0.4170421079637289 0.1345297122463642
0.6512533544027138 0.36119732963568263 0.1345297122463642
0.5558767710019766 0.4035891367390926 0.13502797043986928
0.14008030852201037 0.39046501592216953 0.13502797043986928
0.10615889070818642 0.4020146408476166 0.13582518354947734
0.5689012401801989 0.4298373783729387 0.13582518354947734
0.604905377242874 0.33796853265447724 0.13582518354947734
0.18555135126128147 0.3952781900714283 0.13652274502038442
0.2788252850854273 0.4111726264442394 0.13652274502038442
0.22376775470311908 0.33843689535637195 0.13652274502038442
0.22510308666171264 0.4073958293374712 0.13652274502038442
0.4802112817362995 0.2862493321686526 0.13652274502038442
0.4132553456930906 0.42768490297699696 0.13652274502038442
0.5410884678187469 0.3218448975126536 0.13652274502038442
0.602264608817297 0.3200312376882952 0.13652274502038442
0.6271276926731992 0.3237881044673234 0.13652274502038442
0.6264799570216427 0.42216420219296097 0.13652274502038442
0.6762160898973172 0.38599065734449406 0.13652274502038442
0.12977632908032596 0.39751038677833095 0.13702100321388946
0.11475882712808362 0.3975502474338114 0.13781821632349758
0.14880979207221892 0.3642167742883234 0.13781821632349758
0.5523989288113115 0.3642167742883234 0.13781821632349758
0.09768850141860058 0.3701360816271633 0.13851577779440466
0.30905959226731394 0.38146647294746827 0.13851577779440466
0.19509797824883826 0.390016583548015 0.13851577779440466
0.2382371726425058 0.40319053018428846 0.13851577779440466
0.38205441761580416 0.37258751193920814 0.13851577779440466
0.4536441548586101 0.44832275735197624 0.13851577779440466
0.4239380013618388 0.3876747700385412 0.13851577779440466
0.5448254042700348 0.4251338210262511 0.13851577779440466
0.6006901129258212 0.3236984179924925 0.13851577779440466
0.6505059671124563 0.3163241967286176 0.13851577779440466
0.5902665515176956 0.4299170996838995 0.13851577779440466
0.1592433186442147 0.3566033890915661 0.13901403598790968
0.5729172012198496 0.32519319257300755 0.13901403598790968
0.11745938653688101 0.34994665962633864 0.13981124909751777
0.5623640926814125 0.4035891367390926 0.13981124909751777
0.2940121948234613 0.39388306712961413 0.14050881056842485
0.23253709890880797 0.32877068640237395 0.14050881056842485
0.18915874058225815 0.3617753091401486 0.14050881056842485
0.2733045843013913 0.3931655753309668 0.14050881056842485
0.4586167716297905 0.2919095452468702 0.14050881056842485
0.4754578985702613 0.4531458966651051 0.14050881056842485
0.521098349095324 0.32126691800818785 0.14050881056842485
0.5516914021765343 0.41894545426291824 0.14050881056842485
0.682932610345765 0.3663792148481353 0.14050881056842485
0.6414874938100149 0.42227381899553207 0.14050881056842485
0.6359966885175893 0.32898992000751603 0.14050881056842485
0.15554624284840726 0.3586163521933265 0.14100706876192992
0.12165472052619361 0.3484319547180833 0.14180428187153798
0.5786471704451578 0.4035891367390926 0.14180428187153798
0.291211983775963 0.3928666204148639 0.14250184334244506
0.17210834520051513 0.3634793521619358 0.14250184334244506
0.1922878020374698 0.3621539853672124 0.14250184334244506
0.21677220966630817 0.34395759614040794 0.14250184334244506
0.3825327454815689 0.3727369893972597 0.14250184334244506
0.48988745585416765 0.27604500436566914 0.14250184334244506
0.5184874761613576 0.4114915116880828 0.14250184334244506
0.5110833594058726 0.4171716550940403 0.14250184334244506
0.6396638688217865 0.3233297069292987 0.14250184334244506
0.6384182233380238 0.3301757745080581 0.14250184334244506
0.5085522077828668 0.33867605928925437 0.14250184334244506
0.12977632908032596 0.4035891367390926 0.1430001015359501
0.13492831880116815 0.3573906370373041 0.14379731464555817
0.6836501021444124 0.33796853265447724 0.14379731464555817
0.6611487621257244 0.36081865340861885 0.14449487611646525
0.6886924750626835 0.377898944281972 0.14449487611646525
0.6408796188139386 0.4175403661572341 0.14449487611646525
0.594372199032177 0.42261263456711556 0.14449487611646525
0.6258122910423458 0.43188023696630945 0.14449487611646525
0.48490487391911713 0.2814361580193939 0.14449487611646525
0.4042667678822594 0.34755502029751434 0.14449487611646525
0.1579478473411016 0.39593589088685494 0.14449487611646525
0.20635861342205256 0.3334443482574513 0.14449487611646525
0.20490369949701778 0.3995333150439615 0.14449487611646525
0.2378983570709223 0.4017156859315136 0.14449487611646525
0.1503842879636949 0.38231351187642676 0.14499313430997035
0.11432035991779921 0.4035891367390926 0.14579034741957841
0.27941322975376326 0.3526970448544865 0.1464879088904855
0.15470916908331875 0.3541320284517811 0.1464879088904855
0.207295338825842 0.35208916985841027 0.1464879088904855
0.2028608409036471 0.3483522334071224 0.1464879088904855
0.3873558847946979 0.37246792997276695 0.1464879088904855
0.37918445042121496 0.3725576164475979 0.1464879088904855
0.6696490469069204 0.3599118234964397 0.1464879088904855
0.6166144447902425 0.32282148357192353 0.1464879088904855
0.6390858893173207 0.41767987845141546 0.1464879088904855
0.5896786068493597 0.42242329645358356 0.1464879088904855
0.6831418787870374 0.3577593481004978 0.1464879088904855
0.12462433935948375 0.3871765118450361 0.1469861670839905
0.12924817539521063 0.3757564340499003 0.14778338019359863
0.5655230496282346 0.3363840715991311 0.14778338019359863
0.2682123855637697 0.3512520960933219 0.1484809416645057
0.15382226949887975 0.39694237243773517 0.1484809416645057
0.17874514433800254 0.3829313520363732 0.1484809416645057
0.26797322163088727 0.39123233354016734 0.1484809416645057
0.4761953206966487 0.28738536084984423 0.1484809416645057
0.47188040474089504 0.44954847250799856 0.1484809416645057
0.5174311687911269 0.3259605101910053 0.1484809416645057
0.6897886430883947 0.36438618207411505 0.1484809416645057
0.6202616947666997 0.42207451571813004 0.1484809416645057
0.5272767506947867 0.41884580262421733 0.1484809416645057
0.7068888642894883 0.35109265347140023 0.14897919985801075
0.12265123691320366 0.3849044544826531 0.14977641296761882
0.5523989288113115 0.33796853265447724 0.14977641296761882
0.28930863747677366 0.3718500898128207 0.1504739744385259
0.14754421626071615 0.38460549956655005 0.1504739744385259
0.17023489439293624 0.376414134865327 0.1504739744385259
0.19834662167049127 0.3552780222968427 0.1504739744385259
0.4329066488449298 0.3149888647700241 0.1504739744385259
0.39524829457981797 0.4022338744527589 0.1504739744385259
0.6932664852790599 0.376414134865327 0.1504739744385259
0.6363653995807829 0.3690399136014522 0.1504739744385259
0.5243669228447172 0.3264388380567702 0.1504739744385259
0.5643870209470431 0.4260605812661704 0.1504739744385259
0.6442279138742927 0.4334746631855256 0.1504739744385259
0.10995561814269492 0.39046501592216953 0.150972232632031
0.4474059622759268 0.4035891367390926 0.15176944574163906
0.6936152660145134 0.4035891367390926 0.15176944574163906
0.17779845377034295 0.3607488972615281 0.15246700721254614
0.2777191518958462 0.3940325445876656 0.15246700721254614
0.15963196003514865 0.3648146841205293 0.15246700721254614
0.388641390933941 0.37088346891742097 0.15246700721254614
