0.5774136247166312 -0.14994355567854037 -0.37926102610651563
0.5721987856076666 -0.16261945247370743 -0.37926102610651563
0.5179283387767105 -0.1840318979059712 -0.37926102610651563
0.5940853073225635 -0.16517043437549528 -0.37926102610651563
0.5389570081706521 -0.09435246777453458 -0.37926102610651563
0.5163706595623444 0.15124162169051183 -0.37926102610651563
0.5805176956148245 -0.14795695030369668 -0.37926102610651563
0.581725461382485 0.11701782909661457 -0.37926102610651563
0.39413799135676536 -0.08948754211227544 -0.37926102610651563
0.3867107962621794 0.05284821798305676 -0.37926102610651563
0.40218600063098986 0.04021747131004512 -0.37926102610651563
0.5735758643334105 -0.10211828878528707 -0.3770035199987387
0.5345210086688705 0.05711490452675506 -0.3770035199987387
0.5020806459001168 -0.17523891161618027 -0.3770035199987387
0.536428601329942 0.061844379822547584 -0.3770035199987387
0.6104973767261013 0.12179245451456268 -0.3770035199987387
0.5854051963381613 0.06657385511834012 -0.3770035199987387
0.3602302496179566 0.03063435788253223 -0.3770035199987387
0.4234065580440926 -0.09291895139609632 -0.3770035199987387
0.2642523774458226 0.03076980824899885 -0.3770035199987387
0.37352696059276236 -0.03830987864897369 -0.3770035199987387
0.395244169349576 0.12189404228941249 -0.37634884322748346
0.5141808786378007 -0.24977047576443387 -0.37634884322748346
0.7420874077484158 0.032688688440609216 -0.37634884322748346
0.7012942723808875 0.05212581602856808 -0.3747460138909619
0.5204115954952651 -0.17887349644970094 -0.3747460138909619
0.6932011129845073 -0.10804424231820145 -0.3747460138909619
0.5681691372052848 -0.15801414001384256 -0.3747460138909619
0.545311887864044 0.12298893275168436 -0.3747460138909619
0.5879674657704881 0.06553540230876276 -0.3747460138909619
0.2795695563870887 -0.07299645999496536 -0.3747460138909619
0.3695988999652306 -0.07754533480213584 -0.3747460138909619
0.3152155778288856 0.035250957872936015 -0.3747460138909619
0.26839490115359316 -0.08586424480929358 -0.3747460138909619
0.42498681231953644 0.15162539772883413 -0.373368935165218
0.3209157807510222 -0.09347204039250173 -0.373368935165218
0.7338249353939523 -0.08623673331707678 -0.373368935165218
0.5727180120124553 0.05887575929082093 -0.372488507783185
0.534870922115576 0.057250354893221674 -0.372488507783185
0.6708066523953609 -0.1267363928905939 -0.372488507783185
0.5640379010280532 -0.16169387496951898 -0.372488507783185
0.573812902474727 0.06856046049318379 -0.372488507783185
0.5993565840842224 0.09699374992063363 -0.372488507783185
0.3656031141544655 0.024234328066984858 -0.372488507783185
0.3885958138621731 -0.08136052012427869 -0.372488507783185
0.42328239520816474 0.05077131236390205 -0.372488507783185
0.3800285781831598 -0.08646248392785442 -0.372488507783185
0.5736435895166437 0.15162539772883413 -0.3703890271029525
0.29118442531160066 -0.11596808875649828 -0.3703890271029525
0.7520430096837115 -0.10289712839247013 -0.3703890271029525
0.5775716501441756 -0.1684325307012329 -0.37023100167540807
0.5459214145131438 0.1334524735612301 -0.37023100167540807
0.7467491578609748 -0.051369551482462895 -0.37023100167540807
0.5231431778856751 -0.19367144898617844 -0.37023100167540807
0.5377379548724526 -0.10926329561640101 -0.37023100167540807
0.5735081391501772 0.0538189456094008 -0.37023100167540807
0.5914440251764645 0.07842576218416869 -0.37023100167540807
0.2795695563870887 0.03528482046455267 -0.37023100167540807
0.3907291571340222 -0.08260214848355597 -0.37023100167540807
0.2684739138673654 -0.08112348198296211 -0.37023100167540807
0.5777974007549533 -0.10181352546073719 -0.36797349556763126
0.517871901124016 0.13806907355163406 -0.36797349556763126
0.537974993013769 -0.18285799472992723 -0.36797349556763126
0.5761268462351985 -0.11073067458645593 -0.36797349556763126
0.5396794101251406 0.06602076612193486 -0.36797349556763126
0.5852133083190003 0.1206298388690575 -0.36797349556763126
0.5924937655165807 -0.0912258218152636 -0.36797349556763126
0.27560763316794024 -0.07636014409555293 -0.36797349556763126
0.39834824024776927 -0.09113552157095257 -0.36797349556763126
0.3969598739914864 0.04242982729566644 -0.36797349556763126
0.7817743651231331 -0.04163970015794445 -0.36740911904068696
0.38037849162986515 -0.1725750544090035 -0.36740911904068696
0.3655128139101545 0.13962675276599984 -0.36740911904068696
0.576747660414837 -0.16938068326649922 -0.36571598945985434
0.5303220473084055 0.13699675815043974 -0.36571598945985434
0.6660207394468738 -0.13280908432051383 -0.36571598945985434
0.5162803593180333 -0.17219127837068138 -0.36571598945985434
0.5375460668532915 -0.11161110196848895 -0.36571598945985434
0.5792760672555471 -0.046211150026192645 -0.36571598945985434
0.607314293114136 0.09909323060086606 -0.36571598945985434
0.26838361362305424 0.02843328942744985 -0.36571598945985434
0.38019789114124314 -0.07761305998536915 -0.36571598945985434
0.26548271827456105 0.03616524784658552 -0.36571598945985434
0.3781774231747828 0.0244600786777625 -0.36571598945985434
0.6681653702492618 -0.1457107317264587 -0.36515161293291015
0.29118442531160066 0.017823010720898386 -0.36515161293291015
0.6354992568697303 0.12224395573611796 -0.36515161293291015
0.6695537365055444 0.08383248931229446 -0.36345848335207753
0.5317781387479217 -0.18377228470357687 -0.36345848335207753
0.5636315499286533 0.13629693125702907 -0.36345848335207753
0.7164195633029926 -0.09857400419607745 -0.36345848335207753
0.5538678360125183 -0.027011060579550362 -0.36345848335207753
0.5792760672555471 -0.0884039391805425 -0.36345848335207753
0.6232184236434242 0.04513883462499864 -0.36345848335207753
0.27195047327334176 0.03157122291725962 -0.36345848335207753
0.42064111306206586 -0.09285122621286301 -0.36345848335207753
0.4308337531386784 -0.08885544040209795 -0.36345848335207753
0.5290465563575116 -0.05650537787765528 -0.36289410682513323
0.5736435895166437 -0.23490479804472303 -0.36199110438202253
0.3060501030313115 0.07729700913028031 -0.36199110438202253
0.5290465563575116 0.017823010720898386 -0.36199110438202253
0.7026939261677091 0.05832267029441568 -0.3612009772443006
0.5712280579813225 0.129750163544476 -0.3612009772443006
0.7669989876477336 -0.02763187475918892 -0.3612009772443006
0.5927759537800529 -0.1066333010008409 -0.3612009772443006
0.5889156183357545 0.0637293974225413 -0.3612009772443006
0.6322935981966872 0.09113552157095257 -0.3612009772443006
0.6368198979427796 -0.10950033375771744 -0.3612009772443006
0.618646973775176 0.03294830164300351 -0.3612009772443006
0.2795695563870887 0.03528482046455267 -0.3612009772443006
0.3700842637784027 -0.06649484240456803 -0.3612009772443006
0.4203250622069771 0.055184736804605755 -0.3612009772443006
0.39992849452321294 0.03943863170286207 -0.3612009772443006
0.7410602424693772 -0.08623673331707678 -0.3597335982742456
0.3119647690336869 -0.11596808875649828 -0.3597335982742456
0.5897057454734763 0.14236962268694903 -0.3597335982742456
0.359902911232329 -0.0682556971686339 -0.35894347113652375
0.3969937365831031 -0.09101135873502489 -0.35894347113652375
0.42026862455428265 -0.09750168879488345 -0.35894347113652375
0.37808712293047175 0.02495673002147338 -0.35894347113652375
0.5843328809369673 0.06874106098180599 -0.35894347113652375
0.5552900648604179 0.13400556255763552 -0.35894347113652375
0.6098314124243072 0.09118067169310817 -0.35894347113652375
0.543460732855667 0.1316013185528532 -0.35894347113652375
0.5713522208172503 0.12088945207145178 -0.35894347113652375
0.6581646181918103 -0.13084505400674787 -0.35894347113652375
0.29118442531160066 -0.05830009523333796 -0.35747609216646875
0.6068176417704251 0.13675972000912331 -0.35747609216646875
0.6476785023211866 -0.16057640944616938 -0.35747609216646875
0.2725712874529805 -0.07792911084045781 -0.3566859650287469
0.36103166428621736 0.03520580775078042 -0.3566859650287469
0.39666639819747546 0.04270072802859968 -0.3566859650287469
0.3733012099819847 -0.004548874807170476 -0.3566859650287469
0.5306268106329554 -0.10709608975293512 -0.3566859650287469
0.5326698536604935 0.13822709897917823 -0.3566859650287469
0.6019978662303214 0.11948979828463017 -0.3566859650287469
0.54697115485326 0.14102640655282178 -0.3566859650287469
0.5424674301682451 0.15080140799949548 -0.3566859650287469
0.6340093028385975 0.0863947587446211 -0.3566859650287469
0.796651330373383 -0.05650537787765528 -0.3552185860586919
0.38037849162986515 0.16649107544854497 -0.3552185860586919
0.6331175879260258 -0.2051734426053017 -0.3552185860586919
0.42281960645607053 0.05121152605491856 -0.35442845892096997
0.5492399484915758 0.052543454658506863 -0.35442845892096997
0.5545789504364681 -0.08884415287155902 -0.35442845892096997
0.6905259682467917 -0.11371058264872136 -0.35442845892096997
0.7317254547137197 -0.08073970594464014 -0.35442845892096997
0.7701820712596987 -0.0347430189986862 -0.35442845892096997
0.6328353996625536 -0.13792233565462833 -0.35442845892096997
0.5350966727263536 -0.07137105559736595 -0.35296107995091497
0.7297952869915707 -0.10110241103678744 -0.35296107995091497
0.3209157807510222 -0.09824666581044969 -0.35296107995091497
0.4200880240656605 0.055410487415383555 -0.3521709528131931
0.539069883476041 -0.09996237045236013 -0.3521709528131931
0.5762735841322039 -0.04895401994714165 -0.3521709528131931
0.6253179043236567 -0.1493114539683627 -0.3521709528131931
0.5867597000028275 -0.16459477031801215 -0.3521709528131931
0.5271276761659012 -0.1929603345622287 -0.3521709528131931
0.6310406823068708 0.10561742325234126 -0.3521709528131931
0.5141808786378007 0.18422378592513233 -0.3507035738431381
0.7817743651231331 -0.035691171563952524 -0.3507035738431381
0.3506471361904437 -0.13084505400674787 -0.3507035738431381
0.2753705950266237 -0.04391978132679924 -0.3507035738431381
0.3932575639747323 -0.08796372548952615 -0.3499134467054162
0.5391263211287354 0.05776958129801027 -0.3499134467054162
0.5401760614688517 0.048649256622591765 -0.3499134467054162
0.6174843581296707 0.11571976308464275 -0.3499134467054162
0.6387952157870845 0.09482654405716776 -0.3499134467054162
0.5995258970423057 0.12842952247142664 -0.3499134467054162
0.6728722704839766 0.09658739882123378 -0.3499134467054162
0.7408344918585994 -0.05981262432554848 -0.3499134467054162
0.7669086874034223 -0.08623673331707678 -0.34844606773536124
0.5575137083765781 0.15211076154200623 -0.34844606773536124
0.27697342436314537 -0.04163970015794445 -0.34844606773536124
0.3989464793663301 -0.09197079883083 -0.3476559405976393
0.5420159289466898 -0.09992850786074348 -0.3476559405976393
0.5267439001275792 -0.11148693913256111 -0.3476559405976393
0.632022697463754 0.1080103797265848 -0.3476559405976393
0.5684739005298347 -0.17517118643294696 -0.3476559405976393
0.5892316691908431 0.12232296844989021 -0.3476559405976393
0.5523891695119245 0.14592519480669758 -0.3476559405976393
0.6819925951593951 0.014357738845461012 -0.3476559405976393
0.67273682011751 0.10702836456970181 -0.3461885616275844
0.618251910206315 -0.22003912032501238 -0.3461885616275844
0.3060501030313115 -0.04163970015794445 -0.3461885616275844
0.38285046081788093 -0.09930769368110491 -0.34539843448986246
0.547354930891582 0.020644893355619483 -0.34539843448986246
0.5768040980675314 -0.08858453966916471 -0.34539843448986246
0.6724997819761932 -0.12998720168579275 -0.34539843448986246
0.5485626966592427 -0.18678605535745896 -0.34539843448986246
0.5719843225274278 -0.1654639101695064 -0.34539843448986246
0.645782197190654 -0.12648806721873856 -0.34539843448986246
0.5219692747096312 0.1576755140976762 -0.34393105551980746
0.3209157807510222 0.0950184320763289 -0.34393105551980746
0.6787304988336577 -0.1457107317264587 -0.34393105551980746
0.3997817566262075 0.04952968400462478 -0.34314092838208554
0.41960266025248855 0.060004512344709465 -0.34314092838208554
0.5464067783263158 -0.09264805066316309 -0.34314092838208554
0.5469824423837989 0.13767400998277282 -0.34314092838208554
0.6950184054012677 0.07199186977700467 -0.34314092838208554
0.773478030177053 -0.03027315690528797 -0.34314092838208554
0.7536797016118498 -0.06690119350396788 -0.34314092838208554
0.687388034756982 -0.10565128584395792 -0.34314092838208554
0.5296786580676891 -0.01857927526700372 -0.3416735494120306
0.4101211345998256 0.1693581082054215 -0.3416735494120306
0.42498681231953644 -0.20230640984842502 -0.3416735494120306
0.4006847590693183 0.05007148547049125 -0.3408834222743087
0.5436977709969836 -0.05002633534833566 -0.3408834222743087
0.528414454647334 0.04823161799265297 -0.3408834222743087
0.5960493376363293 0.12591240316125527 -0.3408834222743087
0.6700616753797944 0.07507336561412006 -0.3408834222743087
0.5905861728555093 0.13254947111811954 -0.3408834222743087
0.6819248699761618 0.09282865115178529 -0.3408834222743087
0.6868123706994986 -0.09665512400446709 -0.3408834222743087
0.3060501030313115 -0.1457107317264587 -0.33941604330425373
0.8115170080930935 0.017823010720898386 -0.33941604330425373
0.618251910206315 0.15449243048571068 -0.33941604330425373
0.42242454288720965 0.05650537787765528 -0.3386259161665318
0.5523665944508468 -0.06793964631354522 -0.3386259161665318
0.5432011196532727 0.02464067916638471 -0.3386259161665318
0.5720407601801222 0.1329896848091359 -0.3386259161665318
0.556825169013706 -0.17916697224371203 -0.3386259161665318
0.5541838868676072 0.14376927647377064 -0.3386259161665318
0.5748400677537656 0.14142147012168269 -0.3386259161665318
0.7121190141676776 0.019843478687358713 -0.3386259161665318
0.335781458470733 -0.1754420871658802 -0.33715853719647687
0.7471667964909136 0.04755436616031988 -0.33715853719647687
0.38037849162986515 0.16649107544854497 -0.33715853719647687
0.3856384808609854 -0.09616976019129499 -0.33636841005875495
0.5809691968363797 -0.1024343396403759 -0.33636841005875495
0.5406049876293292 0.006637067956863954 -0.33636841005875495
0.5885995674806657 0.12908419924268186 -0.33636841005875495
0.5584844360029221 -0.17903152187724541 -0.33636841005875495
0.542670605717945 0.1465234339252584 -0.33636841005875495
0.5760365459908873 0.14144404518276024 -0.33636841005875495
0.29118442531160066 0.06242004388003071 -0.3349010310887
0.600665937626733 0.14277597378634854 -0.3349010310887
0.6479832656457364 -0.17829783239221797 -0.3349010310887
0.5653811171621804 0.155056807012655 -0.3349010310887
0.4293663741686235 -0.10206185113259271 -0.3341109039509781
0.5526600702448577 0.027868912900505503 -0.3341109039509781
0.5419030536413009 -0.06863947320695603 -0.3341109039509781
0.6915418459952913 -0.10816840515412912 -0.3341109039509781
0.639528905272112 -0.14629768331448062 -0.3341109039509781
0.6586274069439044 -0.13069831610974234 -0.3341109039509781
0.6838098875761555 -0.09602302229428959 -0.3341109039509781
0.335781458470733 -0.16343215467250713 -0.3326435249809231
0.8115170080930935 -0.02677402243823378 -0.3326435249809231
0.3655128139101545 0.017823010720898386 -0.3326435249809231
0.6518661761511125 0.12189404228941249 -0.3326435249809231
0.3903115185040835 -0.08215064726200068 -0.33185339784320117
0.5499623504460643 0.022033259611902316 -0.33185339784320117
0.5901798217561094 0.0651742013315185 -0.33185339784320117
0.6894085027234422 0.07765821010752458 -0.33185339784320117
0.7001768068575377 0.05569267567885557 -0.33185339784320117
0.7604296448741029 -0.056132889369872076 -0.33185339784320117
0.6952328684815066 -0.12851982271573767 -0.33185339784320117
0.7009669339952599 0.06586274069439037 -0.33185339784320117
0.7497403534537793 -0.08865226485239802 -0.331289021316257
0.5290465563575116 -0.028568739793916467 -0.3303860188731462
0.7631950898561293 0.04755436616031988 -0.3303860188731462
0.6276431356146668 -0.1754420871658802 -0.3303860188731462
0.37396717428377885 0.017823010720898386 -0.3303860188731462
0.42437728567043664 -0.10088794795654873 -0.3295958917354243
0.5382571812772413 -0.10082022277331543 -0.3295958917354243
0.5436639084053669 -0.07131461794467157 -0.3295958917354243
0.5575249959071169 -0.17962976099580627 -0.3295958917354243
0.6338512774110533 -0.15505680701265487 -0.3295958917354243
0.5603243034807602 0.14353223833245388 -0.3295958917354243
0.7046353814203972 0.07950936511590163 -0.3295958917354243
0.7236210077868006 0.03944991923340101 -0.3295958917354243
0.29118442531160066 -0.009041311961646422 -0.3281285127653693
0.42498681231953644 -0.20230640984842502 -0.3281285127653693
0.7602490443854805 -0.08361802623205561 -0.3281285127653693
0.6790804122803628 0.10702836456970181 -0.3281285127653693
0.5415531401945956 0.16076829746533053 -0.3281285127653693
0.4293437991075458 -0.09945443157811032 -0.32733838562764744
0.5385167944796356 -0.10688162667269625 -0.32733838562764744
0.5444088854209332 -0.08772668734820957 -0.32733838562764744
0.5648957533490084 -0.17853487053353437 -0.32733838562764744
0.6975919623641333 -0.11574233814572063 -0.32733838562764744
0.631514758589504 0.10840544329544571 -0.32733838562764744
0.6268530084769449 0.1262397415468832 -0.32733838562764744
0.7522123226417949 -0.05586198863693884 -0.32733838562764744
0.5141808786378007 0.18422378592513233 -0.32587100665759244
0.3268304467533976 -0.11596808875649828 -0.32587100665759244
0.7558694825363936 0.06242004388003071 -0.32587100665759244
0.738057759346034 -0.10554969806910795 -0.32587100665759244
0.6331175879260258 -0.19317479764246756 -0.32587100665759244
0.41937690964171087 0.056087739247716484 -0.3250808795198705
0.5435623206305169 0.05835653288603233 -0.3250808795198705
0.5417563157442955 -0.056697265896816264 -0.3250808795198705
0.5798968814351857 0.13267363395404722 -0.3250808795198705
0.716171237631137 0.05636992751118866 -0.3250808795198705
0.7406313163088994 0.0462450126178093 -0.3250808795198705
0.7189479701437026 -0.11049363644513935 -0.3250808795198705
0.7397621764574054 0.03297087670408139 -0.3250808795198705
0.7669086874034223 -0.07137105559736595 -0.32451650299292634
0.3655128139101545 -0.2051734426053017 -0.3236135005498156
0.335781458470733 0.04755436616031988 -0.3236135005498156
0.7558694825363936 0.06242004388003071 -0.3236135005498156
0.6942508533246237 -0.09190307364759669 -0.3236135005498156
0.3948716808417928 -0.09258032547992978 -0.32282337341209366
0.5412596644005845 0.0586048585578877 -0.32282337341209366
0.5379185553610747 -0.10838286823436799 -0.32282337341209366
0.5676837733921128 -0.17829783239221797 -0.32282337341209366
0.7630032018369683 0.006975693873030499 -0.32282337341209366
0.6894762279066756 -0.11754834303194209 -0.32282337341209366
0.6722740313654157 0.0871397357601875 -0.32282337341209366
0.7370531691280733 0.05261117984174017 -0.32282337341209366
0.7382835099568115 0.030950408737621057 -0.32282337341209366
0.37373013614246225 -0.02677402243823378 -0.32135599444203866
0.6862028440503989 -0.1457107317264587 -0.32135599444203866
0.3209157807510222 0.10702836456970181 -0.32135599444203866
0.6765632929701918 0.06997140181054433 -0.32135599444203866
0.3897358544466004 -0.0818007338152952 -0.32056586730431674
0.550966940664025 -0.058458120660882296 -0.32056586730431674
0.587098325918994 -0.11205131565950545 -0.32056586730431674
0.5648280281657752 -0.17869289596107887 -0.32056586730431674
0.77826394312554 -0.026390246399911645 -0.32056586730431674
0.7710963612333486 -0.046436900636970445 -0.32056586730431674
0.5671193968651687 -0.1846075619634543 -0.32056586730431674
0.7266573535017605 0.03163894810049293 -0.32056586730431674
0.7414327309771602 -0.06585145316385159 -0.32056586730431674
0.677714621085158 0.030905258615465465 -0.3190984883342618
0.5736435895166437 0.1693581082054215 -0.3190984883342618
0.5736435895166437 -0.22290615308188907 -0.3190984883342618
0.29118442531160066 0.0344834057962919 -0.3190984883342618
0.3960004338956812 -0.08633832109192674 -0.3183083611965399
0.5525133323478522 0.02855745226337753 -0.3183083611965399
0.5430543817562671 0.03184212365019285 -0.3183083611965399
0.5671645469873241 0.1376627224522342 -0.3183083611965399
0.7693693690608994 -4.5150122155544634E-4 -0.3183083611965399
0.7553728311926826 -0.07167581892191584 -0.3183083611965399
0.7299307373580373 -0.0809880316164955 -0.3183083611965399
0.6690345101007559 0.10632853767629101 -0.3183083611965399
0.7354842023831683 -0.10198283841882046 -0.3183083611965399
0.6479832656457364 -0.19030776488559087 -0.31684098222648494
0.6819022949150839 0.10702836456970181 -0.31684098222648494
0.3060501030313115 -0.02677402243823378 -0.31684098222648494
0.6726126572815823 -0.11596808875649828 -0.31684098222648494
0.5823914256842793 0.1378884730630117 -0.316050855088763
0.743814399920865 -0.06514033873990184 -0.316050855088763
0.7729588037722644 -0.021389870371185882 -0.316050855088763
0.7280344322275046 -0.09908194307032728 -0.316050855088763
0.5491044981251092 -0.06730754460336758 -0.316050855088763
0.5914214501153867 -0.10843930588706237 -0.316050855088763
0.40004136982860183 0.05069229965012981 -0.316050855088763
0.39851755320585236 0.03965309478310093 -0.316050855088763
0.7514221955040731 -0.08921664137934221 -0.31458347611870807
0.5538452609514406 0.15760778891444288 -0.31458347611870807
0.373560823184379 0.017823010720898386 -0.31458347611870807
0.5723003733825165 0.13566482954685144 -0.31379334898098615
0.6833809614156777 0.07619083113746966 -0.31379334898098615
0.7526186737411948 0.023658664009501732 -0.31379334898098615
0.6158250911404548 -0.16450447007370114 -0.31379334898098615
0.6191097625272701 -0.17297011797786443 -0.31379334898098615
0.5498381876101366 0.04764466640463107 -0.31379334898098615
0.5449393993562608 -0.07552486683567551 -0.31379334898098615
0.4217472910548765 0.05222740380341804 -0.31379334898098615
0.3734930980011457 0.0029573330011877165 -0.3123259700109312
0.677714621085158 -0.16343215467250713 -0.3123259700109312
0.5842087181010396 0.14965007988452925 -0.3123259700109312
0.54970273724367 0.1590074427012645 -0.3123259700109312
0.5805289831453633 0.13348633615284694 -0.3115358428732093
0.555843153856823 0.14014597917078875 -0.3115358428732093
0.7597523930417698 0.0014899540311327964 -0.3115358428732093
0.5918729513369422 -0.17262020453115912 -0.3115358428732093
0.7121641642898331 -0.11952366087624683 -0.3115358428732093
0.5458424017993716 0.02225901022267996 -0.3115358428732093
0.5423545548628563 -0.11105801297208354 -0.3115358428732093
0.38920534051127287 0.04857024390881952 -0.3115358428732093
0.39840467790046363 -0.08202648442607284 -0.3115358428732093
0.3655128139101545 0.15162539772883413 -0.3100684639031543
0.7555760067423826 0.04525170993038754 -0.3100684639031543
0.7621340619854742 -0.08623673331707678 -0.3100684639031543
0.6331175879260258 -0.19317479764246756 -0.3100684639031543
0.3734366603484513 -0.02677402243823378 -0.3100684639031543
0.5618029699813541 0.13348633615284694 -0.30927833676543237
0.7647866316621122 0.007709383358058119 -0.30927833676543237
0.7596846678585365 -0.05778086882854921 -0.30927833676543237
0.6192452128937368 -0.1636240426916681 -0.30927833676543237
0.6371698113894851 -0.16599442410483392 -0.30927833676543237
0.5472420555861932 0.029200841504093963 -0.30927833676543237
0.5454586257610494 -0.09123710934580254 -0.30927833676543237
0.38914890285857834 0.05054556175312425 -0.30927833676543237
0.3989239043052522 -0.0835503010488223 -0.30927833676543237
0.37338022269575694 -0.04163970015794445 -0.3078109577953774
0.7439047001651762 0.03290315152084808 -0.3078109577953774
0.751128719710062 -0.07461057686202584 -0.3078109577953774
0.6925802988048685 0.12189404228941249 -0.3078109577953774
0.4101211345998256 -0.22290615308188907 -0.3078109577953774
0.6473850265271756 0.10899239488346778 -0.3070208306576555
0.5960832002279459 0.13901722611690007 -0.3070208306576555
0.7708818981531097 -0.04252012753997746 -0.3070208306576555
0.6075513312554526 -0.16794716688806094 -0.3070208306576555
0.7204040615832186 -0.11347354450740478 -0.3070208306576555
0.5431559695311171 0.02458424151369018 -0.3070208306576555
0.5421739543742341 -0.1134171068547104 -0.3070208306576555
0.5705282310879117 -0.06682218079019563 -0.3070208306576555
0.39980433168728524 -0.09316727706795185 -0.3070208306576555
0.5894799948626986 0.15162539772883413 -0.30645645413071126
0.796651330373383 0.020690043477775075 -0.30555345168760056
0.6854240044432159 0.06242004388003071 -0.30555345168760056
0.42498681231953644 -0.20230640984842502 -0.30555345168760056
0.3209157807510222 0.032688688440609216 -0.30555345168760056
0.6622168416552695 0.10121528634217634 -0.30476332454987864
0.67273682011751 0.10578673621042453 -0.30476332454987864
0.7793249709961951 -0.03056663269929892 -0.30476332454987864
0.5868838628387552 -0.17478741039462484 -0.30476332454987864
0.7287681217125321 -0.10782977923796258 -0.30476332454987864
0.547264630647271 0.020780343722086102 -0.30476332454987864
0.5423432673323174 -0.11348483203794373 -0.30476332454987864
0.5712619205729391 0.04835578082858081 -0.30476332454987864
0.42151025291356 -0.09470238122124007 -0.30476332454987864
0.6033862324866042 0.15162539772883413 -0.3041989480229344
0.7451576160549922 -0.07137105559736595 -0.3032959455798237
0.6689780724480615 0.0782790242871633 -0.3032959455798237
0.27631874759189 -0.02677402243823378 -0.3032959455798237
0.5934080554902303 -0.19412295020773374 -0.3032959455798237
0.6040634843189373 0.12215365549180678 -0.3025058184421018
0.7834110570512716 -0.021243132474180484 -0.3025058184421018
0.5898863459620984 -0.17525019914671905 -0.3025058184421018
0.7249190737987724 -0.11027917336490048 -0.3025058184421018
0.5479080198879874 0.018251936881376114 -0.3025058184421018
0.5430656692868061 -0.11134020123555571 -0.3025058184421018
0.5706749689849172 -0.030442469863371242 -0.3025058184421018
0.38932950334720057 0.04191060089087768 -0.3025058184421018
0.618251910206315 -0.1816502289622666 -0.30194144191515754
0.6588305824936044 0.12189404228941249 -0.3010384394720468
0.7223116542442902 -0.13370079923308564 -0.3010384394720468
0.6331175879260258 -0.2051734426053017 -0.3010384394720468
0.3209157807510222 -0.07137105559736595 -0.3010384394720468
0.603013743978821 0.127605532742088 -0.3002483123343249
0.5755173195860986 0.14874707744141868 -0.3002483123343249
0.5960493376363293 -0.17220256590122032 -0.3002483123343249
0.5723793860962888 -0.1913462176951682 -0.3002483123343249
0.5424674301682451 0.06419218617463553 -0.3002483123343249
0.5380427181970024 -0.030284444435826906 -0.3002483123343249
0.5805854207980577 -0.07322221060574301 -0.3002483123343249
0.42360973359379256 -0.10161034991103726 -0.3002483123343249
0.3655128139101545 0.017823010720898386 -0.2987809333642699
0.3655128139101545 0.13962675276599984 -0.2987809333642699
0.7223116542442902 0.032688688440609216 -0.2987809333642699
0.8012566428332476 -0.02677402243823378 -0.2987809333642699
0.42498681231953644 -0.20230640984842502 -0.2987809333642699
0.6499021458373468 0.113654144996027 -0.297990806226548
0.7899352497027464 -0.021615620981963686 -0.297990806226548
0.5700315797442008 -0.18711339374308658 -0.297990806226548
0.5838926672459508 0.049698996962708054 -0.297990806226548
0.545898839452066 0.02061103076400283 -0.297990806226548
0.5428173436149505 -0.06129129082614233 -0.297990806226548
0.4203589247985937 -0.10688162667269625 -0.297990806226548
0.7074459765245793 0.04755436616031988 -0.296523427256493
0.6271690593320336 -0.1821581678365164 -0.296523427256493
0.335781458470733 -0.10110241103678744 -0.296523427256493
0.5736435895166437 0.18135675316825547 -0.296523427256493
0.6087026593704188 0.12998720168579275 -0.29573330011877114
0.702716501228787 0.08668823453863223 -0.29573330011877114
0.7940777734105172 -0.016287906567610155 -0.29573330011877114
0.5683948878160626 -0.19166226855025706 -0.29573330011877114
0.5354240111119812 -0.10895853229185112 -0.29573330011877114
0.5506508898089363 -0.0709308419063496 -0.29573330011877114
0.3891601903891173 0.04207991384896096 -0.29573330011877114
0.6290766519931051 0.13675972000912331 -0.2951689235918269
0.27631874759189 -0.04163970015794445 -0.29426592114871614
0.5141808786378007 -0.2051734426053017 -0.29426592114871614
0.7978929587326601 -0.005779215635908815 -0.29426592114871614
0.6646888108432855 0.11917374742954151 -0.29426592114871614
0.6032282070590599 0.13727894641391192 -0.2934757940109942
0.7848671484907875 -0.018601850328081437 -0.2934757940109942
0.6229023727883355 -0.16335314195873488 -0.2934757940109942
0.7342199989628133 -0.10792007948227361 -0.2934757940109942
0.5321506272557048 0.049687709432169117 -0.2934757940109942
0.389092465205884 0.04213635150165549 -0.2934757940109942
0.39993978205375186 0.042339527051355415 -0.2934757940109942
0.637384274469724 -0.17925727248802306 -0.2920084150409393
0.8115170080930935 0.0029573330011877165 -0.2920084150409393
0.6925802988048685 0.10988410979603956 -0.2920084150409393
0.38037849162986515 0.15449243048571068 -0.2920084150409393
0.3655128139101545 0.0065354801820139904 -0.2920084150409393
0.5722326481992832 0.14841973905579076 -0.29121828790321735
0.7641883925435514 -5.643765269437064E-5 -0.29121828790321735
0.6352960813200303 -0.16307095369526287 -0.29121828790321735
0.5839942550208007 0.052419291822579185 -0.29121828790321735
0.5468808546089489 0.017653697762815272 -0.29121828790321735
0.39746781286573624 -0.09337045261765177 -0.29121828790321735
0.36956503737361396 -0.02677402243823378 -0.29065391137627317
0.7223116542442902 0.032688688440609216 -0.2897509089331624
0.7074459765245793 0.017823010720898386 -0.2897509089331624
0.42498681231953644 -0.19030776488559087 -0.2897509089331624
0.6331175879260258 0.14057490533126618 -0.2897509089331624
0.6309729571236375 0.12214236796126816 -0.2889607817954405
0.728474645918521 0.05870644633273766 -0.2889607817954405
0.785589550445276 -0.043389267391471545 -0.2889607817954405
0.7322446811185084 -0.11024531077328383 -0.2889607817954405
0.5414515524197456 -0.10206185113259271 -0.2889607817954405
0.5511814037442638 -0.07135976806682717 -0.2889607817954405
0.39477009306694283 -0.09171118562843569 -0.2889607817954405
0.37657459383826125 -0.027710887472961167 -0.2889607817954405
0.737177331964001 0.017823010720898386 -0.2874934028253855
0.36605461537602096 -6.208141796387186E-4 -0.2874934028253855
0.44039429150511356 -0.23490479804472303 -0.2874934028253855
0.6330047126206367 -0.2051734426053017 -0.2874934028253855
0.8115170080930935 0.017823010720898386 -0.2874934028253855
0.586308198781272 0.1531379268210445 -0.2874934028253855
0.42288733163930387 0.13675972000912331 -0.2874934028253855
0.3209157807510222 0.0029573330011877165 -0.2874934028253855
0.652227377128357 0.11775151858164203 -0.2867032756876636
0.7686921172285662 0.027530286984339118 -0.2867032756876636
0.5878545904650992 -0.17070132433954874 -0.2867032756876636
0.5847730946279838 0.050037622878874595 -0.2867032756876636
0.5467905543646379 0.015576792143660412 -0.2867032756876636
0.38894572730887844 -0.03514937009808605 -0.2867032756876636
0.41813528128243344 0.061392878600992296 -0.2867032756876636
0.6096620994662239 -0.22003912032501238 -0.2861388991607194
0.42288733163930387 -0.23490479804472303 -0.2861388991607194
0.37035516451133593 0.006670930548480608 -0.2861388991607194
0.4053803717734941 0.16649107544854497 -0.2861388991607194
0.5804725454926689 0.15422152975277745 -0.2861388991607194
0.7614116600309857 0.04017232118788953 -0.2861388991607194
0.7979832589769712 -0.0033072464478931993 -0.28523589671760863
0.5764316095597481 0.16649107544854497 -0.28523589671760863
0.37620210533047804 0.14066520557557735 -0.28523589671760863
0.31783428491390675 -0.1457107317264587 -0.28523589671760863
0.5104334184988912 -0.2338550577046069 -0.28523589671760863
0.677714621085158 -0.154650455913255 -0.28523589671760863
0.6498344206541136 0.1094100335134064 -0.2844457695798867
0.6948152298515677 0.09312212694579625 -0.2844457695798867
0.7966174677817661 -0.02166077110411912 -0.2844457695798867
0.6456467468241873 -0.14321618747736523 -0.2844457695798867
0.5409436135454958 0.0672962570728288 -0.2844457695798867
0.5513394291718082 0.01601700583467692 -0.2844457695798867
0.38877641435079513 -0.046719088900442456 -0.2844457695798867
0.6972081863258114 -0.08640604627516005 -0.28388139305294247
0.5571299323382559 -0.22623597459085998 -0.28388139305294247
0.3586838579341294 -0.1807810891107725 -0.28388139305294247
0.335781458470733 0.12189404228941249 -0.28388139305294247
0.5279516658952399 0.17800435659820685 -0.28388139305294247
0.6972081863258114 0.03285800139869249 -0.28388139305294247
0.738057759346034 0.04755436616031988 -0.28297839060983176
0.7074459765245793 -0.08623673331707678 -0.28297839060983176
0.6696101741582389 -0.16415455662699582 -0.28297839060983176
0.3121115069306925 -0.13084505400674787 -0.28297839060983176
0.5141808786378007 0.18439309888321545 -0.28297839060983176
0.6233087238877353 0.11573105061518169 -0.28218826347210985
0.7823274541195386 -0.020633605825080704 -0.28218826347210985
0.6713936039833828 -0.13966061535761665 -0.28218826347210985
0.5734291264364051 0.06121227811237009 -0.28218826347210985
0.5441266971574611 -0.11415079633973788 -0.28218826347210985
0.3850176666813467 0.0018172924167604027 -0.28218826347210985
0.4196139477830273 -0.10463540809545828 -0.28218826347210985
0.7520430096837115 -0.07454285167879253 -0.2816238869451656
0.7110241237054058 0.09042440714700282 -0.2807208845020549
0.7343780243903575 -0.08364060129313332 -0.2807208845020549
0.6855368797486047 -0.16057640944616938 -0.2807208845020549
0.6885055002803314 -0.07783881059614679 -0.279930757364333
0.6734366470109207 0.07237564581532681 -0.279930757364333
0.6774662954133024 0.07404620033508165 -0.279930757364333
0.61132136645544 -0.1816728040233443 -0.279930757364333
0.39364134001305445 0.1351343156115239 -0.279930757364333
0.7630144893675073 -0.05237414170042359 -0.279930757364333
0.7669086874034223 0.04435999501781575 -0.27936638083738874
0.7030438396144146 -0.13889306328097253 -0.27936638083738874
0.738057759346034 -0.08563849419851594 -0.27846337839427804
0.7607456957291916 0.05140341407407955 -0.27846337839427804
0.6219993703452246 0.1247497875157504 -0.2776732512565561
0.6723869066708045 0.07395590009077062 -0.2776732512565561
0.6945781917102513 0.0716306687997604 -0.2776732512565561
0.32335388734742126 -0.10957934647148967 -0.2776732512565561
0.5789825914615361 -0.20080516828675343 -0.2776732512565561
0.4377642968895535 0.15591465933361015 -0.2776732512565561
0.6682669580241116 0.06466626245726868 -0.2776732512565561
0.7806794746608613 -0.028625177446610837 -0.2776732512565561
0.7614116600309857 0.05066972458905209 -0.2771088747296119
0.7631950898561293 -0.10110241103678744 -0.2771088747296119
0.7520430096837115 0.06242004388003071 -0.2762058722865011
0.7223116542442902 -0.13370079923308564 -0.2762058722865011
0.32768829907435293 -0.12505455084030012 -0.2754157451487792
0.6437843042852716 -0.16415455662699582 -0.2754157451487792
0.6589547453295321 -0.16140039917550802 -0.2754157451487792
0.4467717462595832 0.16088117277071926 -0.2754157451487792
0.3515162760419379 -0.15045149455279 -0.2754157451487792
0.4864587036343008 -0.21834599074417965 -0.2754157451487792
0.6393483047834899 -0.15892842998749224 -0.2754157451487792
0.7769433020524907 -0.015565504613121634 -0.2754157451487792
0.7296485490945651 0.03308375200947013 -0.27394836617872426
0.7771803401938071 -0.07623598125962525 -0.27394836617872426
0.7444352141005037 0.027507711923261242 -0.27315823904100234
0.7590864287399757 -0.07797426096261341 -0.27315823904100234
0.49791554713126845 -0.22296259073458344 -0.27315823904100234
0.7456091172765474 0.05072616224174646 -0.27315823904100234
0.7366581055592121 0.06069305170758133 -0.27315823904100234
0.5772104491669312 0.03461885616275836 -0.27315823904100234
0.32560010592465927 -0.1104597738535227 -0.27315823904100234
0.3737865737951568 -0.04584994904894838 -0.27315823904100234
0.4025810641998509 -0.08096545655541777 -0.27315823904100234
0.5311686120988219 -0.11558431271817614 -0.27315823904100234
0.4211490519363157 0.14822785103662975 -0.27315823904100234
0.5463616282041603 -0.11641958997805356 -0.27315823904100234
0.5975280041369231 0.03523967034239708 -0.27315823904100234
0.5804273953705132 0.14673789700549728 -0.27315823904100234
0.6621378289414976 0.09851756654338292 -0.27315823904100234
0.7258898014251166 -0.12701858115406608 -0.27169086007094734
0.6664045154851957 0.08043494262009024 -0.2709007329332255
0.6338174148194365 0.1168372286079925 -0.2709007329332255
0.7501692796142567 -0.07673263260333613 -0.2709007329332255
0.7865602780716202 -0.013499886524505712 -0.2709007329332255
0.49791554713126845 -0.22711640197289285 -0.2709007329332255
0.600282161588411 -0.20407855214302983 -0.2709007329332255
0.6558506744313388 0.09238843746076879 -0.2709007329332255
0.7540409025890943 -0.10110241103678744 -0.2694333539631705
0.6821280455258617 -0.12670253029897727 -0.26864322682544856
0.671653217185777 0.10193768829666502 -0.26864322682544856
0.7388704615448337 -0.0885168144859314 -0.26864322682544856
0.7429226850082931 -0.09386710396136265 -0.26864322682544856
0.7951613763422501 -0.03285800139869249 -0.26864322682544856
0.6606817375019813 -0.12386936013371738 -0.26864322682544856
0.49169611780434314 -0.21791706458370208 -0.26864322682544856
0.8030174975973137 -0.03424636765497532 -0.2671758478553936
0.7499322414729404 0.02843328942744985 -0.2663857207176717
0.643140915044555 -0.15580178402822126 -0.2663857207176717
0.7808262125578669 -0.038671079626217957 -0.2663857207176717
0.7510045568741344 -0.08308751229672807 -0.2663857207176717
0.7539054522226277 -0.087771837470365 -0.2663857207176717
0.672917420606132 -0.13189479434686416 -0.2663857207176717
0.733463734416708 -0.11955752346786348 -0.2649183417476167
0.7439047001651762 0.06456467468241872 -0.2649183417476167
0.6814395061629896 -0.1228873449768344 -0.2641282146098948
0.6859658059090824 0.023613513887346137 -0.2641282146098948
0.6586048318828266 0.09716306287871691 -0.2641282146098948
0.30124161502174673 0.02592745764781742 -0.2641282146098948
0.3944991923340096 0.13282037185105278 -0.2641282146098948
0.7497403534537793 0.06458724974349643 -0.2635638380829506
0.8024531210703693 -0.006095266490997643 -0.26266083563983983
0.6612686890900035 0.07680035778656943 -0.2618707085021179
0.6922190978276245 -0.02677402243823378 -0.2618707085021179
0.3985062656753136 0.1454172559324476 -0.2618707085021179
0.7401572400262663 -0.0812476448188898 -0.2618707085021179
0.7280457197580436 0.07336894850274855 -0.2618707085021179
0.7439047001651762 -0.10705093963077954 -0.2613063319751737
0.8115170080930935 0.017823010720898386 -0.26040332953206297
0.6835276993126833 -0.1316803312666253 -0.25961320239434105
0.5948754344602853 0.141173144449827 -0.25961320239434105
0.7931634834368674 -0.012969372589178178 -0.25961320239434105
0.7182142806586751 -0.12408382321395608 -0.25961320239434105
0.6325757864601593 -0.16143426176712466 -0.25961320239434105
0.7704868345842488 0.04755436616031988 -0.2590488258673968
0.5503122638927698 0.16879373167847717 -0.2573556962865642
0.7374482326969343 -0.09025509418891955 -0.2573556962865642
0.7376626957771731 0.048434793542352896 -0.2573556962865642
0.7594250546561422 0.011400405844273296 -0.2573556962865642
0.8066972325529899 -0.02677402243823378 -0.25679131975961994
0.49791554713126845 0.1709157874197876 -0.2550981901787873
0.6160056916290769 -0.173207156119181 -0.2550981901787873
0.7404507158202774 0.045048534380687615 -0.2550981901787873
0.7797200345650563 -0.008533373087396604 -0.2550981901787873
0.68932949000967 -0.1416585082629991 -0.2550981901787873
0.4015200363291957 -0.1937278866388728 -0.2528406840710104
0.39584240846813684 -0.18502520059339295 -0.2528406840710104
0.7542553656693332 0.03149221020348753 -0.2528406840710104
0.717548316356881 -0.11768379339840872 -0.2528406840710104
0.7643125553794791 0.03369327865856991 -0.2528406840710104
0.3618669415460948 -0.16282262802340736 -0.25058317796323354
0.3343027919701391 0.06768003311115077 -0.25058317796323354
0.7613665099088303 0.023624801417885075 -0.25058317796323354
0.787542293228503 -0.039291893805856515 -0.25058317796323354
0.7789186198967952 0.0322936248717483 -0.2500188014362893
0.44704264699251645 0.1630709536952627 -0.24832567185545668
0.31071185314387073 -0.0369327999232298 -0.24832567185545668
0.7613213597866745 0.030058693825049103 -0.24832567185545668
0.7712092365387373 0.021751071348430302 -0.24832567185545668
0.7242982596191337 -0.09071788294101395 -0.24832567185545668
0.5937353938758579 -0.19273458395145104 -0.24606816574767978
0.6309616695930989 0.10627210002359663 -0.24606816574767978
0.745462379379542 0.04513883462499864 -0.24606816574767978
0.732391419015514 0.06236360622733634 -0.24606816574767978
0.8022612330512083 -0.05650537787765528 -0.24550378922073557
0.6946797794851011 -8.578523209551395E-4 -0.24381065963990292
0.7796635969123616 -0.04335540479985489 -0.24381065963990292
0.7800247978896061 0.0053841520670479 -0.24381065963990292
0.7798780599926005 -0.034810744181919505 -0.24381065963990292
0.8115170080930935 0.0029573330011877165 -0.24191435450937032
0.5978101924003953 0.14625253319232517 -0.241553153532126
0.7537812893867 -0.0735269739302929 -0.241553153532126
0.7385092605675894 -0.08464519151109401 -0.241553153532126
0.7754533480213579 -0.033648128536414315 -0.241553153532126
0.32521632988633714 0.07292873481173205 -0.23929564742434914
0.7786025690417065 0.002189780924543602 -0.23929564742434914
0.7984347601985265 -0.012495296306545016 -0.23929564742434914
0.3634923459436942 0.10764917874934053 -0.23703814131657228
0.39773871359866947 0.12958085058639288 -0.23703814131657228
0.7805553118249337 -0.04805101750403092 -0.23703814131657228
0.8030626477194691 -0.00971856379397951 -0.23703814131657228
0.6855255922180657 -0.07704868345842479 -0.2347806352087954
0.7674843514609057 0.01816163663706493 -0.2347806352087954
0.7785122687973958 -0.05615546443094979 -0.2347806352087954
0.6317856593224372 -0.1606441346294027 -0.23252312910101852
0.3542027083101924 0.08860711473024242 -0.23252312910101852
0.7877567563087419 -0.007224019544886018 -0.23252312910101852
0.3089848609714215 -0.02677402243823378 -0.23026562299324163
0.5906313229776649 -0.18737300694548087 -0.23026562299324163
0.7828241054632493 -0.021299570126874855 -0.23026562299324163
0.49791554713126845 -0.21983594477531243 -0.22800811688546474
0.5174994126162329 -0.20924824112983886 -0.22800811688546474
0.6341447532050641 0.10946647116610078 -0.22575061077768788
0.5582473978616056 0.14641055861986935 -0.22575061077768788
0.6869139584743488 -0.0018850175999937117 -0.223493104669911
0.3250357293977151 -0.0868123973745599 -0.223493104669911
0.49791554713126845 0.16511399672280092 -0.22123559856213412
0.545503775883205 -0.20439460299811865 -0.22123559856213412
0.6904808181246362 -0.0014222288478994876 -0.21897809245435723
0.591206987035148 -0.18835502210236385 -0.21672058634658034
0.4473135477254497 -0.21562569588430852 -0.21672058634658034
0.5461020150017658 0.15307020163781118 -0.21446308023880348
0.6733802093582263 -0.07651816952309727 -0.21446308023880348
0.49791554713126845 0.16353374244735724 -0.21220557413102661
0.6107908525201124 -0.16799231701021639 -0.21220557413102661
0.6353186563811082 -0.16417713168807352 -0.20994806802324975
0.4500338425853208 0.15191887352284494 -0.20769056191547283
0.6262660568889227 -0.15512453219588818 -0.20769056191547283
0.49791554713126845 -0.21589659661724175 -0.20543305580769597
0.6743283619234925 -0.06248776906326402 -0.20543305580769597
0.40135072337111244 0.14047331755641637 -0.20317554969991908
0.6570923027906163 0.06512905120936291 -0.20091804359214221
0.42612685290396374 -0.19054480302690746 -0.20091804359214221
0.49791554713126845 -0.21470011838012007 -0.19866053748436535
0.5877530026902492 0.12909548677322077 -0.19866053748436535
0.40194896248967327 -0.19299419715384536 -0.19640303137658843
0.31530587807319665 -0.02677402243823378 -0.19414552526881157
0.3215591699917386 -0.04778011677109768 -0.19414552526881157
0.36275865645866673 0.10838286823436799 -0.1918880191610347
0.3404657836443701 0.06413574852194115 -0.18963051305325782
0.3595191351940068 -0.13683873272289557 -0.18963051305325782
0.5460342898185325 -0.20635863331188445 -0.18737300694548095
0.3360523592036662 -0.07579576756860874 -0.18737300694548095
0.36361650877962187 -0.16107306078988026 -0.18511550083770403
0.3702197141448693 -0.15446985542463296 -0.18285799472992717
0.6707840773342829 0.005395439597586677 -0.18285799472992717
0.6794641883186852 -0.002855745226337753 -0.1806004886221503
0.5877981528124049 -0.18245164363052735 -0.17834298251437344
0.40356307935673374 -0.1901836020496632 -0.17834298251437344
0.49791554713126845 0.15709985004019292 -0.17608547640659655
0.3252953426001094 -0.002031755496999268 -0.17608547640659655
0.3164459186576241 0.021852659123280264 -0.17382797029881966
0.652532140452907 0.062499056593802955 -0.17157046419104277
0.6852885540767494 -0.02743998674002793 -0.17157046419104277
0.3436488672563355 -0.11583263839003166 -0.1693129580832659
0.6457934847211929 -0.11847392053613054 -0.1693129580832659
0.49791554713126845 -0.20901120298852227 -0.167055451975489
0.605079362067437 -0.16228082655754086 -0.167055451975489
0.3662239283341042 -0.15845435370485908 -0.16479794586771215
0.49791554713126845 0.1501241561671624 -0.16254043975993526
0.6449243448696989 0.0640567358081689 -0.16254043975993526
0.4074121272704934 -0.1835352465622603 -0.16028293365215843
0.6282639497943054 0.0851079802631884 -0.16028293365215843
0.36710435571613725 -0.157585213853365 -0.1580254275443815
0.3222589968851494 -0.02677402243823378 -0.1557679214366046
0.6664270905462736 0.0010497403401162884 -0.1557679214366046
0.6715516294109269 -0.07328993578897632 -0.15351041532882778
0.46843251736370234 0.1411054192665937 -0.15351041532882778
0.33879522912461507 0.06509518861774626 -0.15125290922105086
0.3294604413689577 -0.07191285706323242 -0.14899540311327403
0.6653096250229239 -7.901271377224722E-5 -0.14899540311327403
0.31942582671988956 -0.02677402243823378 -0.1467378970054971
0.40915040697348154 0.11816915721158082 -0.1467378970054971
0.3216607577665886 0.020453005336458496 -0.14448039089772022
0.3479832789832671 -0.11333809414093816 -0.14222288478994338
0.4723380029301564 -0.19305063480653972 -0.14222288478994338
0.32672885897854764 -0.07264654654825987 -0.13996537868216646
0.617563370843443 0.09287380127394072 -0.13996537868216646
0.6548347966828392 0.06383098519739126 -0.13770787257438963
0.4534313892775251 -0.1927684465430677 -0.13545036646661274
0.473455468453506 0.1383738368761838 -0.13545036646661274
0.6678718944552506 0.01877116328616471 -0.13319286035883582
0.6006433625656553 -0.15783353952522053 -0.13319286035883582
0.34209118804196936 -0.11674692836368132 -0.13093535425105898
0.5420610790688454 -0.19154939324486814 -0.12867784814328206
0.5449281118257219 0.13307998505344706 -0.12867784814328206
0.5852584584411559 -0.17804950672036243 -0.12642034203550526
0.6676461438444732 -0.02677402243823378 -0.12416283592772834
0.6242455889224627 -0.15310406422942785 -0.12416283592772834
0.6658175638971738 -0.07176611916622702 -0.12190532981995142
0.33903226726593166 -0.07281585950634314 -0.12190532981995142
0.4090149566070149 0.12719918164268815 -0.11964782371217458
0.3294943039605744 -0.02677402243823378 -0.11739031760439768
0.3378809391509654 0.010553841053856934 -0.11739031760439768
0.5437090585275224 0.1441191899204758 -0.11513281149662084
0.35281434205390955 -0.11055007409783371 -0.11287530538884394
0.6592595086540818 -0.04741891579385327 -0.11287530538884394
0.3734366603484513 0.09770486434458338 -0.11061779928106703
0.49791554713126845 -0.19343441084486185 -0.1083602931732902
0.47803820585229295 -0.18733914435386423 -0.1083602931732902
0.32872675188393025 0.018556700205926004 -0.10610278706551328
0.5808111714088354 -0.17035141089284325 -0.10384528095773646
0.41492962260939037 0.11238994157567184 -0.10384528095773646
0.3746782887077286 -0.15001128086177368 -0.10158777484995954
0.5803709577178189 0.11603581393973142 -0.09933026874218263
0.3837647507915306 0.08737677390150408 -0.09933026874218263
0.6174166329464374 -0.1462751082534029 -0.0970727626344058
