0.4825886264136555 0.5111791579353211 -0.13761748691977035
0.6435412524198217 0.4121743456063731 -0.13761748691977035
0.3432658793298794 0.5284810666169009 -0.13761748691977035
0.12896154643814992 0.3144958467383188 -0.13761748691977035
0.4463593271397769 0.2736992424637694 -0.13761748691977035
0.356578875347118 0.5296777404162033 -0.13761748691977035
0.3560702889824145 0.5343447682334823 -0.13761748691977035
0.5286306508418136 0.5219891112556855 -0.13761748691977035
0.5338561264321005 0.5076888593540224 -0.13761748691977035
0.49294982705928175 0.2945413111349521 -0.13761748691977035
0.3171484736601056 0.36191404603567445 -0.13761748691977035
0.34649689858799576 0.3520913485997343 -0.13761748691977035
0.3543650288184087 0.349129580946461 -0.13761748691977035
0.3619040737540135 0.5459724486500368 -0.13711887283672772
0.47022299715419796 0.36447692242251367 -0.13632109030385947
0.36891458776159314 0.5599037261302483 -0.13632109030385947
0.5527934893060602 0.24626549561476296 -0.13632109030385947
0.13284076400422182 0.492740409144404 -0.13562303058759975
0.1374778749765183 0.42079039696135007 -0.13562303058759975
0.48562020003855483 0.33399165738528624 -0.13562303058759975
0.47979638754861687 0.47194820188152553 -0.13562303058759975
0.2924670765494945 0.28403052626441305 -0.13562303058759975
0.3042642857542836 0.2817867628907212 -0.13562303058759975
0.5555059499178121 0.505215733502131 -0.13562303058759975
0.6560464936225315 0.4085544073634835 -0.13562303058759975
0.49419636226688834 0.3267019194912027 -0.13562303058759975
0.49266063089111706 0.47469057933826014 -0.13562303058759975
0.3199606570884661 0.3635295556647325 -0.13562303058759975
0.3526697409360637 0.3427772375284977 -0.13562303058759975
0.38630624697812066 0.3300127170026059 -0.13562303058759975
0.3706397924889206 0.26004718887006173 -0.13512441650455712
0.4575282825999322 0.46069946816808344 -0.1343266339716889
0.6447279539374633 0.45641138705391676 -0.1343266339716889
0.15544792652937536 0.4036580170680047 -0.13362857425542918
0.12670781078279716 0.3039352004594754 -0.13362857425542918
0.1494246684062202 0.41798818581465047 -0.13362857425542918
0.34854121632847057 0.46482799277567655 -0.13362857425542918
0.3593810864938177 0.34234842941708093 -0.13362857425542918
0.3872835305808842 0.45907398625736445 -0.13362857425542918
0.48712601456934373 0.2780770741128839 -0.13362857425542918
0.2946310616698996 0.5243824588542904 -0.13362857425542918
0.24352311815802835 0.2897047545294384 -0.13362857425542918
0.470691694392258 0.2803108652049149 -0.13362857425542918
0.5164345503705904 0.5247015718674376 -0.13362857425542918
0.48245898675206456 0.32733017323583646 -0.13362857425542918
0.4841642469160703 0.5384433759960929 -0.13362857425542918
0.49613098490909385 0.32890579373825124 -0.13362857425542918
0.49859413847932454 0.5173320557200672 -0.13362857425542918
0.38769239412897916 0.24626549561476296 -0.13312996017238654
0.5133930044640304 0.5483558239669807 -0.1323321776395183
0.3557810928142498 0.4794074685638436 -0.1323321776395183
0.3928480637476401 0.24626549561476296 -0.1323321776395183
0.2424760285836389 0.36648135103634505 -0.13163411792325858
0.32374015183792937 0.451235772871934 -0.13163411792325858
0.23972367884524337 0.4532601460490872 -0.13163411792325858
0.3449711394938852 0.41519594694961165 -0.13163411792325858
0.4920922108364484 0.5291392372065172 -0.13163411792325858
0.47099086284208364 0.5331181775891976 -0.13163411792325858
0.3843317352092717 0.272851598522597 -0.13163411792325858
0.566834461884541 0.3071063860276268 -0.13163411792325858
0.4721376752330818 0.4787492979742273 -0.13163411792325858
0.6524863890696071 0.4201820877800381 -0.13163411792325858
0.50006006388347 0.3241789322310069 -0.13163411792325858
0.5438184358112925 0.5059437100633732 -0.13163411792325858
0.38769239412897916 0.24626549561476296 -0.13113550384021597
0.6972719060084974 0.4038774072645435 -0.13033772130734772
0.4602906046199885 0.48801354763715965 -0.13033772130734772
0.4529410330359398 0.2987994754041362 -0.13033772130734772
0.15226676867956324 0.3921599763130414 -0.129639661591088
0.37644366041553706 0.4670717561493686 -0.129639661591088
0.3748082062231572 0.3409822268295441 -0.129639661591088
0.371088545163659 0.4740623255936264 -0.129639661591088
0.49044678436240774 0.28194631939729475 -0.129639661591088
0.3496481395928253 0.5316622244667129 -0.129639661591088
0.3763638821622503 0.2697203020810891 -0.129639661591088
0.4185865227143015 0.2741579674201687 -0.129639661591088
0.384521208560828 0.5423824272521299 -0.129639661591088
0.2905523984706108 0.27545436403607954 -0.129639661591088
0.40868404702507466 0.5293785719663777 -0.129639661591088
0.49977086771530527 0.28389091432116115 -0.129639661591088
0.5019847142440146 0.5120567187214761 -0.129639661591088
0.408315072603623 0.5614893189143241 -0.12834326497517712
0.46084905239299623 0.36447692242251367 -0.12834326497517712
0.7235388959031842 0.43014439715923014 -0.12834326497517712
0.12985905178762672 0.40828515575864044 -0.12764520525891743
0.31984098970853586 0.3633201377498547 -0.12764520525891743
0.32606369346490804 0.4476656960373488 -0.12764520525891743
0.23839736538434997 0.4525122249245232 -0.12764520525891743
0.3448115829873116 0.3689544768882366 -0.12764520525891743
0.6549794594848203 0.4044458273192122 -0.12764520525891743
0.3753367371511824 0.5344145742051084 -0.12764520525891743
0.4829177117084637 0.27552417000770557 -0.12764520525891743
0.6119690086815615 0.46767009304901974 -0.12764520525891743
0.4896689463928612 0.322613284010253 -0.12764520525891743
0.48318696331330674 0.5409962801012713 -0.12764520525891743
0.4882229655520376 0.4602407432116843 -0.12764520525891743
0.6490758687415952 0.40907296600984794 -0.12764520525891743
0.418626411840945 0.24626549561476296 -0.1271465911758748
0.6053274690954334 0.52461182133249 -0.12634880864300654
0.3336326552454954 0.46954488200126 -0.12634880864300654
0.4289377510782668 0.24626549561476296 -0.12634880864300654
0.15681412911691223 0.4035882110963788 -0.12565074892674682
0.374758344814853 0.4668723105161514 -0.12565074892674682
0.3537766642004184 0.34859107773677495 -0.12565074892674682
0.2444006789441835 0.4595626280587463 -0.12565074892674682
0.49355813624059386 0.28119839827273074 -0.12565074892674682
0.35085478567378847 0.27455685868660273 -0.12565074892674682
0.40859429649012696 0.5392411585289613 -0.12565074892674682
0.4870063471894135 0.2811684814277482 -0.12565074892674682
0.4355294292560906 0.5438284080929534 -0.12565074892674682
0.32251356119364444 0.27064772427554845 -0.12565074892674682
0.4562717751106647 0.5290594589532303 -0.12565074892674682
0.508187473437065 0.518229561069544 -0.12565074892674682
0.5725286347128883 0.4920423494281442 -0.12565074892674682
0.6972719060084974 0.3907439123172003 -0.12435435231083597
0.4688867114116437 0.43014439715923014 -0.12435435231083597
0.6315944589901199 0.5114783263851467 -0.12435435231083597
0.13946235902702817 0.4192845824305613 -0.12365629259457626
0.3482021587520015 0.45955265577708543 -0.12365629259457626
0.3476736278239763 0.3489799967215482 -0.12365629259457626
0.2502344637157824 0.3524304061762032 -0.12365629259457626
0.491444012528493 0.5300965762459591 -0.12365629259457626
0.5623170182921748 0.5031414989166735 -0.12365629259457626
0.4821897351472215 0.5339359046853874 -0.12365629259457626
0.4727160675694112 0.3349589687063889 -0.12365629259457626
0.5499513890327171 0.5145298445733676 -0.12365629259457626
0.43991723318686593 0.27640173079386054 -0.12365629259457626
0.3338719900053559 0.5234849535048135 -0.12365629259457626
0.5029619978467781 0.4833864089465239 -0.12365629259457626
0.5029719701284391 0.29371361175710126 -0.12365629259457626
0.6972719060084974 0.41701090221188675 -0.12235989597866537
0.46084905239299623 0.44327789210657337 -0.12235989597866537
0.45087677073214333 0.5599037261302483 -0.12235989597866537
0.13450613504158426 0.4147471942748733 -0.12166183626240566
0.2477912547088735 0.36301099701836825 -0.12166183626240566
0.326412723323038 0.44717705423596693 -0.12166183626240566
0.23651260415044884 0.44769561288233134 -0.12166183626240566
0.35552181349106765 0.3795949014203666 -0.12166183626240566
0.6370293524952849 0.3689345323249148 -0.12166183626240566
0.4208203138063326 0.2667485621461549 -0.12166183626240566
0.39053449440232224 0.5381142907012849 -0.12166183626240566
0.5010872088945377 0.2730610164374749 -0.12166183626240566
0.49775646681981284 0.48513155823717313 -0.12166183626240566
0.662169474562295 0.39151177800508596 -0.12166183626240566
0.5919945285148732 0.3326753162060536 -0.12166183626240566
0.5046572857291232 0.4828578780184987 -0.12166183626240566
0.42378208145960594 0.5597441696236747 -0.12116322217936303
0.6972719060084974 0.42856877665681536 -0.12036543964649479
0.46084905239299623 0.43014439715923014 -0.12036543964649479
0.5527934893060602 0.5508887835088373 -0.12036543964649479
0.13981138888515798 0.4192945547122222 -0.11966737993023509
0.24220677697879586 0.36707968793599627 -0.11966737993023509
0.34765368326065466 0.44798480905049604 -0.11966737993023509
0.2388261734957667 0.3533478560890018 -0.11966737993023509
0.3741899247601843 0.47581744716593655 -0.11966737993023509
0.5031115820716909 0.5150882923463753 -0.11966737993023509
0.42739204742083464 0.5438483526562752 -0.11966737993023509
0.4323083822796352 0.2663097817530774 -0.11966737993023509
0.6077307889756991 0.3306409707472397 -0.11966737993023509
0.4801653619700683 0.4647083253957463 -0.11966737993023509
0.6674148947159038 0.3988114881808303 -0.11966737993023509
0.48845232803023714 0.3443029966226081 -0.11966737993023509
0.510770294387226 0.2827141850851804 -0.11966737993023509
0.44599035271832543 0.5614893189143241 -0.11916876584719244
0.47163906115003906 0.41701090221188675 -0.11837098331432419
0.5527934893060602 0.5614893189143241 -0.11837098331432419
0.6315944589901199 0.31446592989333627 -0.11837098331432419
0.15323408000066607 0.39799376108464024 -0.1176729235980645
0.3475739050073679 0.3478032674855675 -0.1176729235980645
0.37771014018646537 0.46778976042895 -0.1176729235980645
0.2363331030805535 0.4579172015847055 -0.1176729235980645
0.6460742119616786 0.43042362104573406 -0.1176729235980645
0.521081633624548 0.28232526610040726 -0.1176729235980645
0.3790863150556631 0.5382140135178933 -0.1176729235980645
0.4983946928461075 0.3277490090655923 -0.1176729235980645
0.5214705526093211 0.5295082116279688 -0.1176729235980645
0.4101499724292199 0.25593860882579045 -0.1176729235980645
0.3613356536993449 0.5421430924922694 -0.1176729235980645
0.6122781494130479 0.4647482145223898 -0.1176729235980645
0.5072201621159624 0.48630828747315386 -0.1176729235980645
0.6053274690954334 0.28314299319659714 -0.11637652698215362
0.684138411061154 0.43014439715923014 -0.11637652698215362
0.48522130877212083 0.5089553391249508 -0.11637652698215362
0.1390534954789331 0.3915516671317293 -0.11567846726589391
0.35610020582739704 0.3421689283471856 -0.11567846726589391
0.34688581757276904 0.349668084156147 -0.11567846726589391
0.3542154445934959 0.3478032674855675 -0.11567846726589391
0.5845751509591987 0.31501440538468306 -0.11567846726589391
0.5023736332287878 0.28128814880767844 -0.11567846726589391
0.469345436368043 0.5390317406140832 -0.11567846726589391
0.4705819992939887 0.2689225195482209 -0.11567846726589391
0.5926526991044895 0.49174318097831876 -0.11567846726589391
0.4479449199238526 0.274477080433316 -0.11567846726589391
0.4407050434380734 0.5549574744264654 -0.11567846726589391
0.5255392435269491 0.5211015781878696 -0.11567846726589391
0.5102317911775399 0.2838410529128568 -0.11567846726589391
0.47398254734033946 0.5540799136403104 -0.11438207064998304
0.5133930044640304 0.24626549561476296 -0.11438207064998304
0.4866373727679619 0.49739746468002227 -0.11438207064998304
0.14607398176817363 0.3946929358548979 -0.11368401093372334
0.37217552386469205 0.3410819496461527 -0.11368401093372334
0.24037187715319894 0.3591816408606007 -0.11368401093372334
0.37107857288199825 0.47448116142338226 -0.11368401093372334
0.6467922162412598 0.3747384002515313 -0.11368401093372334
0.5258783011034182 0.2826742959585371 -0.11368401093372334
0.4146075823316212 0.2639463509994553 -0.11368401093372334
0.4484435340068952 0.25619788814897254 -0.11368401093372334
0.4990428911540629 0.5262373032432089 -0.11368401093372334
0.6333595528440911 0.34627750839145705 -0.11368401093372334
0.47735317854170783 0.34475174929734653 -0.11368401093372334
0.5128146121277009 0.4848124452240259 -0.11368401093372334
0.4701930803092154 0.5546682782583007 -0.11318539685068067
0.6578714211664676 0.48521133649046005 -0.11238761431781244
0.4880434644821422 0.31035734984906477 -0.11238761431781244
0.31637063569055907 0.46954488200126 -0.11238761431781244
0.37211569017472695 0.3410420605195092 -0.11168955460155273
0.23931481529714843 0.44394603497785057 -0.11168955460155273
0.35700768345853473 0.461616918080882 -0.11168955460155273
0.5925130871612374 0.3187739555708246 -0.11168955460155273
0.5080079723671698 0.28649367983464374 -0.11168955460155273
0.4737033234538357 0.4731747925258105 -0.11168955460155273
0.47763240242821164 0.27344993542224816 -0.11168955460155273
0.4289876124865711 0.5390217683324223 -0.11168955460155273
0.5895513195079641 0.3069368572393922 -0.11168955460155273
0.47805123825796747 0.4622750886704982 -0.11168955460155273
0.4894695007596442 0.3973954241849891 -0.11168955460155273
0.6210537572745984 0.4601908818033801 -0.11168955460155273
0.48944955619632236 0.5089553391249508 -0.11039315798564187
0.6578714211664676 0.31193297035147954 -0.11039315798564187
0.684138411061154 0.43014439715923014 -0.11039315798564187
0.5279325911255539 0.2820759590588859 -0.10969509826938216
0.4231438554333113 0.5444865786825698 -0.10969509826938216
0.49633043054231085 0.27256240235443213 -0.10969509826938216
0.5889729271716347 0.4974672706516483 -0.10969509826938216
0.40129458631438264 0.2727219588610058 -0.10969509826938216
0.4826384878219599 0.5298771860494201 -0.10969509826938216
0.5131536697041699 0.527992424815519 -0.10969509826938216
0.32454790665245836 0.3648957582522694 -0.10969509826938216
0.3350586915229974 0.3546043635782692 -0.10969509826938216
0.3748181785048181 0.47193822959986476 -0.10969509826938216
0.35582098194089323 0.35153290082672656 -0.10969509826938216
0.5927025605127937 0.5089553391249508 -0.10839870165347126
0.4724268714012465 0.36447692242251367 -0.10839870165347126
0.6315944589901199 0.5114783263851467 -0.10839870165347126
0.5398893568369164 0.28631417876474835 -0.10770064193721159
0.49614095719075474 0.5357807767926452 -0.10770064193721159
0.5076190533823964 0.321596111280846 -0.10770064193721159
0.4294064483163269 0.5503801971441339 -0.10770064193721159
0.5964521384172745 0.30993851401930894 -0.10770064193721159
0.47772215296315934 0.34452238681914693 -0.10770064193721159
0.5104910705007221 0.2783064365910835 -0.10770064193721159
0.3203096869465959 0.35900213979070533 -0.10770064193721159
0.3171484736601056 0.45348950852728676 -0.10770064193721159
0.37231513580794395 0.3368237853769684 -0.10770064193721159
0.31637063569055907 0.4826783769486034 -0.10640424532130069
0.6578714211664676 0.48521133649046005 -0.10640424532130069
0.31637063569055907 0.33820993252782705 -0.10640424532130069
0.6334493033790386 0.3525301289928118 -0.10570618560504098
0.4357986808609337 0.26382668361952505 -0.10570618560504098
0.4770739546552039 0.47284570723100233 -0.10570618560504098
0.6454260136537229 0.4474662504041316 -0.10570618560504098
0.41993278073851675 0.25519068770122644 -0.10570618560504098
0.505076121558879 0.5180899491262921 -0.10570618560504098
0.515716546091009 0.32577449729674346 -0.10570618560504098
0.32454790665245836 0.3648957582522694 -0.10570618560504098
0.3241490153860243 0.35679826554365685 -0.10570618560504098
0.3713378522051804 0.47084127861717096 -0.10570618560504098
0.34423319065098207 0.4144679703883693 -0.10570618560504098
0.4345820624983096 0.46954488200126 -0.10440978898913011
0.3330442906275051 0.33997502638179794 -0.10440978898913011
0.5073398294958926 0.5315525293684435 -0.10371172927287041
0.4433875872048427 0.5477874039123122 -0.10371172927287041
0.5104412090924179 0.321596111280846 -0.10371172927287041
0.462554312557002 0.5388123504175445 -0.10371172927287041
0.6321828236081105 0.33858887923093944 -0.10371172927287041
0.49870383357759385 0.32592408152165625 -0.10371172927287041
0.5167536633837377 0.28712193357927746 -0.10371172927287041
0.3471151800509686 0.3422187897554898 -0.10371172927287041
0.3583938306093933 0.34162045285583875 -0.10371172927287041
0.3394764122987552 0.3366343120254123 -0.10371172927287041
0.6578714211664676 0.45641138705391676 -0.10241533265695951
0.49508389533470426 0.31193297035147954 -0.10241533265695951
0.6223601261721702 0.46898643422825226 -0.10171727294069981
0.6684420397269717 0.3965677248071383 -0.10171727294069981
0.48236923621711686 0.5404677491732461 -0.10171727294069981
0.6739567114854234 0.409611469219534 -0.10171727294069981
0.45286125478265304 0.27137570083679063 -0.10171727294069981
0.5079381663955437 0.5180899491262921 -0.10171727294069981
0.5190971495740381 0.28863772039172714 -0.10171727294069981
0.3219650857022975 0.4476557237556879 -0.10171727294069981
0.3224836443486619 0.355701314560963 -0.10171727294069981
0.23599404550408443 0.4545465703833373 -0.10171727294069981
0.5527934893060602 0.5352223290196374 -0.10042087632478894
0.39518157765627976 0.45641138705391676 -0.10042087632478894
0.46084905239299623 0.3513434274751703 -0.10042087632478894
0.5171824714951544 0.5180899491262921 -0.09972281660852923
0.47283573494934145 0.542631734293651 -0.09972281660852923
0.46529669001373664 0.26838401633853476 -0.09972281660852923
0.5095038146162977 0.4798661935202429 -0.09972281660852923
0.6800398032985434 0.40661978472127813 -0.09972281660852923
0.5320112543248426 0.302140189760522 -0.09972281660852923
0.5268156955795383 0.5186085077726564 -0.09972281660852923
0.5376755103082073 0.35158276223503077 -0.09972281660852923
0.34712515233262947 0.3534874680322537 -0.09972281660852923
0.3533678006523233 0.34821213103366255 -0.09972281660852923
0.37261430425776954 0.3323163140662629 -0.09972281660852923
0.5245719322058464 0.5458228644251242 -0.09842641999261834
0.45903409713072096 0.3250764375804837 -0.09842641999261834
0.5592156386956495 0.5156267955560615 -0.09772836027635866
0.6645628221608998 0.4208502306513152 -0.09772836027635866
0.47858974146765354 0.3302620240441272 -0.09772836027635866
0.46964460481786857 0.5392212139656395 -0.09772836027635866
0.6812663939428285 0.40224195307216365 -0.09772836027635866
0.5166240237221467 0.3323960923195497 -0.09772836027635866
0.5256489386252186 0.3340913802018947 -0.09772836027635866
0.2389159240307144 0.4440158409494766 -0.09772836027635866
0.34253790276863705 0.35125367694022264 -0.09772836027635866
0.3471550691776121 0.4735736837922447 -0.09772836027635866
0.7235388959031842 0.41859649499596246 -0.09643196366044776
0.46031054918331016 0.48744512758249103 -0.09643196366044776
0.49931214275890595 0.2987994754041362 -0.09643196366044776
0.4793974962821827 0.4727958458226981 -0.09573390394418806
0.48431383114098314 0.5414550050576704 -0.09573390394418806
0.6697384363428825 0.3860569399365993 -0.09573390394418806
0.5089054777166465 0.2823551829453897 -0.09573390394418806
0.5129243072259702 0.5170727763968851 -0.09573390394418806
0.5220190281006681 0.2825247117336243 -0.09573390394418806
0.5132533925207783 0.46946510374797323 -0.09573390394418806
0.24781119927219517 0.3629910524550466 -0.09573390394418806
0.2395042886487047 0.3633201377498547 -0.09573390394418806
0.3739505900003238 0.4770440378102215 -0.09573390394418806
0.671004916113811 0.3356769729859704 -0.09443750732827719
0.39518157765627976 0.45641138705391676 -0.09443750732827719
0.6053274690954334 0.5058739040917472 -0.09443750732827719
0.5771158842768804 0.5069907996377628 -0.09373944761201748
0.6755921656778031 0.4034087100264835 -0.09373944761201748
0.5072700235242666 0.2757934216125486 -0.09373944761201748
0.5109099063304778 0.47890885448080095 -0.09373944761201748
0.6617905278591828 0.441273463492742 -0.09373944761201748
0.4907559250938941 0.4707714726455449 -0.09373944761201748
0.5165143286238773 0.3348293290447978 -0.09373944761201748
0.580406737224962 0.30645818771967126 -0.09373944761201748
0.3241490153860243 0.35679826554365685 -0.09373944761201748
0.34129136756103046 0.4608191355480137 -0.09373944761201748
0.3315983097866815 0.3649356473789128 -0.09373944761201748
0.46084905239299623 0.346008256786614 -0.09244305099610658
0.6053274690954334 0.5089553391249508 -0.09244305099610658
0.4666529203196126 0.3941145435185685 -0.09244305099610658
0.4867570401478921 0.34175009251742977 -0.09174499127984688
0.5321109771414513 0.49489442198314815 -0.09174499127984688
0.47980635983027764 0.33488916273476294 -0.09174499127984688
0.4747005516199209 0.552414542602948 -0.09174499127984688
0.5751014833813881 0.28987428331767284 -0.09174499127984688
0.47340415500401006 0.3931173153524833 -0.09174499127984688
0.5571613486735136 0.511039545992069 -0.09174499127984688
0.5465408687047053 0.4585155384843567 -0.09174499127984688
0.32331134372651266 0.3623328818654303 -0.09174499127984688
0.3241490153860243 0.35679826554365685 -0.09174499127984688
0.3412813952793697 0.4608590246746571 -0.09174499127984688
0.33981546987522426 0.3602785918432945 -0.09174499127984688
0.6447279539374633 0.30940998309128376 -0.09044859466393601
0.390414827022392 0.4826783769486034 -0.09044859466393601
0.4650374106905545 0.3907439123172003 -0.09044859466393601
0.31984098970853586 0.3633201377498547 -0.0897505349476763
0.23966384515527825 0.45286125478265316 -0.0897505349476763
0.35572125912428465 0.45694989026360283 -0.0897505349476763
0.48346618719981066 0.4702529139991807 -0.0897505349476763
0.48072380974307605 0.4812423683894405 -0.0897505349476763
0.6179324331147517 0.32887587689326864 -0.0897505349476763
0.47061191613897124 0.5484356022202677 -0.0897505349476763
0.6024055905688035 0.496330430542311 -0.0897505349476763
0.6578415043214848 0.44882248071000774 -0.0897505349476763
0.5535414104306241 0.3065977996629233 -0.0897505349476763
0.31637063569055907 0.4826783769486034 -0.08845413833176542
0.6053274690954334 0.5089553391249508 -0.08845413833176542
0.5103813754024528 0.2987994754041362 -0.08845413833176542
0.24655469178292766 0.44855322910516465 -0.08775607861550573
0.37534670943284326 0.4681288180054189 -0.08775607861550573
0.33564705614098767 0.350007141732616 -0.08775607861550573
0.3356171392960051 0.3643273381976009 -0.08775607861550573
0.48177089931746564 0.3836137309296904 -0.08775607861550573
0.4809930613479191 0.543728685276345 -0.08775607861550573
0.6707954981989329 0.4189255802907706 -0.08775607861550573
0.6092166589431659 0.3157922433542296 -0.08775607861550573
0.5893917630013903 0.2971540489300955 -0.08775607861550573
0.5470295105060872 0.5165542177505208 -0.08775607861550573
0.4741520761285741 0.3731029460591514 -0.08725746453246307
0.521759748777486 0.5109597677387823 -0.08645968199959483
0.6053274690954334 0.28314299319659714 -0.08645968199959483
0.6315944589901199 0.4880334922004813 -0.08645968199959483
0.3285368193167996 0.44517262562213555 -0.08576162228333513
0.3465168431513174 0.34765368326065466 -0.08576162228333513
0.35548192436442416 0.45750833803661056 -0.08576162228333513
0.33698334188354195 0.4505277408740135 -0.08576162228333513
0.47639583950226594 0.338618796075922 -0.08576162228333513
0.490566451742338 0.33679386853198584 -0.08576162228333513
0.5516167600700796 0.5107104606972609 -0.08576162228333513
0.46943518690299063 0.26638956000636416 -0.08576162228333513
0.5333176232224144 0.28786985470384147 -0.08576162228333513
0.6244243884759667 0.47065180526561473 -0.08576162228333513
0.4701930803092154 0.44327789210657337 -0.08526300820029249
0.4345820624983096 0.46954488200126 -0.08446522566742426
0.5280223416605015 0.5109597677387823 -0.08446522566742426
0.6578714211664676 0.48521133649046005 -0.08446522566742426
0.3705400696723122 0.3404038344932147 -0.08376716595116455
0.4881830764253941 0.43369452943049375 -0.08376716595116455
0.4769243704302911 0.3761245474023898 -0.08376716595116455
0.48518141964547734 0.4194940003454392 -0.08376716595116455
0.5460422546216629 0.5248411838106894 -0.08376716595116455
0.5141309533069335 0.27539453034611444 -0.08376716595116455
0.540737000778089 0.29053245390728916 -0.08376716595116455
0.6524963613512677 0.3661722103048586 -0.08376716595116455
0.3393766894821468 0.4796468033237041 -0.08247076933525366
0.5303359110058194 0.5089553391249508 -0.08247076933525366
0.6447279539374633 0.5089553391249508 -0.08247076933525366
0.34659662140460434 0.45528451922624036 -0.08177270961899395
0.48132214664272727 0.3795949014203666 -0.08177270961899395
0.5215303862992863 0.3263628619147338 -0.08177270961899395
0.5350029388230987 0.27763829371980625 -0.08177270961899395
0.5517563720133314 0.2857058695834364 -0.08177270961899395
0.5164146058072687 0.2669878969060154 -0.08177270961899395
0.4858994239250588 0.2721934279329806 -0.08177270961899395
0.5913662747702393 0.492740409144404 -0.08177270961899395
0.5282217872937186 0.36447692242251367 -0.08047631300308308
0.46330223368156603 0.4895891681395744 -0.08047631300308308
0.6753229140729602 0.36447692242251367 -0.08047631300308308
0.35694784976856964 0.46666289260127364 -0.07977825328682338
0.33987530356518936 0.33465980025656333 -0.07977825328682338
0.47814098879291517 0.4692457135514345 -0.07977825328682338
0.4873354324842217 0.47098089056042286 -0.07977825328682338
0.6489661736433259 0.4525620863328276 -0.07977825328682338
0.5454638622853332 0.5217098873691818 -0.07977825328682338
0.4844135539575917 0.5561441759441069 -0.07977825328682338
0.5707336240139347 0.5235846763214221 -0.07977825328682338
0.4672712017825856 0.4038774072645435 -0.07848185667091251
0.31637063569055907 0.4651770226338065 -0.07848185667091251
0.5628654937835216 0.2725324855094496 -0.07848185667091251
0.6408985977796959 0.4826783769486034 -0.07848185667091251
0.35328802239903656 0.4609886643362483 -0.0777837969546528
0.4890805817748709 0.4617166408974905 -0.0777837969546528
0.4804944472648765 0.34389413307451316 -0.0777837969546528
0.5745230910450587 0.3007440703280026 -0.0777837969546528
0.4788689653541575 0.5450849155822209 -0.0777837969546528
0.6021363389639606 0.3072061088442352 -0.0777837969546528
0.4873354324842217 0.2519397238797883 -0.0777837969546528
0.5782826412312004 0.5074196077491794 -0.0777837969546528
0.31637063569055907 0.47113047478533565 -0.07648740033874193
0.5209819108079394 0.3179662007562956 -0.07648740033874193
0.671004916113811 0.3356769729859704 -0.07648740033874193
0.35045589440735425 0.46377093091962623 -0.07578934062248222
0.38583754974006046 0.3471550691776121 -0.07578934062248222
0.47919805064896565 0.43657651883048026 -0.07578934062248222
0.47948724681713034 0.4824490144704038 -0.07578934062248222
0.6460442951166959 0.35011683683088535 -0.07578934062248222
0.48398474584617496 0.5484356022202677 -0.07578934062248222
0.6872397906576794 0.40082588907632255 -0.07578934062248222
0.5682106367537387 0.2819662639606166 -0.07578934062248222
0.5997828804919991 0.4942163068302102 -0.07578934062248222
0.4816412596558745 0.49076589737555504 -0.07449294400657132
0.5453840840320465 0.29992634323181255 -0.07449294400657132
0.6972719060084974 0.39461315760161114 -0.07449294400657132
0.37255447056780444 0.3398054975935635 -0.07379488429031161
0.4894196393513398 0.4492512888214243 -0.07379488429031161
0.4816312873742138 0.3685755301851241 -0.07379488429031161
0.49028722785583406 0.471240169883605 -0.07379488429031161
0.5829795858934619 0.5076888593540224 -0.07379488429031161
0.563723110006355 0.5146694565166196 -0.07379488429031161
0.4911548163603283 0.5537408560638413 -0.07379488429031161
0.6399113418952713 0.4758373917292582 -0.07379488429031161
0.6029540660601505 0.4826285155402991 -0.07379488429031161
0.5903889911674759 0.2856659804567929 -0.07249848767440073
0.5288500410383523 0.36447692242251367 -0.07249848767440073
0.31637063569055907 0.3907439123172003 -0.07249848767440073
0.35605034441909283 0.46263409081028894 -0.07180042795814102
0.48741521073750843 0.4739925196220005 -0.07180042795814102
0.5185187572377087 0.4837753279312972 -0.07180042795814102
0.5872078333176636 0.30299780598335535 -0.07180042795814102
0.5901795732525977 0.3019806332539483 -0.07180042795814102
0.5219990835373465 0.2670776474409631 -0.07180042795814102
0.5797385943536848 0.30699669092935733 -0.07180042795814102
0.6291113608565676 0.4070785096776773 -0.07180042795814102
0.684138411061154 0.46954488200126 -0.07050403134223016
0.4701930803092154 0.3940148207019599 -0.07050403134223016
0.39518157765627976 0.46954488200126 -0.07050403134223016
0.3548736151831122 0.3412215615894046 -0.06980597162597045
0.37378106121208937 0.4787293534109056 -0.06980597162597045
0.4851913919271383 0.46442910150924255 -0.06980597162597045
0.4901675604759038 0.3363949772655518 -0.06980597162597045
0.6037019871847144 0.4968190723436927 -0.06980597162597045
0.5682704704437038 0.5132733370841002 -0.06980597162597045
0.4928401319610124 0.5556854509877077 -0.06980597162597045
0.6548797366682115 0.46205569847395955 -0.06980597162597045
0.6198570834752961 0.46414987762273857 -0.06980597162597045
0.5527934893060602 0.24626549561476296 -0.06850957501005958
0.5527934893060602 0.44327789210657337 -0.06850957501005958
0.31637063569055907 0.3266520580828985 -0.06850957501005958
0.38155944090755456 0.34340549127313147 -0.06781151529379988
0.4841044132261052 0.33375232262542576 -0.06781151529379988
0.48270829379358576 0.4818905666973959 -0.06781151529379988
0.6086582111701584 0.32051910486147395 -0.06781151529379988
0.4858994239250588 0.5455635851019419 -0.06781151529379988
0.614721358419957 0.31358836910718113 -0.06781151529379988
0.4787792148192098 0.269251604843029 -0.06781151529379988
0.6300886444593313 0.47220748120470785 -0.06781151529379988
0.7235388959031842 0.3776104173698569 -0.066515118677889
0.48443349852091333 0.31947201528708435 -0.066515118677889
0.31637063569055907 0.46954488200126 -0.066515118677889
0.37639379900723285 0.3387982971458174 -0.06581705896162929
0.4825886264136555 0.3680669438204207 -0.06581705896162929
0.5229663948584491 0.3277888981922357 -0.06581705896162929
0.4911548163603283 0.25960840847698424 -0.06581705896162929
0.6157285588677031 0.325664802198474 -0.06581705896162929
0.5404178877649418 0.2724227904111802 -0.06581705896162929
0.5746128415800063 0.301462074607584 -0.06581705896162929
0.664134014049483 0.3720558564847618 -0.06581705896162929
0.6490858410232562 0.3250764375804837 -0.06452066234571839
0.579060479200747 0.5483558239669807 -0.06452066234571839
0.5527934893060602 0.5089553391249508 -0.06452066234571839
0.35290907569592417 0.3420392886855946 -0.06382260262945869
0.3578353828363855 0.34849135492016636 -0.06382260262945869
0.4818407052890917 0.33393182369532115 -0.06382260262945869
0.48113267329117115 0.35909189032565303 -0.06382260262945869
0.6165662305272148 0.3213069151126813 -0.06382260262945869
0.5697962295378146 0.5182694501961875 -0.06382260262945869
0.6896231659746233 0.4115361195800786 -0.06382260262945869
0.5988355137342181 0.29683493591694826 -0.06382260262945869
0.6476897215907366 0.3615650161775446 -0.06382260262945869
0.6315944589901199 0.29627648814394036 -0.06252620601354782
0.6743755473151791 0.45641138705391676 -0.06252620601354782
0.47966674788702574 0.3166398872954021 -0.06252620601354782
0.31637063569055907 0.46954488200126 -0.06252620601354782
0.3748979567581049 0.33900771506069527 -0.061828146297288104
0.487853991130586 0.37644366041553706 -0.061828146297288104
0.482359263935456 0.46300306523174056 -0.061828146297288104
0.4925609080745085 0.5443569390209786 -0.061828146297288104
0.6237063841963852 0.4813022020794056 -0.061828146297288104
0.6796309397504485 0.4281599131087204 -0.061828146297288104
0.6424841905637714 0.33038169142405743 -0.061828146297288104
0.6504021822024888 0.35314841045578466 -0.061828146297288104
0.6735977093456326 0.45375876013212985 -0.06132953221424545
0.6816054515192975 0.3513434274751703 -0.060531749681377235
0.579060479200747 0.5483558239669807 -0.060531749681377235
0.5527934893060602 0.5089553391249508 -0.060531749681377235
0.3473245979658465 0.4601011312684324 -0.05983368996511752
0.3701112615608954 0.3318875059548463 -0.05983368996511752
0.48392491215620986 0.3294542692295982 -0.05983368996511752
0.48244901447040367 0.35547195208276344 -0.05983368996511752
0.6590282058391264 0.35569134227930227 -0.05983368996511752
0.5213708297927127 0.5337663758971529 -0.05983368996511752
0.6492254529665079 0.4660845002649441 -0.05983368996511752
0.6666470290280181 0.3539362207069921 -0.05983368996511752
0.6554282121595586 0.4432080861349475 -0.05983368996511752
0.6773273426867915 0.3553123955761897 -0.05933507588207487
0.5942981255785301 0.5220888340722941 -0.05933507588207487
0.5297874355144725 0.43014439715923014 -0.05933507588207487
0.33189747823650706 0.33820993252782705 -0.05933507588207487
0.34194953815064677 0.47038255366077164 -0.05783923363294695
0.479985860900173 0.33333348679566993 -0.05783923363294695
0.4810628673195451 0.3245778234974411 -0.05783923363294695
0.6379268578447617 0.47038255366077164 -0.05783923363294695
0.6376077448316143 0.33923707753889487 -0.05783923363294695
0.5433896276998758 0.535192412174655 -0.05783923363294695
0.6975411576133403 0.40209236884725086 -0.05783923363294695
0.5328489259843544 0.26481393950394955 -0.05783923363294695
0.6599257111886031 0.4220967658589218 -0.05783923363294695
0.42144856755096627 0.5089553391249508 -0.05734061954990429
0.47398254734033946 0.43014439715923014 -0.05734061954990429
0.6872996243476445 0.36605254292492834 -0.05734061954990429
0.3556813699976412 0.3406032801264317 -0.05584477730077637
0.4863780934447797 0.4709410014337794 -0.05584477730077637
0.48423405288769633 0.4103494180624371 -0.05584477730077637
0.4811526178544928 0.3244681283991717 -0.05584477730077637
0.6641739031761267 0.36077720592633716 -0.05584477730077637
0.5534516598956766 0.5225575313103542 -0.05584477730077637
0.6366304612288509 0.47913821695900055 -0.05584477730077637
0.66129191377614 0.3432658793298794 -0.05584477730077637
0.6520276641132076 0.35093456392707534 -0.05584477730077637
0.7104054009558408 0.4326773567010868 -0.05454838068486546
0.5280323139421623 0.3202598255382917 -0.05454838068486546
0.3317379217299334 0.45641138705391676 -0.05454838068486546
0.3736314769871766 0.4733941827223493 -0.05385032096860575
0.49000800396933014 0.357875271963029 -0.05385032096860575
0.4788390485091749 0.3275196465873927 -0.05385032096860575
0.5130439746059005 0.3592713913955484 -0.05385032096860575
0.6658691910584715 0.4457211011134824 -0.05385032096860575
0.6132454607341508 0.4880933258904464 -0.05385032096860575
0.6569041098453647 0.46036041059161453 -0.05385032096860575
0.5735158905973127 0.2808992298229053 -0.05385032096860575
0.6629473125318416 0.4470174977293932 -0.05385032096860575
0.5381940689545716 0.25939899056210636 -0.05255392435269488
0.5963125264740224 0.5220888340722941 -0.05255392435269488
0.42144856755096627 0.4983448314378033 -0.05255392435269488
0.35292902025924583 0.34167031426414296 -0.05185586463643518
0.3536968859471315 0.35248026758450757 -0.05185586463643518
0.4783204898628105 0.3328647895576099 -0.05185586463643518
0.47581744716593655 0.4398075380885966 -0.05185586463643518
0.6439600882495776 0.46823851310368825 -0.05185586463643518
0.5448056916957171 0.5224278916487631 -0.05185586463643518
0.6845472746092489 0.3824070848487271 -0.05185586463643518
0.5891125391148865 0.2981313325328591 -0.05185586463643518
0.4895692235762526 0.26951088416621116 -0.05185586463643518
0.6345661989250541 0.31193297035147954 -0.05055946802052431
0.6427235253236319 0.4424501927287226 -0.05055946802052431
0.42144856755096627 0.5089553391249508 -0.05055946802052431
0.5027924690585437 0.5431702375033371 -0.049861408304264596
0.49161354131672746 0.5374660923933292 -0.049861408304264596
0.6726004811795474 0.36358938935469765 -0.049861408304264596
0.6793417435822838 0.3947128804182197 -0.049861408304264596
0.5883546457086618 0.30670749476119263 -0.049861408304264596
0.4829276839901246 0.33369248893546066 -0.049861408304264596
0.4759770036725101 0.44035601357994353 -0.049861408304264596
0.34575894974509264 0.3524603230211858 -0.049861408304264596
0.33788084723301876 0.3374221222766196 -0.049861408304264596
0.7073139936409764 0.4038774072645435 -0.048565011688353726
0.47398254734033946 0.4200125589918035 -0.048565011688353726
0.46084905239299623 0.46954488200126 -0.048565011688353726
0.5001099252917742 0.5453741117503856 -0.04786695197209402
0.5432699603199456 0.5233652861248833 -0.04786695197209402
0.6748143277082566 0.43138096008517585 -0.04786695197209402
0.69519767142304 0.3901754922625317 -0.04786695197209402
0.6318437660316413 0.3227229791085224 -0.04786695197209402
0.4889509421132798 0.3894175988563068 -0.04786695197209402
0.5205231858515401 0.32714069988428035 -0.04786695197209402
0.49450550299837487 0.34538000304198024 -0.04786695197209402
0.3693234513096881 0.3355174164793967 -0.04786695197209402
0.3898763238127059 0.4826783769486034 -0.04657055535618315
0.5527934893060602 0.2987994754041362 -0.04657055535618315
0.6441495616011339 0.4513753848151861 -0.04657055535618315
0.6558271034259926 0.34436283031257325 -0.04657055535618315
0.508396891351943 0.5433497385732324 -0.04587249563992344
0.49393708294370625 0.5373663695767208 -0.04587249563992344
0.6843079398493885 0.42019206006169885 -0.04587249563992344
0.6782248480362684 0.36364922304466274 -0.04587249563992344
0.6228587402552129 0.33062102618391787 -0.04587249563992344
0.4830672959333765 0.3335827938371912 -0.04587249563992344
0.4696047156912251 0.3230620366849914 -0.04587249563992344
0.4947847268848788 0.44413550832940685 -0.04587249563992344
0.34723484743089883 0.3461977301381701 -0.04587249563992344
0.3389877704973735 0.33384207316037345 -0.04587249563992344
0.635802761851 0.31193297035147954 -0.044576099024012536
0.7043322814243813 0.3907439123172003 -0.044576099024012536
0.6506714338073316 0.44635932713977705 -0.044576099024012536
0.31637063569055907 0.31193297035147954 -0.044576099024012536
0.38797161801548297 0.48544069896865966 -0.044576099024012536
0.510770294387226 0.5484356022202677 -0.04387803930775283
0.5057941258384604 0.5548278347648743 -0.04387803930775283
0.6819544813774273 0.383912899379516 -0.04387803930775283
0.5073697463408752 0.26116408441607725 -0.04387803930775283
0.49518361815131284 0.2703485558257228 -0.04387803930775283
0.48512158595551225 0.47321468165245395 -0.04387803930775283
0.524133151812769 0.4830872404966983 -0.04387803930775283
0.5136123946605691 0.41053889141399336 -0.04387803930775283
0.37107857288199825 0.33910743787730374 -0.04387803930775283
0.5164744394972339 0.5593353060755798 -0.04337942522471021
0.6532841716024751 0.36409797571940117 -0.042581642691841955
0.6332598300274823 0.45957260034040703 -0.042581642691841955
0.39518157765627976 0.3513434274751703 -0.042581642691841955
0.5311436658203484 0.4826783769486034 -0.042581642691841955
0.5931712577508538 0.5084567250419081 -0.04188358297558225
0.6327811605077615 0.49029720013749495 -0.04188358297558225
0.6964043175040033 0.4106585587939236 -0.04188358297558225
0.5630948562617212 0.2880693003370585 -0.04188358297558225
0.49200246030150074 0.463172594019975 -0.04188358297558225
0.48439360939427006 0.4143682475717609 -0.04188358297558225
0.471040724250388 0.3416304251374995 -0.04188358297558225
0.5025431620170223 0.3427373484018542 -0.04188358297558225
0.34544980901360617 0.46714156212099445 -0.04188358297558225
0.33783098582471455 0.335298026282858 -0.04188358297558225
0.579060479200747 0.2700094982492538 -0.04058718635967138
0.7104054009558408 0.36447692242251367 -0.04058718635967138
0.47525899939292865 0.38735333655251025 -0.04058718635967138
0.42144856755096627 0.46954488200126 -0.04058718635967138
0.5226971432536061 0.5400588856251511 -0.03988912664341167
0.6499235126827678 0.4795371082254347 -0.03988912664341167
0.6710547775221152 0.3803428225449306 -0.03988912664341167
0.5670737966444015 0.2808294238512793 -0.03988912664341167
0.48688667980948325 0.39763475894484956 -0.03988912664341167
0.4880833536087855 0.3443029966226081 -0.03988912664341167
0.48762462865238637 0.4010253347095396 -0.03988912664341167
0.5009176801063033 0.4172901260983907 -0.03988912664341167
0.37106860060033736 0.33900771506069527 -0.03988912664341167
0.5320710880148078 0.5614893189143241 -0.03939051256036902
0.42144856755096627 0.46954488200126 -0.0385927300275008
0.4754185558995023 0.3776104173698569 -0.0385927300275008
0.7104054009558408 0.37602482458578124 -0.0385927300275008
0.5265264994113736 0.25093252343204214 -0.0385927300275008
0.5556455618610642 0.531941448353217 -0.037894670311241094
0.6805284450999253 0.38639599751306836 -0.037894670311241094
0.6427833590135971 0.3293944355396331 -0.037894670311241094
0.6367002672004766 0.3413113121243523 -0.037894670311241094
0.48577975654512856 0.37142760274012804 -0.037894670311241094
0.470292803125824 0.48497200173059957 -0.037894670311241094
0.5065619915263461 0.34242820767036775 -0.037894670311241094
0.3495583890578776 0.3429268217534105 -0.037894670311241094
0.38379323199958565 0.48017533425172926 -0.037894670311241094
0.6315944589901199 0.2856659804567929 -0.036598273695330225
0.5561641205074285 0.5427015402652771 -0.036598273695330225
0.5527934893060602 0.3907439123172003 -0.036598273695330225
0.3312692244918733 0.3776104173698569 -0.036598273695330225
0.5849939867889544 0.5182794224778482 -0.03590021397907051
0.6866813428846715 0.39512174396631466 -0.03590021397907051
0.6363412650606862 0.33541769366278823 -0.03590021397907051
0.6427235253236319 0.32482713053896234 -0.03590021397907051
0.4871958205409696 0.45042801805740507 -0.03590021397907051
0.4840046904094968 0.3550730608163293 -0.03590021397907051
0.5111891302169819 0.3341512138918598 -0.03590021397907051
0.38010348778507014 0.33160828206834236 -0.03590021397907051
0.5578494361081127 0.5424821500687383 -0.03460381736315961
0.672610453461208 0.35721710137341267 -0.03460381736315961
0.41606353545410574 0.33820993252782705 -0.03460381736315961
0.46912604617150416 0.4912645114585978 -0.03460381736315961
0.5692278094831458 0.5217497764958251 -0.0339057576468999
0.5485652418818585 0.539310964500587 -0.0339057576468999
0.6815356455476714 0.44486348489064903 -0.0339057576468999
0.5570416812935834 0.2891163899114481 -0.0339057576468999
0.48269832151192504 0.3277888981922357 -0.0339057576468999
0.481880594415735 0.36558384568686825 -0.0339057576468999
0.34544980901360617 0.45922357048227724 -0.0339057576468999
0.35684812695196105 0.4599914361701629 -0.0339057576468999
0.6376476339582579 0.4958218441776075 -0.03260936103098903
0.6315944589901199 0.29627648814394036 -0.03260936103098903
0.4871559314143263 0.31843489799435565 -0.03260936103098903
0.3311695016752647 0.45224297331968016 -0.03260936103098903
0.6024753965404295 0.49878361183088077 -0.03191130131472932
0.6873794026009314 0.4128424884776503 -0.03191130131472932
0.5612400118728027 0.2822853769737638 -0.03191130131472932
0.6421750498322849 0.3239096806261639 -0.03191130131472932
0.4857099505735025 0.3247573245673364 -0.03191130131472932
0.4880235199188204 0.3675384128923954 -0.03191130131472932
0.34536005847865847 0.457957090711349 -0.03191130131472932
0.5630051057267736 0.5409663632562889 -0.03141268723168667
0.4851614750821557 0.49165343044337106 -0.030614904698818453
0.4529410330359398 0.2987994754041362 -0.030614904698818453
0.6484376427153007 0.46954488200126 -0.030614904698818453
0.5659269842534036 0.26496352372886217 -0.030614904698818453
0.564461058849258 0.5285209557435442 -0.029916844982558744
0.6898824452978055 0.3830054217483783 -0.029916844982558744
0.6178725994247866 0.31956176582203205 -0.029916844982558744
0.48465288871745216 0.4753188330828939 -0.029916844982558744
0.4857099505735025 0.4830573236517157 -0.029916844982558744
0.3452005019720849 0.46519696719712816 -0.029916844982558744
0.34001491550844126 0.47483019128151205 -0.029916844982558744
0.3295141029195632 0.42178762512743545 -0.028620448366647875
0.4345820624983096 0.4811027564461886 -0.028620448366647875
0.47398254734033946 0.41852668902433643 -0.028620448366647875
0.7104054009558408 0.4326773567010868 -0.028620448366647875
0.5611203444928725 0.5262472755248698 -0.027922388650388166
0.5438383803746143 0.5447558302874129 -0.027922388650388166
0.6800298310168829 0.43873053166922454 -0.027922388650388166
0.6181318787479685 0.31961162723033626 -0.027922388650388166
0.48468280556243476 0.47535872220953734 -0.027922388650388166
0.5259381347933832 0.47470055161992103 -0.027922388650388166
0.3453500861969977 0.4587249563992346 -0.027922388650388166
0.33901768734235604 0.4011749189344524 -0.027922388650388166
0.3295141029195632 0.37773008474978714 -0.027423774567345512
0.660424325271646 0.36786749818720355 -0.026625992034477297
0.5998127973369818 0.5220888340722941 -0.026625992034477297
0.5240932626861254 0.31634071884557646 -0.026625992034477297
0.33100994516869114 0.45641138705391676 -0.026625992034477297
0.5688887519066769 0.5285608448701875 -0.02592793231821759
0.6953971170562572 0.39898101696906474 -0.02592793231821759
0.523106006801701 0.2652626921786878 -0.02592793231821759
0.5858416307301267 0.2850975604021243 -0.02592793231821759
0.5141508978702551 0.4642296558760255 -0.02592793231821759
0.48850218943854135 0.4355294292560908 -0.02592793231821759
0.34494122264890265 0.4227250196035556 -0.02592793231821759
0.5836377564830783 0.27629203569559124 -0.025429318235174934
0.6888951894133809 0.4474363335591491 -0.025429318235174934
0.47534874992787635 0.4095017741212645 -0.025429318235174934
0.4345820624983096 0.46954488200126 -0.025429318235174934
0.3295141029195632 0.36494561966057376 -0.025429318235174934
0.6063047526981972 0.5063824904564507 -0.023933475986046976
0.7016796545025945 0.40361812794136137 -0.023933475986046976
0.603113622566724 0.30890139672658024 -0.023933475986046976
0.5077586653256483 0.4764556731922312 -0.023933475986046976
0.5104511813740787 0.4642296558760255 -0.023933475986046976
0.35205145947309086 0.34095230998456155 -0.023933475986046976
0.3797544579269402 0.47633600581230096 -0.023933475986046976
0.6578714211664676 0.44170227160415876 -0.023434861903004357
0.6593672634155956 0.3699716496176435 -0.023434861903004357
0.4345820624983096 0.45641138705391676 -0.023434861903004357
0.3309600837603868 0.3513434274751703 -0.023434861903004357
0.5751014833813881 0.5238539279262652 -0.021939019653876395
0.5879856712872101 0.5219990835373465 -0.021939019653876395
0.6985982194693909 0.4206408127364373 -0.021939019653876395
0.5724189396146186 0.2740482723218992 -0.021939019653876395
0.4761365601790838 0.33688361906693354 -0.021939019653876395
0.4889908312399232 0.437134966603488 -0.021939019653876395
0.3728735835809517 0.33361271068217374 -0.021939019653876395
0.614571774195044 0.29456125569827374 -0.021440405570833744
0.6816054515192975 0.33820993252782705 -0.021440405570833744
0.6586193422910314 0.48268834923026427 -0.021440405570833744
0.3895073493912544 0.3250764375804837 -0.021440405570833744
0.383972733069481 0.4868467906828398 -0.021440405570833744
0.5864798567564216 0.5222483905788678 -0.019944563321705817
0.6766492275338535 0.44566126742351725 -0.019944563321705817
0.583248837498305 0.2881291340270236 -0.019944563321705817
0.5150583755013927 0.4733343490323842 -0.019944563321705817
0.5107603221055651 0.4642695450026688 -0.019944563321705817
0.3695827306328702 0.33877835258249556 -0.019944563321705817
0.35562153630767607 0.3436847151596352 -0.019944563321705817
0.6609827730446535 0.33678389625032507 -0.019445949238663163
0.6175335418483173 0.511248963906947 -0.019445949238663163
0.5330782884625539 0.45641138705391676 -0.018648166705794948
0.6053274690954334 0.5352223290196374 -0.018648166705794948
0.6315944589901199 0.45641138705391676 -0.018648166705794948
