0.6070776785966467 0.2743293651752439 -0.15227465190470968
0.4272149956215467 0.4577545230313246 -0.15227465190470968
0.5987119724117582 0.33737295099776793 -0.15227465190470968
0.34852095946437206 0.3811378139155659 -0.15227465190470968
0.3931787910198828 0.2752693321623101 -0.15105269482152373
0.1391715121050081 0.30003746227150196 -0.15105269482152373
0.529990985987355 0.42698000387478013 -0.15039471793057746
0.5816421719266377 0.19996857682844396 -0.15039471793057746
0.48625432207916897 0.15167307303298735 -0.15039471793057746
0.3062318447162677 0.37653197567894203 -0.15039471793057746
0.39914758138775264 0.2876486973819707 -0.1491727608473915
-0.009390270200790387 0.30003746227150196 -0.1491727608473915
0.4353551097295392 0.12479001720289663 -0.14851478395644524
0.4260306372178434 0.4695041103696508 -0.14851478395644524
0.4846281791915446 0.15488776012875344 -0.14851478395644524
0.2623447860901511 0.37182274107374075 -0.14851478395644524
0.16393024254432945 0.2505106017229888 -0.14729282687325929
0.3620094857287706 0.23813123650332804 -0.14729282687325929
0.4753037066798489 0.14355175826473612 -0.14663484998231302
0.38652382475145475 0.4904277755017424 -0.14663484998231302
0.6083842327086685 0.265399678798116 -0.14663484998231302
0.3407474324813353 0.21811933934869066 -0.14663484998231302
0.37438885094843133 0.2628899669426494 -0.1454128928991271
0.22256538319751334 0.2876486973819707 -0.1454128928991271
0.47912937231720776 0.4555456006117192 -0.1447549160081808
0.6070306802472932 0.23071489697537642 -0.1447549160081808
0.4878522659571815 0.3687302496862933 -0.1447549160081808
0.2752505328225688 0.3641432107894107 -0.1447549160081808
0.3010244276079214 0.3950023269747911 -0.14428493251464775
0.4239157114969447 0.33717555793048404 -0.14353295892499485
0.41188413406249846 0.11336001864017267 -0.14287498203404858
0.39170304285018903 0.4878428662873108 -0.14287498203404858
0.44412500171886593 0.11964839778364506 -0.14287498203404858
0.2405375519902174 0.2000907725367626 -0.14287498203404858
0.2566767851581425 0.21541223442594015 -0.14287498203404858
0.05250655589751285 0.3024155787487792 -0.14165302495086265
0.34963012050911 0.33717555793048404 -0.14165302495086265
0.4370752493158701 0.12353046144022804 -0.14099504805991636
0.47003989155227865 0.4689589295171525 -0.14099504805991636
0.4897603989409255 0.39560390584651334 -0.14099504805991636
0.25412947462319335 0.20636975201036428 -0.14099504805991636
0.2184013294448105 0.22575187128366744 -0.1405250645663833
0.22100503799898363 0.2133725060640067 -0.1397730909767304
0.4861039273612385 0.19346400527794655 -0.13911511408578414
0.5668752905598291 0.39809481836223853 -0.13911511408578414
0.49150873753686847 0.39644047646500213 -0.13911511408578414
0.3277852877296936 0.21408688097417702 -0.13911511408578414
0.24397783116287936 0.3248525907300473 -0.13911511408578414
0.23314001180200708 0.411451749248448 -0.13789315700259822
0.15155087732466885 0.32479619271082333 -0.13789315700259822
0.6218727589730672 0.2822720862159525 -0.13723518011165192
0.4832088290410749 0.22377794061082854 -0.13723518011165192
0.40590594402475794 0.4762060749874324 -0.13723518011165192
0.2634069487855358 0.21543103376568157 -0.13723518011165192
0.24978682714294786 0.3031769520083028 -0.13723518011165192
0.21988647728437496 0.36193428836980535 -0.13676519661811887
0.21354170012167875 0.22256538319751334 -0.136013223028466
0.41300269477710716 0.09884692835987198 -0.1353552461375197
0.5013783909010627 0.4495110125547547 -0.1353552461375197
0.4769674482469558 0.2155438298041295 -0.1353552461375197
0.23436196888519298 0.38056443405345564 -0.1353552461375197
0.3132063997602983 0.3835065307229726 -0.1353552461375197
0.24454181135511893 0.2943412623298814 -0.1353552461375197
0.423906311827074 0.2876486973819707 -0.13413328905433378
0.277243262835149 0.33717555793048404 -0.13413328905433378
0.46740798398849354 0.4636105173607463 -0.13347531216338748
0.47289739119295965 0.18872657166313334 -0.13347531216338748
0.49213851541820286 0.3754416139739453 -0.13347531216338748
0.26216619236260846 0.36532756919311404 -0.13347531216338748
0.22691743034762937 0.251112180594711 -0.13347531216338748
0.0029890950188702073 0.32479619271082333 -0.13225335508020156
0.3124920248501281 0.411451749248448 -0.13225335508020156
0.4495298118944961 0.11307802854405283 -0.13159537818925526
0.5572218296026603 0.40851905224880175 -0.13159537818925526
0.4841957943774942 0.39823581341029846 -0.13159537818925526
0.2291921504563294 0.32596175177478537 -0.13159537818925526
0.2805237476200096 0.20751651173458494 -0.13159537818925526
0.22696442869698277 0.24868706576808047 -0.13159537818925526
0.21179336152573572 0.32479619271082333 -0.1303734211060693
0.05250655589751285 0.33717555793048404 -0.1303734211060693
0.6200304236784177 0.2659354599807435 -0.12971544421512307
0.4975903239431864 0.4529230927178047 -0.12971544421512307
0.4847597745697339 0.4323378157010569 -0.12971544421512307
0.2281393874308154 0.2531425092867739 -0.12971544421512307
0.22588346666185666 0.24580136711778752 -0.12971544421512307
0.3009586299188269 0.38348773138323117 -0.12971544421512307
-0.009390270200790387 0.2752693321623101 -0.12849348713193712
0.3372507552894494 0.2876486973819707 -0.12849348713193712
0.4302886876692529 0.4778698165545393 -0.12783551024099082
0.48886743030321267 0.3694540242663342 -0.12783551024099082
0.4852673567427496 0.2036720467574845 -0.12783551024099082
0.2206948488932518 0.3867024184789972 -0.12783551024099082
0.22543228250806505 0.22888196135059757 -0.12783551024099082
0.08964465155649477 0.40145990017593525 -0.1266135531578049
0.26778719494526393 0.30003746227150196 -0.1266135531578049
0.46696619950457247 0.12820209736594662 -0.12595557626685863
0.5581993952692089 0.1765258001710152 -0.12595557626685863
0.5812003874427166 0.3905844821355804 -0.12595557626685863
0.22947414055244925 0.3313853612901568 -0.12595557626685863
0.24206029850926444 0.3343650566391563 -0.12595557626685863
0.22964333461012115 0.24604575853442467 -0.12595557626685863
0.05250655589751285 0.2737841843227456 -0.12473361918367266
0.4239157114969447 0.2505106017229888 -0.12473361918367266
0.49038077715238915 0.3926618091769964 -0.12407564229272638
0.4117243396746971 0.11753347206274622 -0.12407564229272638
0.4965093619080603 0.41381106638598386 -0.12407564229272638
0.23567792266708554 0.27130267147689113 -0.12407564229272638
0.21615480834572245 0.23437136855506369 -0.12407564229272638
0.17630960776399018 0.34955492315014464 -0.12285368520954046
0.28773329441080675 0.2628899669426494 -0.12285368520954046
0.5832119167950381 0.2079394968787647 -0.12219570831859418
0.5718007175720555 0.3958294979234092 -0.12219570831859418
0.4816014854931917 0.44003614532512836 -0.12219570831859418
0.3076605945366082 0.2130811162980163 -0.12219570831859418
0.22504689604336783 0.3617180959627802 -0.12219570831859418
0.2766604833031679 0.3954441114587121 -0.12172572482506112
0.18570927763465125 0.22873156663266694 -0.12097375123540825
0.39914758138775264 0.34955492315014464 -0.12097375123540825
0.47297258855192503 0.1340674913652391 -0.12031577434446197
0.5954220879570269 0.2111259849649188 -0.12031577434446197
0.4795053591120344 0.19791004912676924 -0.12031577434446197
0.24256788068228016 0.364631993622685 -0.12031577434446197
0.22359934688328606 0.2373604635739339 -0.12031577434446197
0.41152694660741324 0.31241682749116273 -0.11909381726127603
0.02774782545819153 0.23813123650332804 -0.11909381726127603
0.5850072537403345 0.20953744075677697 -0.11843584037032975
0.5359409770154835 0.428841138509171 -0.11843584037032975
0.509941490153235 0.43948156480275935 -0.11843584037032975
0.24273707473995204 0.27639729254678935 -0.11843584037032975
0.2815201126262998 0.20652954639816548 -0.11843584037032975
0.39914758138775264 0.30003746227150196 -0.11721388328714379
0.1940937831592809 0.197806652758192 -0.11721388328714379
0.41425285086990504 0.09725838415173028 -0.1165559063961975
0.613450654768955 0.24387443479430201 -0.1165559063961975
0.4663176222834968 0.4749935175741169 -0.1165559063961975
0.2961647982847897 0.20255348604287582 -0.1165559063961975
0.23395778308075463 0.33524862560699853 -0.1165559063961975
0.1940937831592809 0.37238672126598044 -0.11608592290266448
0.27535392919114604 0.22268757890583185 -0.11533394931301158
0.23314001180200708 0.411451749248448 -0.11533394931301158
0.4247804811250455 0.4810187059612108 -0.1146759724220653
0.456993149771801 0.39777522958663614 -0.1146759724220653
0.5498148897445793 0.40897963607246407 -0.1146759724220653
0.21402108328508235 0.2173015680699431 -0.1146759724220653
0.2190593063357567 0.35033509574940946 -0.1146759724220653
0.41152694660741324 0.32479619271082333 -0.11345401533887936
0.1144127816656868 0.1762344104050248 -0.11345401533887936
0.4161703835235198 0.09693879537612775 -0.11279603844793308
0.5992853522738687 0.2213904244636807 -0.11279603844793308
0.562551442419325 0.41151754693754256 -0.11279603844793308
0.21032701302591267 0.2341645758179091 -0.11279603844793308
0.21576002221115467 0.34562586114420835 -0.11279603844793308
0.05250655589751285 0.33717555793048404 -0.11157408136474715
0.2621473930228672 0.1762344104050248 -0.11157408136474715
0.47607447960924304 0.198333034270949 -0.11091610447380088
0.4134350795911575 0.09316012808812198 -0.11091610447380088
0.571763118892573 0.18219380110302394 -0.11091610447380088
0.46330972792488523 0.46323453056591996 -0.11091610447380088
0.19874661974525806 0.35680206862042435 -0.11091610447380088
0.250585799081954 0.18434632550340532 -0.1104461209802678
0.26296516430161476 0.34955492315014464 -0.10969414739061494
0.41152694660741324 0.30003746227150196 -0.10969414739061494
0.41049298292164055 0.47233341100071996 -0.10903617049966866
0.4771178429648863 0.3710895668238293 -0.10903617049966866
0.4874198811431309 0.20582457115786587 -0.10903617049966866
0.2897918221124815 0.3813540063225912 -0.10903617049966866
0.25728776369973544 0.18769260797736062 -0.1085661870061356
0.302368580399426 0.19864322337668083 -0.1078142134164827
0.4733015769973981 0.1981356412036651 -0.10715623652553642
0.43491332524561804 0.10095245441090009 -0.10715623652553642
0.6341863265036333 0.3092303394050086 -0.10715623652553642
0.42181958511578727 0.4819962716277595 -0.10715623652553642
0.26915014707650975 0.38781157952373535 -0.10715623652553642
0.1144127816656868 0.1762344104050248 -0.10593427944235048
0.3124920248501281 0.2009931408443461 -0.10593427944235048
0.46384550910751293 0.4606120226720054 -0.1052763025514042
0.4713464456643006 0.20981003118302624 -0.1052763025514042
0.4748995208754104 0.1111792952301793 -0.1052763025514042
0.2190875053453687 0.23109088377020293 -0.1052763025514042
0.2283367804980993 0.36483878635983963 -0.1052763025514042
0.41152694660741324 0.22575187128366744 -0.10405434546821828
0.2474087106656706 0.39907238402878725 -0.10405434546821828
0.43022288998015823 0.10113104813844258 -0.103396368577272
0.6281329391069275 0.27159406124288155 -0.103396368577272
0.48944081016532304 0.46587583779957564 -0.103396368577272
0.48113150199965876 0.20934944735936378 -0.103396368577272
0.2656722692243651 0.3904622864272617 -0.103396368577272
0.17630960776399018 0.3463684350639905 -0.10217441149408606
0.2474087106656706 0.18726022316331029 -0.10217441149408606
0.48828465077123184 0.14456692261076756 -0.10151643460313978
0.570212173363914 0.18438392418288801 -0.10151643460313978
0.536899743342291 0.43526111303083254 -0.10151643460313978
0.2190969050152394 0.2100544225996634 -0.10151643460313978
0.22120243106626752 0.36796887642676973 -0.10151643460313978
0.3620094857287706 0.31241682749116273 -0.10029447751995385
0.28773329441080675 0.22575187128366744 -0.10029447751995385
0.5952622935692258 0.36461319428294375 -0.09963650062900757
0.42962131110843593 0.46899652819663507 -0.09963650062900757
0.4402899364116362 0.18662104561210535 -0.09963650062900757
0.18345335686569253 0.22217059706294556 -0.09963650062900757
0.2564981914305999 0.39006750029269394 -0.09963650062900757
0.2352267385132938 0.17771955824458927 -0.0984145435458216
0.1144127816656868 0.18622625947753757 -0.0984145435458216
0.5624480460507477 0.1811786367569925 -0.09775656665487532
0.5164178626941205 0.4461741297506701 -0.09775656665487532
0.4406941222160747 0.3981512163814625 -0.09775656665487532
0.28261047433129644 0.21521484135865626 -0.09775656665487532
0.23820643386229343 0.18709102910563838 -0.0972865831613423
0.2959862045572472 0.2133725060640067 -0.09653460957168938
0.28773329441080675 0.31241682749116273 -0.09653460957168938
0.4562129771725361 0.19509014816557094 -0.09587663268074312
0.5056270416826015 0.12617176867388374 -0.09587663268074312
0.4538066616856469 0.1964155016173341 -0.09587663268074312
0.2187397175601543 0.37411626052218205 -0.09587663268074312
0.24905365289303627 0.1828047796446169 -0.09540664918721005
0.26296516430161476 0.3617932933217454 -0.09465467559755718
0.0029890950188702073 0.24902545388342429 -0.09465467559755718
0.44402160535028873 0.4652742589278534 -0.0939966987066109
0.4605274256431696 0.18993912907644867 -0.0939966987066109
0.4715626380713258 0.2121787479904328 -0.0939966987066109
0.2766698829730386 0.20047615900145968 -0.0939966987066109
0.16007637789735843 0.23813123650332804 -0.09352671521307784
0.28279846772870965 0.36120111411989375 -0.09277474162342497
-0.009390270200790387 0.2628899669426494 -0.09277474162342497
0.4959547813856913 0.455160214147022 -0.09211676473247869
0.4612136015437278 0.370346992904047 -0.09211676473247869
0.4710362565585687 0.21133277770207326 -0.09211676473247869
0.19798524648573462 0.21967968454722037 -0.09211676473247869
0.15521674857422654 0.22588346666185666 -0.09164678123894562
0.28773329441080675 0.23813123650332804 -0.09089480764929275
0.15867582708662992 0.35273201156642814 -0.09089480764929275
0.4796463541600942 0.39242681743022995 -0.09023683075834647
0.4183887056129959 0.11524935228417563 -0.09023683075834647
0.6130370692946457 0.33144175930938075 -0.09023683075834647
0.21211295030133825 0.3704879879521069 -0.09023683075834647
0.3372507552894494 0.31241682749116273 -0.0890148736751605
0.23783984673733763 0.18239119417030783 -0.0890148736751605
0.4714028436835246 0.4590986758228291 -0.08835689678421423
0.4774280320706183 0.19288122574596558 -0.08835689678421423
0.573680651546188 0.1810188423691913 -0.08835689678421423
0.20366264708761392 0.2091520542920799 -0.08835689678421423
0.27164105959223495 0.3948801312664724 -0.08835689678421423
0.16393024254432945 0.23976677906082314 -0.0871349397010283
0.37438885094843133 0.31241682749116273 -0.0871349397010283
0.44715169541721883 0.19450736863358997 -0.08647696281008202
0.5118402234671086 0.13322152107687957 -0.08647696281008202
0.5763501577894556 0.4005669315382224 -0.08647696281008202
0.16599816991587488 0.2196138868581257 -0.08647696281008202
0.24526558593515993 0.381720593447547 -0.08647696281008202
0.3124920248501281 0.2133725060640067 -0.08525500572689608
0.1565797007054725 0.33937508068021865 -0.08525500572689608
0.6116553178236587 0.24472040508266152 -0.0845970288359498
0.47957115680112905 0.46847954635374894 -0.0845970288359498
0.4415588918441755 0.388488355754423 -0.0845970288359498
0.16412763561161334 0.19697948180957375 -0.0845970288359498
0.16007637789735843 0.2505106017229888 -0.08412704534241675
0.15380679809362746 0.2133725060640067 -0.08337507175276387
0.2134477034229721 0.411451749248448 -0.08337507175276387
0.6019360591773952 0.35628508677753806 -0.0827170948618176
0.4790729742979838 0.4457135459270076 -0.0827170948618176
0.5160700749089059 0.14363635529357208 -0.0827170948618176
0.26472290256742836 0.21432187272094347 -0.0827170948618176
0.228120588091074 0.18295517436254752 -0.08224711136828454
0.16393024254432945 0.33717555793048404 -0.08149513777863167
0.2226499802263493 0.39907238402878725 -0.08149513777863167
0.6145504161438222 0.24963643242501724 -0.08083716088768539
0.5109002564800424 0.45151314223720557 -0.08083716088768539
0.4759804829105365 0.396252483067589 -0.08083716088768539
0.16309367192584062 0.21923790006329932 -0.08083716088768539
0.23298021741420588 0.18189301166716282 -0.08036717739415232
0.1469826377675275 0.2505106017229888 -0.07961520380449942
0.41152694660741324 0.2628899669426494 -0.07961520380449942
0.48325582739042816 0.4405437274981441 -0.07895722691355314
0.4761402772983377 0.18687483669861307 -0.07895722691355314
0.4694477123504271 0.11747707404352226 -0.07895722691355314
0.15684289146185093 0.21988647728437483 -0.07895722691355314
0.1406378606048313 0.32479619271082333 -0.07848724342002011
0.3620094857287706 0.30003746227150196 -0.0777352698303672
0.08964465155649477 0.411451749248448 -0.0777352698303672
0.468423148334525 0.12651955645909826 -0.07707729293942092
0.6032332136195462 0.21661539216938477 -0.07707729293942092
0.4371034483254821 0.47492771988502225 -0.07707729293942092
0.154652768381987 0.3466034268107571 -0.07707729293942092
0.2564793920908586 0.18145122718324164 -0.075855335856235
0.05250655589751285 0.2505106017229888 -0.075855335856235
0.4819398736085355 0.19008952379437927 -0.07519735896528872
0.5752879950940709 0.18674324132042386 -0.07519735896528872
0.5320589133589004 0.4417186862319767 -0.07519735896528872
0.18785240236516193 0.21333490738452415 -0.07519735896528872
0.18839758321766023 0.3758082010989011 -0.07519735896528872
0.2638581329393275 0.39820761440068647 -0.07397540188210278
0.21354170012167875 0.3961866853784943 -0.07397540188210278
0.42394391050655666 0.2042172276099829 -0.0733174249911565
0.5089075264674622 0.1301478290291734 -0.0733174249911565
0.6081868396413848 0.36075932963597274 -0.0733174249911565
0.1583750376507688 0.22279097527440922 -0.0733174249911565
0.14828919187954936 0.3368277701452695 -0.0733174249911565
0.4273935893490892 0.31656208190412427 -0.07209546790797057
0.28773329441080675 0.2752693321623101 -0.07209546790797057
-0.009390270200790387 0.2752693321623101 -0.07209546790797057
0.42665101542930706 0.4886700372359289 -0.07143749101702429
0.43699065228703415 0.18691243537809576 -0.07143749101702429
0.44715169541721883 0.11127329192888596 -0.07143749101702429
0.15899541586223231 0.22160661687070587 -0.07143749101702429
0.12679214688534754 0.2505106017229888 -0.07096750752349122
0.3372507552894494 0.30003746227150196 -0.07021553393383832
0.12942405444913252 0.32479619271082333 -0.07021553393383832
0.557146632243695 0.17261553750482023 -0.06955755704289204
0.5747710132511845 0.39818881506094517 -0.06955755704289204
0.4431850347317999 0.46273634806277497 -0.06955755704289204
0.18550248489749668 0.21070299982073903 -0.06955755704289204
0.18618866079805488 0.36624873684043885 -0.06955755704289204
0.3620094857287706 0.2752693321623101 -0.06833559995970612
0.26296516430161476 0.2505106017229888 -0.06833559995970612
0.42973410714688387 0.09967409930849022 -0.06767762306875984
0.6334907509332045 0.30434251107226473 -0.06767762306875984
0.4146664363442141 0.4959265823760792 -0.06767762306875984
0.17809554503941577 0.21466026083628728 -0.06767762306875984
0.15867582708662992 0.3519800379767753 -0.06767762306875984
0.3620094857287706 0.31241682749116273 -0.0664556659855739
0.05250655589751285 0.2133725060640067 -0.0664556659855739
0.6324097888980784 0.2892278419202418 -0.06579768909462762
0.5608219031631233 0.4128804990687885 -0.06579768909462762
0.44556315120907714 0.48567154254718786 -0.06579768909462762
0.4454221561610172 0.33590660249794474 -0.06579768909462762
0.14872157669359984 0.34602064727877613 -0.06579768909462762
0.05250655589751285 0.36193428836980535 -0.06457573201144169
0.2258270686426327 0.16385504518536406 -0.06457573201144169
0.4986430869687004 0.1278543095807321 -0.06391775512049541
0.6106871518269805 0.23390138506153052 -0.06391775512049541
0.6025376380491174 0.3695574206349114 -0.06391775512049541
0.44232966477356966 0.21327850936530018 -0.06391775512049541
0.15378799875388618 0.22639104883487238 -0.06391775512049541
0.42253396002595744 0.2491758486013548 -0.06344777162696234
0.26296516430161476 0.3510400709897091 -0.06269579803730947
0.46999289320292537 0.11389579982280038 -0.06203782114636319
0.6060907132602272 0.2263346508156484 -0.06203782114636319
0.5971234282036167 0.37711475521092297 -0.06203782114636319
0.44326963176063583 0.21109778595530682 -0.06203782114636319
0.16974863819426866 0.36728270052621154 -0.06203782114636319
0.14885317207178905 0.23345960057760948 -0.06203782114636319
0.26296516430161476 0.3510400709897091 -0.06081586406317723
0.4791105729774666 0.18553068390710867 -0.06015788717223095
0.42860614676240455 0.09438208517130801 -0.06015788717223095
0.5325194971825629 0.14106084574901093 -0.06015788717223095
0.43032628634873543 0.38300834821982754 -0.06015788717223095
0.2285341735653832 0.1937553950439371 -0.06015788717223095
0.13076820724063706 0.3369217668439762 -0.06015788717223095
0.40925222649871335 0.23913700117948877 -0.059687903678697925
0.2134477034229721 0.36193428836980535 -0.05893593008904502
0.5479161564307058 0.16313127060532318 -0.05827795319809874
0.6362918525546615 0.28837247196201155 -0.05827795319809874
0.5824035451861614 0.39559450617664277 -0.05827795319809874
0.44074112056542797 0.3130090066930144 -0.05827795319809874
0.131604777859126 0.2843776122669806 -0.05827795319809874
0.14874037603334112 0.34493968524365004 -0.05827795319809874
0.40309544273343034 0.2505106017229888 -0.057055996114912806
0.1020240167761555 0.411451749248448 -0.057055996114912806
0.4688461334787046 0.46978610046577063 -0.056398019223966527
0.42140599964147807 0.47185402783731606 -0.056398019223966527
0.4669286008250898 0.45212412077879854 -0.056398019223966527
0.43291119556316726 0.3178498366764049 -0.056398019223966527
0.16304667357648736 0.36737669722491806 -0.056398019223966527
0.14321337014939245 0.33939388001996007 -0.056398019223966527
0.39914758138775264 0.24902545388342429 -0.05517606214078059
0.05250655589751285 0.2009931408443461 -0.05517606214078059
0.5938523430886266 0.21441586941965013 -0.054518085249834314
0.6359628641091881 0.2984395183934897 -0.054518085249834314
0.5688022228833148 0.4105305816011232 -0.054518085249834314
0.4359096902519082 0.2612826233947664 -0.054518085249834314
0.20575877346877133 0.19245824060178582 -0.054518085249834314
0.20286367514860765 0.37844010866268624 -0.054518085249834314
0.05250655589751285 0.34955492315014464 -0.05329612816664838
0.41152694660741324 0.3484645614451479 -0.05329612816664838
0.42262795672466413 0.3803106429669478 -0.0526381512757021
0.41244811425473815 0.3198895650383383 -0.0526381512757021
0.40795507205656206 0.2393249945769021 -0.0526381512757021
0.430034896582745 0.3289038484443023 -0.0526381512757021
0.20228089561662668 0.3909322699207948 -0.0526381512757021
0.14800720178342952 0.21541223442594015 -0.0526381512757021
0.26296516430161476 0.37431365358946594 -0.05141619419251613
0.4174863373054124 0.2509523862069098 -0.050758217301569854
0.42294754550026653 0.2097254341541903 -0.050758217301569854
0.46687220280586583 0.1319525656443404 -0.050758217301569854
0.4272243952914173 0.47969335250944745 -0.050758217301569854
0.13822214544807135 0.314240363446071 -0.050758217301569854
0.17317951769705991 0.3801320492394052 -0.050758217301569854
0.1020240167761555 0.40145990017593525 -0.04953626021838393
0.4712994473149471 0.19294702343506015 -0.04887828332743765
0.47179762981809237 0.13466907023696148 -0.04887828332743765
0.4289821335572309 0.09186297364597083 -0.04887828332743765
0.40893263772311084 0.19433817457591807 -0.04887828332743765
0.2061347602635977 0.38779278018399393 -0.04887828332743765
0.14604267078046132 0.2031550649145982 -0.04887828332743765
0.05250655589751285 0.31241682749116273 -0.047656326244251715
0.4201276445390682 0.24481440178136807 -0.046998349353305435
0.41971405906475917 0.2114643730802626 -0.046998349353305435
0.468112959228793 0.18585967235258177 -0.046998349353305435
0.4291701269546442 0.3340360681936832 -0.046998349353305435
0.21417147800301298 0.20493160252015308 -0.046998349353305435
0.20228089561662668 0.2022056982576613 -0.046998349353305435
0.1108503067847062 0.32479619271082333 -0.0457763922701195
0.3967694649104754 0.20245948934416916 -0.04511841537917322
0.4673891846487521 0.18976993501877676 -0.04511841537917322
0.44817625943312084 0.12228030534743003 -0.04511841537917322
0.4257956454710768 0.2459893605152007 -0.04511841537917322
0.15842203600012206 0.3750092291598949 -0.04511841537917322
0.13235675144877887 0.2678153939548758 -0.04511841537917322
-0.009390270200790387 0.2752693321623101 -0.04389645829598729
0.39914758138775264 0.2752693321623101 -0.04389645829598729
0.4067237153035055 0.24567917140946888 -0.04323848140504101
0.41066217697931245 0.20950924174716498 -0.04323848140504101
0.42236476596828554 0.2361009078112653 -0.04323848140504101
0.20944344405807044 0.19273083102803498 -0.04323848140504101
0.13684039397708414 0.2148482542337006 -0.04323848140504101
0.10404494579834767 0.3032145506877855 -0.04201652432185504
0.26296516430161476 0.2628899669426494 -0.04201652432185504
0.57456422051403 0.3937051725326398 -0.04135854743090876
0.49294688702707984 0.4625389549954911 -0.04135854743090876
0.4348569272263941 0.46435309128052865 -0.04135854743090876
0.47055687339516505 0.46553744968423183 -0.04135854743090876
0.13545864250609702 0.2762844965083414 -0.04135854743090876
0.3620094857287706 0.2876486973819707 -0.04013659034772283
0.07408819792055078 0.30003746227150196 -0.04013659034772283
0.5380183040568997 0.4288035398296884 -0.03947861345677655
0.4946294279339279 0.4616083876782956 -0.03947861345677655
0.42560765207366363 0.4946294279339279 -0.03947861345677655
0.4173265429176112 0.34191299154529725 -0.03947861345677655
0.13008203134007887 0.20038216230275316 -0.03947861345677655
0.38359112775180854 0.30003746227150196 -0.03825665637359062
0.1020240167761555 0.411451749248448 -0.03825665637359062
0.6086004251156937 0.23649569394583309 -0.03759867948264434
0.42256215903556943 0.09149638652101504 -0.03759867948264434
0.47790741523402186 0.10946855531371896 -0.03759867948264434
0.49091655833501696 0.4559967847655108 -0.03759867948264434
0.11934760834778392 0.3861384382867577 -0.03759867948264434
0.09347971686372451 0.18342515785608055 -0.03759867948264434
0.05250655589751285 0.34955492315014464 -0.036376722399458404
0.37438885094843133 0.2505106017229888 -0.036376722399458404
0.08968225023597746 0.311937444327759 -0.035718745508512124
0.11264564373000249 0.2645255095001445 -0.035718745508512124
0.6291951018023122 0.27811743213312035 -0.035718745508512124
0.6128490758972325 0.23632649988816118 -0.035718745508512124
0.6132344623619298 0.3536719785534942 -0.035718745508512124
0.41317188883477907 0.3439339205674893 -0.035718745508512124
0.07745327973424736 0.18531449150008336 -0.03524876201497907
0.26296516430161476 0.29854291476206696 -0.0344967884253262
0.0970797904241878 0.38193678585457214 -0.03383881153437992
0.1071280375159244 0.23701267578871937 -0.03383881153437992
0.4199772498211376 0.09677900098832655 -0.03383881153437992
0.44694490268006426 0.11856743574851894 -0.03383881153437992
0.505392049935835 0.12310747629604829 -0.03383881153437992
0.409120631120524 0.25130017399212434 -0.03383881153437992
0.3372507552894494 0.2628899669426494 -0.03261685445119395
0.06170883270089006 0.1762344104050248 -0.03261685445119395
0.614334223736797 0.3370439625522948 -0.03195887756024767
0.6370908244936675 0.2933354976537207 -0.03195887756024767
0.6290259077446403 0.2592710940424449 -0.03195887756024767
0.5861634131344257 0.37494343147080034 -0.03195887756024767
0.2027508791101597 0.3818521888257362 -0.03195887756024767
0.14777221003666308 0.19950799300478164 -0.03195887756024767
0.250585799081954 0.36193428836980535 -0.030736920477061738
0.4066297186047988 0.34932933107324876 -0.03007894358611546
0.4687615364498688 0.3909792682701482 -0.03007894358611546
0.47048167603619967 0.3982734120897811 -0.03007894358611546
0.4604898269636869 0.4544646385765931 -0.03007894358611546
0.40802086974565677 0.23298021741420574 -0.03007894358611546
0.20056075603029577 0.19186606139993417 -0.03007894358611546
0.1113860879673339 0.19965838772271227 -0.03007894358611546
0.09817015212918448 0.19864322337668083 -0.03007894358611546
0.06170883270089006 0.2628899669426494 -0.028856986502929526
0.4203532366159641 0.47421334497485207 -0.028199009611983246
0.4907755632869569 0.11977999316183427 -0.028199009611983246
0.48432738975568357 0.11273024075883845 -0.028199009611983246
0.402409266832872 0.23617610517023055 -0.028199009611983246
0.48007873897414455 0.1891683561470545 -0.028199009611983246
0.1877490059965847 0.1921574511659247 -0.028199009611983246
0.09583903400126048 0.33488203848204273 -0.028199009611983246
0.3372507552894494 0.2628899669426494 -0.027729026118450184
0.5748462106101498 0.3931505920102708 -0.026319075637851033
0.46972970244654666 0.18859497628494412 -0.026319075637851033
0.4712054506162406 0.18321836511892595 -0.026319075637851033
0.40517276977484645 0.29796953489995653 -0.026319075637851033
0.3836475257710325 0.3835723284120671 -0.026319075637851033
0.44811986141389687 0.11030512593220793 -0.026319075637851033
0.08804670767848251 0.17774775725420125 -0.026319075637851033
-0.009390270200790387 0.30003746227150196 -0.025849092144317975
0.476187275647691 0.1312193913944288 -0.024439141663718824
0.37587399878799577 0.18976993501877676 -0.024439141663718824
0.37397526547412224 0.39624308339771824 -0.024439141663718824
0.467812169792932 0.3979256243045666 -0.024439141663718824
0.40153509753490063 0.24172191039392063 -0.024439141663718824
0.46418389722285675 0.34053124007431 -0.024439141663718824
0.07924861667954365 0.1840455360675442 -0.024439141663718824
0.08350666713095316 0.1918002637108395 -0.024439141663718824
0.26296516430161476 0.3510400709897091 -0.023969158170185762
0.4654716519951373 0.3905844821355804 -0.022559207689586577
0.6370626254840557 0.29407807157350285 -0.022559207689586577
0.639985922813831 0.2857969624174504 -0.022559207689586577
0.48045472576897114 0.4373102410626366 -0.022559207689586577
0.4000311503555947 0.3457292575127856 -0.022559207689586577
0.09846154189517489 0.3990159860095633 -0.022559207689586577
0.08200271995164742 0.38815936730894973 -0.022559207689586577
0.26296516430161476 0.29854291476206696 -0.021337250606400644
0.3992321784165886 0.37511262552847224 -0.020679273715454364
0.46862994107167943 0.3932915870583307 -0.020679273715454364
0.40217427508610554 0.4938304559949219 -0.020679273715454364
0.39323518903910676 0.29711416494172643 -0.020679273715454364
0.46403350250492625 0.34462009646804764 -0.020679273715454364
0.4549440217399968 0.2083906810325563 -0.020679273715454364
0.10407314480795965 0.17614041370631814 -0.020679273715454364
0.021779035090321686 0.23813123650332804 -0.018799339741322155
0.43769562752733376 0.4775972261282902 -0.018799339741322155
0.6034212070169596 0.36178389365187474 -0.018799339741322155
0.606513698404407 0.21923790006329932 -0.018799339741322155
0.48647991415606484 0.4160293884754599 -0.018799339741322155
0.40121550875929807 0.20779850183070478 -0.018799339741322155
0.07506576358709953 0.3906878785041576 -0.018799339741322155
0.11378300378435258 0.37839311031333284 -0.018799339741322155
0.0688901804820751 0.18577507532374582 -0.016919405767189942
0.10577448505454928 0.23064909928628188 -0.016919405767189942
0.38678701550783334 0.2006171540495196 -0.016919405767189942
0.39528431707091094 0.23293321906485248 -0.016919405767189942
0.4225151606862162 0.10973174607009753 -0.016919405767189942
0.5250655589751285 0.44197247731848455 -0.016919405767189942
0.5126485950759853 0.4421980693953804 -0.016919405767189942
0.027954618195346125 0.30003746227150196 -0.016073435478830445
0.11986459019067022 0.39086647223170023 -0.01503947179305773
0.07861883879820943 0.18648005056404543 -0.01503947179305773
0.38655202376106673 0.35609709338012474 -0.01503947179305773
0.39473913621841267 0.3074538017994536 -0.01503947179305773
0.43742303710108466 0.11730787998585035 -0.01503947179305773
0.5659447232426338 0.41272070468098715 -0.01503947179305773
0.26296516430161476 0.23813123650332804 -0.013441527915045328
0.07673890482407718 0.3982734120897811 -0.013159537818925484
0.1012908425262439 0.2305739019273165 -0.013159537818925484
0.3831117445884048 0.3739000681151569 -0.013159537818925484
0.3957637002343147 0.2549284465621995 -0.013159537818925484
0.5803544171543571 0.19070050233597222 -0.013159537818925484
0.47339557369610463 0.44185028161016593 -0.013159537818925484
0.11617991960137111 0.20724392130833566 -0.011279603844793273
0.38463449110745196 0.28415202019008473 -0.011279603844793273
0.3811284142456953 0.38655202376106673 -0.011279603844793273
0.47920456967617314 0.11983639118105824 -0.011279603844793273
0.42157519369915 0.4842427927268475 -0.011279603844793273
0.48855724119748095 0.14436012987361296 -0.011279603844793273
0.3690686378016371 0.2628899669426494 -0.01080962035126021
0.11080330843535294 0.18634845518585608 -0.00939966987066106
0.11308742821392354 0.2849321927893496 -0.00939966987066106
0.37572360407006516 0.34420651099373856 -0.00939966987066106
0.3957073022150907 0.30965332454918837 -0.00939966987066106
0.39662846986241546 0.31783103733666346 -0.00939966987066106
0.5128835868227518 0.13325911975636226 -0.00939966987066106
0.40089591998369556 0.4942346417993601 -0.00939966987066106
0.3620094857287706 0.2876486973819707 -0.008177712787475127
0.10490971542644847 0.36795947675689905 -0.007519735896528848
0.08062096848066018 0.3913740544047158 -0.007519735896528848
0.3836569254409032 0.37670116973661394 -0.007519735896528848
0.3880935696198552 0.2581525333278363 -0.007519735896528848
0.5276692675293018 0.43469713283859285 -0.007519735896528848
0.5032395255354537 0.12372785450751193 -0.007519735896528848
0.3642090084785054 0.32479619271082333 -0.007049752402995786
0.10159163196210502 0.3259053537555614 -0.005639801922396636
0.10866958337471283 0.3063916391040689 -0.005639801922396636
0.3875013904180035 0.35395396864961404 -0.005639801922396636
0.38177699146677097 0.3384069146835406 -0.005639801922396636
0.5061816222049705 0.4482890554715688 -0.005639801922396636
0.5110318518582315 0.12828669439478257 -0.005639801922396636
0.3593493791553736 0.322530872271994 -0.0051698184288635745
0.009399669870661093 0.31241682749116273 -0.0044178448392106695
0.09663800594026663 0.2962681946533669 -0.0037598679482643907
0.3921166283244981 0.21572242353167198 -0.0037598679482643907
0.4015444972047712 0.2750719390950262 -0.0037598679482643907
0.5833435121732274 0.381720593447547 -0.0037598679482643907
0.3986587985544782 0.08828169942524895 -0.0037598679482643907
0.55181701942703 0.41098176575491496 -0.0037598679482643907
0.27535392919114604 0.22575187128366744 -0.0025379108650784576
0.10354676329520252 0.21119178265401334 -0.0018799339741321786
0.3756578063809706 0.25176075781578666 -0.0018799339741321786
0.4000593493652067 0.20559897908097 -0.0018799339741321786
0.5746018191935126 0.19048430992894694 -0.0018799339741321786
0.4690341268761179 0.44877783830484325 -0.0018799339741321786
0.4958701843568552 0.28465960236310045 -0.0018799339741321786
0.02774782545819153 0.23813123650332804 -6.579768909462458E-4
0.11953560174519712 0.3983016110993931 3.33943357257066E-17
0.4107655733478898 0.48582193726511863 3.33943357257066E-17
0.5656345341369018 0.1705570098031455 3.33943357257066E-17
0.3924926151193246 0.3802072465983705 3.33943357257066E-17
0.3726593116922297 0.23936259325638465 3.33943357257066E-17
0.28773329441080675 0.34955492315014464 0.0012219570831859662
0.198333034270949 0.18577507532374582 0.0018799339741322454
0.37550741166304 0.23435256921532227 0.0018799339741322454
0.3962994814169424 0.3816265967488403 0.0018799339741322454
0.4882470520917493 0.15217125553613237 0.0018799339741322454
0.6399389244644778 0.2970953656019852 0.0018799339741322454
0.0648483224376909 0.30003746227150196 0.0031018910573181783
0.18822838915998832 0.19264623399919903 0.0037598679482644575
0.09199456902416005 0.27154706289352826 0.0037598679482644575
0.3502222997109617 0.1994045966362044 0.0037598679482644575
0.41017339414603815 0.09641241386337075 0.0037598679482644575
0.5327450892594587 0.4342365490149304 0.0037598679482644575
0.47485252252605714 0.12288188421915242 0.0037598679482644575
0.26296516430161476 0.37431365358946594 0.0049818250314504235
0.18459071692004247 0.3937145722025105 0.005639801922396703
0.3579394286747744 0.2426430780412454 0.005639801922396703
0.4267262127882723 0.2724588308709824 0.005639801922396703
0.47893197924992403 0.45083636600651794 0.005639801922396703
0.6005449080365372 0.21190615756418366 0.005639801922396703
0.2134477034229721 0.2133725060640067 0.006861759005582635
0.09801975741125385 0.36685971538203177 0.007519735896528915
0.09066921557239692 0.3067300272194127 0.007519735896528915
0.3674330952441422 0.23513274181458713 0.007519735896528915
0.3851608726202089 0.38508567526124354 0.007519735896528915
0.494159444440395 0.14981193839859638 0.007519735896528915
0.6287063189690378 0.25976927654558996 0.007519735896528915
0.28773329441080675 0.2628899669426494 0.008741692979714848
0.12112414595333881 0.3935359784749679 0.009399669870661126
0.09048122217498372 0.37362747768890775 0.009399669870661126
0.3542453584156046 0.24272767507008136 0.009399669870661126
0.38227517396991595 0.3872851980109783 0.009399669870661126
0.41318128850464964 0.09651581023194798 0.009399669870661126
0.5419943644121893 0.43101246224929374 0.009399669870661126
0.2134477034229721 0.2009931408443461 0.010621626953847059
0.14278098533534198 0.18973233633929407 0.011279603844793339
0.17768195956510657 0.3807430277809981 0.011279603844793339
0.3601577507642505 0.25230593866828505 0.011279603844793339
0.48536135344145614 0.13494166066321062 0.011279603844793339
0.614362422746409 0.341640401119048 0.011279603844793339
0.4443035954464086 0.46601683284763556 0.011279603844793339
0.10658285666342612 0.2706258952462035 0.013159537818925551
0.1418316186784052 0.38883614353963736 0.013159537818925551
0.19124568318847063 0.19439457259514203 0.013159537818925551
0.3554673154987905 0.18164862025052553 0.013159537818925551
0.49214791508807354 0.4356746985051416 0.013159537818925551
0.6294206938792081 0.26179960523765267 0.013159537818925551
0.28773329441080675 0.32479619271082333 0.013629521312458611
0.0887704822585234 0.27229903648318116 0.015039471793057795
0.13393589598704989 0.17894151532777516 0.015039471793057795
0.1927308310280351 0.3812318106142725 0.015039471793057795
0.3565388778640459 0.39768123288792945 0.015039471793057795
0.4941312454307829 0.15438957762560843 0.015039471793057795
0.6241004807324139 0.2513471723414776 0.015039471793057795
0.28773329441080675 0.33717555793048404 0.015509455286590824
0.08157033513759694 0.2961177999354363 0.016919405767190008
0.11745827470378098 0.2090016595741494 0.016919405767190008
0.10211801347486216 0.22621245510732976 0.016919405767190008
0.4209548154876863 0.38830976202688033 0.016919405767190008
0.6219855550115151 0.2553890303858618 0.016919405767190008
0.39420335503578496 0.49236410749509874 0.016919405767190008
0.2258270686426327 0.16385504518536406 0.01738938926072307
0.12936765642990855 0.17997547901354788 0.01879933974132222
0.12801410396853344 0.4055769555792848 0.01879933974132222
0.35858800589585005 0.24623375193183797 0.01879933974132222
0.41029558985435666 0.3241946138391011 0.01879933974132222
0.46644921766168607 0.4502159877950543 0.01879933974132222
0.5947359120564686 0.20554258106174603 0.01879933974132222
0.26296516430161476 0.37431365358946594 0.019269323234855282
0.08842269447330887 0.26680022960884436 0.020679273715454433
0.09201336836390146 0.1755294351647252 0.020679273715454433
0.10130024219611461 0.18324656412853793 0.020679273715454433
0.39679766392008736 0.3756672060508412 0.020679273715454433
0.5440152934343815 0.4180973158470053 0.020679273715454433
0.3974650404809043 0.11654650672632677 0.020679273715454433
0.5500122828118633 0.40917702913974796 0.020679273715454433
0.09378990596945634 0.31463514958063876 0.022559207689586643
0.08303668363742013 0.31412756740762304 0.022559207689586643
0.17000242928077652 0.3810626165566006 0.022559207689586643
0.39867759789421964 0.2065389460680362 0.022559207689586643
0.5888799177270468 0.2105620047726791 0.022559207689586643
0.44465138323162295 0.45690855274296505 0.022559207689586643
0.49336047250138876 0.13803415205065805 0.022559207689586643
0.083788657227073 0.27747825458191544 0.02443914166371889
0.09660040726078406 0.2543268676904771 0.02443914166371889
0.05621942549642395 0.28414262052021416 0.02443914166371889
0.3453814697275712 0.2743669638547266 0.02443914166371889
0.40292624867575844 0.20271328043067702 0.02443914166371889
0.4854929488196455 0.140919850700951 0.02443914166371889
0.6332275601768258 0.3110350760201755 0.02443914166371889
0.26296516430161476 0.34955492315014464 0.024909125157251917
0.07976559852243008 0.26780599428500523 0.026319075637851103
0.0803859767338936 0.2623165870805391 0.026319075637851103
0.1051729061828269 0.39502112631453234 0.026319075637851103
0.42629382797422194 0.3944665457921634 0.026319075637851103
0.622709329591556 0.26648064083324197 0.026319075637851103
0.47666665881109455 0.44043093145969614 0.026319075637851103
0.5905718583037659 0.21827913373649185 0.026319075637851103
0.07552634741076185 0.2846690020329712 0.028199009611983312
0.152819832757208 0.18804039576257514 0.028199009611983312
0.05352172024354429 0.2781738301523443 0.028199009611983312
0.3505230891468228 0.2789540027516092 0.028199009611983312
0.406545121575963 0.20444281968687877 0.028199009611983312
0.4696921037670641 0.1346314715574788 0.028199009611983312
0.6224555385050483 0.3320809368605857 0.028199009611983312
0.3124920248501281 0.37431365358946594 0.028668993105516342
0.06915337123845365 0.3072752080719111 0.03007894358611556
0.15316762054242253 0.3898513078856688 0.03007894358611556
0.11522115327456364 0.25498484458142345 0.03007894358611556
0.3484927604547601 0.2855243719912013 0.03007894358611556
0.40754148658225303 0.37201073447115407 0.03007894358611556
0.42285354880156 0.10333057088817735 0.03007894358611556
0.5188993755399751 0.4433260297798597 0.03007894358611556
0.26296516430161476 0.2505106017229888 0.030548927079648586
0.07307303357451934 0.26950733453159487 0.031958877560247734
0.05616302747719998 0.30298895861088965 0.031958877560247734
0.10615047184937565 0.39523731872155754 0.031958877560247734
0.31905299441984947 0.20143492532826715 0.031958877560247734
0.42365252074056614 0.11711048691856646 0.031958877560247734
0.5399734353899971 0.4238687131475913 0.031958877560247734
0.5528697824525443 0.17720257640170284 0.031958877560247734
0.02774782545819153 0.33717555793048404 0.03242886105378083
0.10722203421463106 0.25192055220358783 0.03383881153437998
0.09952370459055959 0.2527759221618181 0.03383881153437998
0.19632150491862754 0.1962463075596622 0.03383881153437998
0.3864298280527482 0.2025816850524878 0.03383881153437998
0.5880621464482995 0.2114173747309092 0.03383881153437998
0.46545285265539604 0.44342942614843706 0.03383881153437998
0.626675990276975 0.283644438017069 0.03383881153437998
0.06732043561367468 0.2838700300939649 0.03571874550851216
0.1946201646720379 0.18729782184279284 0.03571874550851216
0.14375855100189072 0.4049189786883385 0.03571874550851216
0.1149861615277972 0.20819328796527242 0.03571874550851216
0.3970702543463365 0.37596799548670234 0.03571874550851216
0.47961815515048234 0.44094791330258243 0.03571874550851216
0.6012592829467076 0.21715117335201248 0.03571874550851216
-0.009390270200790387 0.2752693321623101 0.036188729002045256
0.15651390301637783 0.3867870155078332 0.037598679482644407
0.075244357314642 0.267918790323453 0.037598679482644407
0.04782552030192359 0.3067394268892834 0.037598679482644407
0.11776846380951281 0.3160920984105911 0.037598679482644407
0.399081783698658 0.20201770486024812 0.037598679482644407
0.46242615895704314 0.11683789649231732 0.037598679482644407
0.5216440791422081 0.4399327489565511 0.037598679482644407
0.26296516430161476 0.34955492315014464 0.038068662976177434
0.05558964761508972 0.3057618612227347 0.039478613456776654
0.11272084108896788 0.26292756562213204 0.039478613456776654
0.10372535702274513 0.2529075175400073 0.039478613456776654
0.12636916174116777 0.2327452256674393 0.039478613456776654
0.3249747864383659 0.18507949975331692 0.039478613456776654
0.4417186862319767 0.4578673190697725 0.039478613456776654
0.615001600297614 0.24608335721390734 0.039478613456776654
0.4318396331979119 0.45290429337806337 0.039478613456776654
0.2230071676814344 0.367047708779445 0.04070057053996255
0.12079515750786571 0.273605590595203 0.04135854743090883
0.08625137073318621 0.26013586367054575 0.04135854743090883
0.1400550810728502 0.20665174210648413 0.04135854743090883
0.046838554965504264 0.29359868841009923 0.04135854743090883
0.3751220251983429 0.2036532474177432 0.04135854743090883
0.5595717470703256 0.39999355167611206 0.04135854743090883
0.40691170870091864 0.12190431855260367 0.04135854743090883
0.5132219749380956 0.17368709987007563 0.04135854743090883
0.26296516430161476 0.2876486973819707 0.0425805045140948
0.07090170983439656 0.3060250519791131 0.04323848140504108
0.13009143100994958 0.2844716089656873 0.04323848140504108
0.14870277735385842 0.17050061178392154 0.04323848140504108
0.126998939622502 0.2334314015679975 0.04323848140504108
0.40590594402475794 0.3948801312664724 0.04323848140504108
0.4227595521028533 0.10507890948412024 0.04323848140504108
0.4456383485680424 0.468667539751162 0.04323848140504108
0.511605231720342 0.3858470485207671 0.04323848140504108
0.29765934579422487 0.411451749248448 0.04446043848822698
0.2940404728940203 0.20810869093643647 0.04446043848822698
0.05975370136779257 0.26465710487833366 0.04511841537917326
0.03605713362385594 0.2798093727098393 0.04511841537917326
0.11825724664278725 0.3125672222090932 0.04511841537917326
0.1284276894428425 0.23579071870553348 0.04511841537917326
0.387849178203218 0.1907475006853255 0.04511841537917326
0.4930784824052689 0.4458169422955849 0.04511841537917326
0.5183447950176061 0.14118304145732957 0.04511841537917326
0.2961647982847897 0.3781581185665664 0.04558839887270635
0.228120588091074 0.36193428836980535 0.04634037246235922
0.10668625303200335 0.30953112884086975 0.0469983493533055
0.07752847709321274 0.3169004700194681 0.0469983493533055
0.2036908460972259 0.3956321048561253 0.0469983493533055
0.13093740129830897 0.23222824382455287 0.0469983493533055
0.19314441650234415 0.19306921914337877 0.0469983493533055
0.31156145753293263 0.38762358612632214 0.0469983493533055
0.5161264729281299 0.14453872360115558 0.0469983493533055
0.42834295600602595 0.4765538627726466 0.0469983493533055
0.250585799081954 0.16385504518536406 0.047468332846838525
0.28773329441080675 0.22575187128366744 0.048220306436491465
0.11257984604090795 0.2792453925175997 0.048878283327437745
0.11805045390563265 0.27426356748614933 0.048878283327437745
0.05750718026870452 0.32068853697734445 0.048878283327437745
0.13368210490054203 0.23233164019313024 0.048878283327437745
0.3028479635628297 0.19664109369422994 0.048878283327437745
0.3862794333348176 0.38620423597585224 0.048878283327437745
0.4288975365283951 0.10575568571480787 0.048878283327437745
0.514152542255291 0.44174688524158867 0.048878283327437745
0.29375848279790046 0.36889004407409454 0.04934826682097077
0.2864455396385262 0.36193428836980535 0.050100240410623643
0.08520800737754279 0.2667344319197498 0.05075821730156992
0.1663083590216067 0.18932815053485572 0.05075821730156992
0.06904997486987642 0.25279472150155935 0.05075821730156992
0.1213309386904934 0.3066078315110942 0.05075821730156992
0.3173986525226131 0.18319956577918467 0.05075821730156992
0.5143405356527043 0.18173321727936148 0.05075821730156992
0.5947641110660807 0.36356043125742976 0.05075821730156992
0.5981009938701654 0.34735540040040996 0.05075821730156992
0.2499278221910078 0.1747680619052016 0.05122820079510302
0.2440530285218446 0.40375341962437655 0.05198017438475589
