0.19730391011662796 0.5555598312775275 -0.060178508565348704
0.25386150842084126 0.24724187247865292 -0.060178508565348704
0.6652581125691082 0.4315309051496226 -0.060178508565348704
0.25887978405035855 0.4542253427018091 -0.060178508565348704
0.3300128211240435 0.41809783806817097 -0.060178508565348704
0.25493248187836026 0.37268856346936885 -0.060178508565348704
0.43513141591632887 0.4929639826223505 -0.060178508565348704
0.4389971201106115 0.33589807526679044 -0.060178508565348704
0.4538989507909461 0.49431034925465994 -0.060178508565348704
0.30897074262060037 0.5205644985846952 -0.0597297196879122
0.4941879522880864 0.4265228292673197 -0.0597297196879122
0.3270752939262774 0.3727905609415136 -0.0597297196879122
0.30897074262060037 0.30561502578704114 -0.0597297196879122
0.7119933543057908 0.35935749386006194 -0.0597297196879122
0.5373532824997059 0.6011629010734045 -0.0597297196879122
0.3530846493231653 0.5839151285337427 -0.058138559122455524
0.16362434481446153 0.30953172871739604 -0.058138559122455524
0.6235207469675137 0.3481071726825061 -0.058138559122455524
0.2615725173149775 0.5692478920393409 -0.058138559122455524
0.24282538193478911 0.26214370315898755 -0.058138559122455524
0.6603418344117357 0.4345500303251044 -0.058138559122455524
0.25986915953016165 0.5767345064947589 -0.058138559122455524
0.19835448407971787 0.2737306159946209 -0.058138559122455524
0.6324557255273858 0.3519524773823597 -0.058138559122455524
0.3241071674868678 0.5905551639703601 -0.058138559122455524
0.15234342439526233 0.31193886906001006 -0.058138559122455524
0.635566648427798 0.3493005431065985 -0.058138559122455524
0.25914497747793463 0.37268856346936885 -0.058138559122455524
0.3360204722333639 0.33082880090120087 -0.058138559122455524
0.338407213081549 0.4900672544134422 -0.058138559122455524
0.4351110164219 0.4930659800944951 -0.058138559122455524
0.4778887562393699 0.37244376953622166 -0.058138559122455524
0.4838046096237601 0.45222619224777383 -0.058138559122455524
0.4764301923877013 0.39670896815943607 -0.058138559122455524
0.4836108144266852 0.4741046500228031 -0.05651679931535546
0.4601513958334137 0.3265959058071975 -0.05651679931535546
0.3267795012570579 0.44157765615587147 -0.05651679931535546
0.631384752069867 0.3190582926157073 -0.05651679931535546
0.6179516849884154 0.5339975656661468 -0.05651679931535546
0.49132182332082136 0.5647498035177614 -0.05609860967956235
0.1350650526139571 0.44900307212800256 -0.05609860967956235
0.47241149198520166 0.2560238548303081 -0.05609860967956235
0.5060298588040812 0.5554272345637397 -0.05609860967956235
0.14057291610976874 0.3672724976984874 -0.05609860967956235
0.5900247771152078 0.3201394658204406 -0.05609860967956235
0.44394399750962743 0.5805186127113255 -0.05609860967956235
0.1280068275415468 0.41264097330843175 -0.05609860967956235
0.40758189869005657 0.24051003931710546 -0.05609860967956235
0.6543443830496297 0.4543477396683827 -0.05609860967956235
0.15706590735555997 0.5205746983319096 -0.05609860967956235
0.34122234331274154 0.2342065955385656 -0.05609860967956235
0.26422445159073854 0.37147479355084745 -0.05609860967956235
0.31293844428702766 0.46345611393090075 -0.05609860967956235
0.3201394658204406 0.39542380001041333 -0.05609860967956235
0.31319343796738924 0.4636499091279755 -0.05609860967956235
0.45881522894831867 0.4371917648536511 -0.05609860967956235
0.4389461213745392 0.3307268034290562 -0.05609860967956235
0.43332606065936846 0.48854749207848674 -0.05609860967956235
0.602621464925073 0.5014603720520007 -0.05405866023666917
0.1468661601410941 0.48915947691135475 -0.05405866023666917
0.35957168855156574 0.24131581934704835 -0.05405866023666917
0.5858224812628477 0.5105687463145187 -0.05405866023666917
0.13891035731381085 0.4507472289016762 -0.05405866023666917
0.4815504654893631 0.2620519054340574 -0.05405866023666917
0.5497459753652819 0.5446869007469068 -0.05405866023666917
0.13777818537300507 0.476685186068063 -0.05405866023666917
0.34631201717275995 0.23754191287769594 -0.05405866023666917
0.6679100468448692 0.43202049301591683 -0.05405866023666917
0.19546795561802402 0.5557740259690315 -0.05405866023666917
0.26100133147096743 0.24413094957824089 -0.05405866023666917
0.3123264594541597 0.3979839365612443 -0.05405866023666917
0.3119592685544389 0.3674254939067044 -0.05405866023666917
0.31998646961222366 0.4547965285458192 -0.05405866023666917
0.3119592685544389 0.36346799198749175 -0.05405866023666917
0.4799185059350486 0.39616838155706924 -0.05405866023666917
0.4297663488815198 0.33272595388309145 -0.05405866023666917
0.4361513906377755 0.4975436691216457 -0.05405866023666917
0.29553767553914884 0.5071314315032436 -0.053314078690013166
0.4935861672024329 0.38622362802296506 -0.053314078690013166
0.4660774489650184 0.35935749386006194 -0.053314078690013166
0.30897074262060037 0.3174365328086072 -0.053314078690013166
0.6716941530614362 0.35935749386006194 -0.053314078690013166
0.49704388150813683 0.6011629010734045 -0.053314078690013166
0.35541019168806365 0.5853124939021245 -0.05201871079377599
0.15148664562924716 0.32579012577725475 -0.05201871079377599
0.6122806255371722 0.33300134705788204 -0.05201871079377599
0.31133708397435644 0.579100847848515 -0.05201871079377599
0.1843094321653984 0.29184536704751224 -0.05201871079377599
0.6524982288038114 0.3898445382841005 -0.05201871079377599
0.33456190838169525 0.5885968125051826 -0.05201871079377599
0.1485083194426231 0.32328098796249605 -0.05201871079377599
0.5694212877419866 0.2928347425273154 -0.05201871079377599
0.4628951278341051 0.5818241803547773 -0.05201871079377599
0.12834341919962416 0.3654161437054546 -0.05201871079377599
0.569013297853408 0.2877246691728681 -0.05201871079377599
0.29798561487062064 0.45478632879860464 -0.05201871079377599
0.31427461117212274 0.3619788288941797 -0.05201871079377599
0.3192826870544255 0.48831289789255405 -0.05201871079377599
0.3091543380704607 0.3987795168439725 -0.05201871079377599
0.48300902934103174 0.43993549685434247 -0.05201871079377599
0.47981650846290386 0.3605814635257979 -0.05201871079377599
0.4782559471390907 0.4545925336015299 -0.05201871079377599
0.3512894938134193 0.4936983644217921 -0.049978761350882826
0.3081649625906576 0.3324913596971588 -0.049978761350882826
0.33657125858294507 0.4130897621858682 -0.049978761350882826
0.49704388150813683 0.22501662329833189 -0.049978761350882826
0.6985602872243392 0.43995589634877136 -0.049978761350882826
0.6647787244500283 0.40987684181331147 -0.049978761350882826
0.22280327815279266 0.5621284684836436 -0.049978761350882826
0.20919681536869514 0.270272901688917 -0.049978761350882826
0.660392833147808 0.39430182781682205 -0.049978761350882826
0.2136337054069878 0.5536320790539936 -0.049978761350882826
0.264081655129736 0.25451429224256716 -0.049978761350882826
0.6608926207613168 0.4409350720813601 -0.049978761350882826
0.2297493060058439 0.5690846960839095 -0.049978761350882826
0.1998538469202444 0.27107868171885974 -0.049978761350882826
0.6498564942752645 0.3690676532082334 -0.049978761350882826
0.34079395392973394 0.5932376974877647 -0.049978761350882826
0.1471211538214558 0.31727333685317566 -0.049978761350882826
0.6384225776478485 0.3478419792549299 -0.049978761350882826
0.3254331346247483 0.4093464549581592 -0.049978761350882826
0.3216082294193236 0.33542888689492495 -0.049978761350882826
0.3192826870544255 0.49536092321775005 -0.049978761350882826
0.30900134186224376 0.4275020049999085 -0.049978761350882826
0.48282543389117133 0.44227123896645515 -0.049978761350882826
0.47320707226793 0.3470769982138451 -0.049978761350882826
0.47842934284173655 0.4546537320848167 -0.049978761350882826
0.46852538829649015 0.5735011866277732 -0.04793881190798965
0.13057716383959214 0.399707693840489 -0.04793881190798965
0.48007150214326555 0.2557280621610886 -0.04793881190798965
0.5302032597023655 0.5479304203611072 -0.04793881190798965
0.13442246853944573 0.399860690048706 -0.04793881190798965
0.5401480132364697 0.2833387778706477 -0.04793881190798965
0.5216048728005707 0.5604761094349001 -0.04793881190798965
0.131362544375106 0.45789725169901685 -0.04793881190798965
0.39224147887949984 0.23719512147240404 -0.04793881190798965
0.6487141225872444 0.4674646145861858 -0.04793881190798965
0.15619892884233044 0.5218700662281469 -0.04793881190798965
0.2898462165934768 0.23715432248354626 -0.04793881190798965
0.2656626159479783 0.45478632879860464 -0.04793881190798965
0.3155801788155744 0.4308781213278967 -0.04793881190798965
0.31896649489077694 0.3615606392583865 -0.04793881190798965
0.314019617491761 0.48889428348377867 -0.04793881190798965
0.47849054132502333 0.38208253065389186 -0.04793881190798965
0.47146291549425645 0.35351303870617307 -0.04793881190798965
0.4833456209991091 0.4560306979587695 -0.04793881190798965
0.4782355476446618 0.41314076092194046 -0.04793881190798965
0.631384752069867 0.5071314315032436 -0.04690863743932859
0.5776524837440608 0.278748891624138 -0.04690863743932859
0.4402006902819184 0.32322998922642376 -0.04690863743932859
0.32601452021597294 0.4668220305116745 -0.04690863743932859
0.47041234153116634 0.4936983644217921 -0.04690863743932859
0.30887894489567014 0.33081860115398637 -0.04690863743932859
0.24410035033659735 0.5708594520992264 -0.04589886246509647
0.19899706815422927 0.27515858060464615 -0.04589886246509647
0.6559559431095152 0.3826639162451164 -0.04589886246509647
0.23456358669107188 0.56353603359924 -0.04589886246509647
0.19357080263613344 0.28326737964014653 -0.04589886246509647
0.6626265777877759 0.41064182285439643 -0.04589886246509647
0.28338977660672 0.5842517201918203 -0.04589886246509647
0.15394478470793344 0.31242845692630444 -0.04589886246509647
0.6238879378672344 0.33546968588378284 -0.04589886246509647
0.39034432589760926 0.5935334901569841 -0.04589886246509647
0.13283130797398915 0.345720431834321 -0.04589886246509647
0.5988577582029351 0.3068083962111337 -0.04589886246509647
0.31551898033228754 0.3964335749846455 -0.04589886246509647
0.3380706214234716 0.3371424444269553 -0.04589886246509647
0.3364794608580149 0.4962381014781941 -0.04589886246509647
0.3087157489402388 0.4274612060110507 -0.04589886246509647
0.4831926247908921 0.3838980856580669 -0.04589886246509647
0.44880927693092765 0.3302270158155474 -0.04589886246509647
0.4374161592923692 0.4901794516328014 -0.04589886246509647
0.5776524837440608 0.5768875027029757 -0.04385891302220329
0.6985602872243392 0.34592442677861046 -0.04385891302220329
0.4621913452763069 0.351697483701998 -0.04385891302220329
0.3258615240077559 0.374402121001399 -0.04385891302220329
0.29553767553914884 0.4936983644217921 -0.04385891302220329
0.4876601140708282 0.35935749386006194 -0.04385891302220329
0.497288675441284 0.5665245595330786 -0.04385891302220329
0.13103615246424313 0.43817094058623984 -0.04385891302220329
0.4737476588702967 0.25286193319382366 -0.04385891302220329
0.48298862984660285 0.5668101524550835 -0.04385891302220329
0.14038932065990836 0.35864351155504937 -0.04385891302220329
0.6081191286736702 0.3303392130349065 -0.04385891302220329
0.4143443310932474 0.5879950274195291 -0.04385891302220329
0.12589547986815228 0.4001360832234966 -0.04385891302220329
0.527000539077023 0.26672338965828285 -0.04385891302220329
0.5689724988645503 0.5418921700101432 -0.04385891302220329
0.12313134837303201 0.43702856889821956 -0.04385891302220329
0.4665874363257417 0.24298857789022063 -0.04385891302220329
0.3112044872605685 0.4547965285458192 -0.04385891302220329
0.3359388742556482 0.32946203477446245 -0.04385891302220329
0.3383970133343345 0.49056704202695106 -0.04385891302220329
0.3085627527320218 0.39886111482168835 -0.04385891302220329
0.4624973376927409 0.3834288972862014 -0.04385891302220329
0.431653302116196 0.3364182623747282 -0.04385891302220329
0.4369571706677183 0.49743147190228665 -0.04385891302220329
0.6634731568065765 0.4339686447338798 -0.04181896357931011
0.21568385459709538 0.5606291056431172 -0.04181896357931011
0.2105125827593613 0.2677739636213728 -0.04181896357931011
0.6531408128783226 0.37542209572284574 -0.04181896357931011
0.21721381667926534 0.5571305923485556 -0.04181896357931011
0.2121445423136758 0.2712520774215056 -0.04181896357931011
0.6715207573587902 0.4252682603599405 -0.04181896357931011
0.25687043384910874 0.5793558415288764 -0.04181896357931011
0.1530778061947039 0.3123570586958031 -0.04181896357931011
0.6058445850448443 0.31611056567072665 -0.04181896357931011
0.41383434373252415 0.5924931159411085 -0.04181896357931011
0.1319541297135451 0.345893827536967 -0.04181896357931011
0.5869750526980825 0.2958028689667251 -0.04181896357931011
0.3151313899381377 0.3639881790954295 -0.04181896357931011
0.34073275544644716 0.3369996479659528 -0.04181896357931011
0.33684665175773565 0.49651349465298467 -0.04181896357931011
0.3084199562710193 0.42742040702219275 -0.04181896357931011
0.485008179795067 0.432112290740847 -0.04181896357931011
0.47435964370316464 0.34786237874935894 -0.04181896357931011
0.46944336554579214 0.47673618480413527 -0.04181896357931011
0.34231371626468937 0.5045406957107692 -0.04049299644142955
0.4836108144266852 0.3299006239046844 -0.04049299644142955
0.46708722393925056 0.35935749386006194 -0.04049299644142955
0.29553767553914884 0.3341029197570444 -0.04049299644142955
0.6716941530614362 0.3485049628238703 -0.04049299644142955
0.49704388150813683 0.5877298339919532 -0.04049299644142955
0.4580400481600193 0.5781318718631407 -0.03977901413641694
0.12900640276856443 0.42392189372763095 -0.03977901413641694
0.47411484977001744 0.25180115948351917 -0.03977901413641694
0.5747659552823667 0.5251441850839904 -0.03977901413641694
0.13994053178247187 0.46696482697267694 -0.03977901413641694
0.4443621871454205 0.2493940191409052 -0.03977901413641694
0.5698088781361365 0.5382100612657211 -0.03977901413641694
0.15438337383815554 0.515393226746961 -0.03977901413641694
0.2571560267711137 0.24608930104341828 -0.03977901413641694
0.6740400949207632 0.41226358266149643 -0.03977901413641694
0.20643268387357488 0.5651067946702677 -0.03977901413641694
0.20003744237010482 0.26419385234909526 -0.03977901413641694
0.6782321910259087 0.4120901869588506 -0.03977901413641694
0.266641791680567 0.45883562844274767 -0.03977901413641694
0.3268101004987013 0.40412418438435266 -0.03977901413641694
0.26025674992431136 0.46025339330555837 -0.03977901413641694
0.4338972465033785 0.4945449434405928 -0.03977901413641694
0.4759508042686214 0.3619584293997507 -0.03977901413641694
0.48428399774284 0.4559287004866249 -0.03977901413641694
0.46527166893507566 0.4219737420096679 -0.03977901413641694
0.49704388150813683 0.6011629010734045 -0.03845304699853637
0.6716941530614362 0.35935749386006194 -0.03845304699853637
0.32540253538310493 0.35935749386006194 -0.03845304699853637
0.3061862116310512 0.34592442677861046 -0.03845304699853637
0.3061862116310512 0.48025509759312596 -0.03845304699853637
0.4923111988006247 0.3727905609415136 -0.03845304699853637
0.5066724428785926 0.5652087921424123 -0.03773906469352376
0.13256611454641307 0.4547965285458192 -0.03773906469352376
0.44479057652842807 0.24496732884982703 -0.03773906469352376
0.6193082513679394 0.4881701014315516 -0.03773906469352376
0.15139484790431698 0.49654409389462806 -0.03773906469352376
0.4221573374595283 0.2454467169689069 -0.03773906469352376
0.5707370551326529 0.5384242559572249 -0.03773906469352376
0.1469987568548822 0.5044590977330535 -0.03773906469352376
0.29248795112202347 0.23848028962142678 -0.03773906469352376
0.6783545879924823 0.4226673248202516 -0.03773906469352376
0.19539655738752285 0.5593439374940945 -0.03773906469352376
0.21736681288748233 0.25512627707543517 -0.03773906469352376
0.679313364230642 0.41476252072904063 -0.03773906469352376
0.2649792328846091 0.45861123400402937 -0.03773906469352376
0.328380861569729 0.40836727922557053 -0.03773906469352376
0.25874718733657043 0.4579992491711615 -0.03773906469352376
0.4348560227415384 0.49407575506872725 -0.03773906469352376
0.469616761248438 0.34918834588723946 -0.03773906469352376
0.48070388647056245 0.4666078358201707 -0.03773906469352376
0.47864353753324035 0.39892231330497513 -0.03773906469352376
0.5776524837440608 0.5877298339919532 -0.0364130975556432
0.6716941530614362 0.3485049628238703 -0.0364130975556432
0.4587438307178175 0.37113820189277 -0.0364130975556432
0.29553767553914884 0.3475359868384959 -0.0364130975556432
0.29553767553914884 0.4786435375332405 -0.0364130975556432
0.4966358916195581 0.3996566951044167 -0.0364130975556432
0.5448398969551239 0.5494399829488481 -0.03569911525063058
0.13447346727551815 0.4644556891579184 -0.03569911525063058
0.39201708444078165 0.2381232984689205 -0.03569911525063058
0.6532224108560384 0.4484114867895635 -0.03569911525063058
0.15765749269399906 0.5078964125443286 -0.03569911525063058
0.3762992739832896 0.24122402162211815 -0.03569911525063058
0.6259890857934146 0.49424915077137316 -0.03569911525063058
0.1843400314070418 0.5475224304725286 -0.03569911525063058
0.23280923017018362 0.25272933648003565 -0.03569911525063058
0.6644523325391652 0.38020577716643017 -0.03569911525063058
0.2943953038511287 0.5921973232718891 -0.03569911525063058
0.14825332576226155 0.31058230268048614 -0.03569911525063058
0.6358012426137306 0.3366528565606609 -0.03569911525063058
0.32487214852795276 0.4132325586468707 -0.03569911525063058
0.3184259082884103 0.3684760678697945 -0.03569911525063058
0.31224486147644404 0.46409869800541215 -0.03569911525063058
0.30750197902171733 0.3954951982409146 -0.03569911525063058
0.4849469813117802 0.38897755977087084 -0.03569911525063058
0.46256873592324216 0.3346741056010545 -0.03569911525063058
0.46097757535778544 0.48667073859102505 -0.03569911525063058
0.47883733273031526 0.4270736156169009 -0.03569911525063058
0.6501624866916985 0.5071314315032436 -0.034373148112750024
0.5776524837440608 0.24929202166876063 -0.034373148112750024
0.44004769407370137 0.3226180043935558 -0.034373148112750024
0.44950285974151133 0.5036635174503252 -0.034373148112750024
0.306706398738989 0.3323893622250141 -0.034373148112750024
0.6711229672174259 0.4234119063669077 -0.03365916580773741
0.216132643474532 0.562618056349938 -0.03365916580773741
0.2172036169320508 0.26277608748628456 -0.03365916580773741
0.6302219808874179 0.34168133193739253 -0.03365916580773741
0.30997031784761814 0.582935952801154 -0.03365916580773741
0.1865431768053664 0.2856031217522592 -0.03365916580773741
0.6672368635287145 0.40445057629521564 -0.03365916580773741
0.2868372911652095 0.587485040058806 -0.03365916580773741
0.14510160387299162 0.322424209196481 -0.03365916580773741
0.5284897021703351 0.2638980596798758 -0.03365916580773741
0.5905143649815021 0.5314578286097448 -0.03365916580773741
0.12761923714739712 0.4700859496203035 -0.03365916580773741
0.4544395373933128 0.237654110097055 -0.03365916580773741
0.3127242495955239 0.4245848772965712 -0.03365916580773741
0.3383664140926911 0.33150198421735566 -0.03365916580773741
0.33870300575076845 0.49085263494895603 -0.03365916580773741
0.3371526441741696 0.32764647977028755 -0.03365916580773741
0.43381564852566284 0.4937085641690065 -0.03365916580773741
0.47313567403742884 0.3546452106469787 -0.03365916580773741
0.48097927964535303 0.4668016310172456 -0.03365916580773741
0.4773277701425742 0.44047608345670913 -0.03365916580773741
0.6179516849884154 0.5339975656661468 -0.032333198669856844
0.631384752069867 0.3190582926157073 -0.032333198669856844
0.47017774734523365 0.30561502578704114 -0.032333198669856844
0.29553767553914884 0.5071314315032436 -0.032333198669856844
0.29553767553914884 0.3324913596971588 -0.032333198669856844
0.4543375399211682 0.45080842738496296 -0.032333198669856844
0.332583157422089 0.5891679983491928 -0.03161921636484423
0.135564840227466 0.35290105387330506 -0.03161921636484423
0.5502355632315763 0.27819810527455696 -0.03161921636484423
0.5018071634572924 0.5646376062984023 -0.03161921636484423
0.130903555750455 0.41496651567332987 -0.03161921636484423
0.5588645493750144 0.28763287144793787 -0.03161921636484423
0.477082976209427 0.5800800235811038 -0.03161921636484423
0.12371273396425658 0.432418283157281 -0.03161921636484423
0.4076838961622013 0.23443098997728376 -0.03161921636484423
0.6730099204521022 0.4433932111600464 -0.03161921636484423
0.16580709071835736 0.5381284632880055 -0.03161921636484423
0.3764930691803645 0.2285865348233949 -0.03161921636484423
0.31734473508367694 0.4056949454553805 -0.03161921636484423
0.3143664088970529 0.3639881790954295 -0.03161921636484423
0.32091464660874 0.4918114111871159 -0.03161921636484423
0.31318323822017485 0.3348577010509149 -0.03161921636484423
0.2730676324256805 0.44783010119833905 -0.03161921636484423
0.46419049573034216 0.41798564084881185 -0.03161921636484423
0.4542049432073801 0.408795668608578 -0.03161921636484423
0.4875071178626112 0.37883901103969175 -0.03161921636484423
0.479184124135607 0.45360315812172664 -0.03161921636484423
0.4756856108410453 0.4180876383209564 -0.03161921636484423
0.29553767553914884 0.5071314315032436 -0.030293249226963664
0.47017774734523365 0.3164675568232329 -0.030293249226963664
0.4534093629246517 0.342915501350343 -0.030293249226963664
0.4836108144266852 0.48025509759312596 -0.030293249226963664
0.7119933543057908 0.4668220305116745 -0.030293249226963664
0.6716941530614362 0.30561502578704114 -0.030293249226963664
0.5949512550197948 0.519575123104892 -0.02957926692195106
0.14184788451157698 0.48811910269547915 -0.02957926692195106
0.3295742319938215 0.23666473461725188 -0.02957926692195106
0.6699805955294058 0.41774084691566465 -0.02957926692195106
0.17198813753032363 0.5261947590470804 -0.02957926692195106
0.37619727651114504 0.23978585726487842 -0.02957926692195106
0.628712418299677 0.49473873863766754 -0.02957926692195106
0.1615843953715685 0.5293872799252082 -0.02957926692195106
0.22902512395361685 0.2517399610002324 -0.02957926692195106
0.6615454045830426 0.37131159759541593 -0.02957926692195106
0.27603575886509 0.5903613687732852 -0.02957926692195106
0.21471487861172114 0.25290273218268156 -0.02957926692195106
0.6787727776282754 0.3935470465229516 -0.02957926692195106
0.3142134126888359 0.4629461265701775 -0.02957926692195106
0.3277790764840755 0.4083876787199994 -0.02957926692195106
0.2614603200956184 0.45998819987798234 -0.02957926692195106
0.286980087626212 0.45145101145947436 -0.02957926692195106
0.45286877632228506 0.41311016168029707 -0.02957926692195106
0.46255853617602766 0.42208593922902715 -0.02957926692195106
0.4779805539643001 0.352329868029295 -0.02957926692195106
0.47836814435844977 0.4606103844580648 -0.02957926692195106
0.4722992947658426 0.42644123128960404 -0.02957926692195106
0.45841743880695446 0.48025509759312596 -0.028253299784070488
0.45099202283482337 0.44735071307925905 -0.028253299784070488
0.4836108144266852 0.3299006239046844 -0.028253299784070488
0.6045186179069637 0.5634544356215241 -0.028253299784070488
0.7254264213872424 0.4265228292673197 -0.028253299784070488
0.49704388150813683 0.2384496903797834 -0.028253299784070488
0.44936006328050887 0.5831399477454433 -0.02753931747905788
0.12750703992803789 0.4107030213376832 -0.02753931747905788
0.46054918597477784 0.24528352101347553 -0.02753931747905788
0.5339975656661468 0.5532342889126295 -0.02753931747905788
0.1334432928068571 0.430929120063969 -0.02753931747905788
0.5264089537385841 0.26967111660326337 -0.02753931747905788
0.5061012570345825 0.5728178035644039 -0.02753931747905788
0.13620742430197738 0.48988365896358177 -0.02753931747905788
0.2606239408240321 0.24139741732476402 -0.02753931747905788
0.6780383958288337 0.4010948594616563 -0.02753931747905788
0.24221339710192127 0.5844353156416806 -0.02753931747905788
0.19655932856997185 0.26066473981289007 -0.02753931747905788
0.6649317206582451 0.3675580906204925 -0.02753931747905788
0.32300559478770546 0.4187608216371112 -0.02753931747905788
0.31800771865261723 0.3713931955731317 -0.02753931747905788
0.31082709661363317 0.46345611393090075 -0.02753931747905788
0.31921128882392413 0.3345823078761243 -0.02753931747905788
0.2982610080454112 0.44777910246226665 -0.02753931747905788
0.2838793644730144 0.42919516303750976 -0.02753931747905788
0.45886622768439106 0.40238002761067904 -0.02753931747905788
0.46338471570039946 0.3985959213941121 -0.02753931747905788
0.49062824051023773 0.39724955476180274 -0.02753931747905788
0.4785619395555247 0.45272597986128255 -0.02753931747905788
0.6045186179069637 0.2518827574612349 -0.02621335034117732
0.6851272201428878 0.3727905609415136 -0.02621335034117732
0.49704388150813683 0.5877298339919532 -0.02621335034117732
0.4485950822394239 0.48499798004785266 -0.02621335034117732
0.3095929272006828 0.3263919108629082 -0.02621335034117732
0.4583154413348099 0.45338896343022284 -0.02621335034117732
0.656955518336533 0.45724446787729095 -0.025499368036164705
0.21522486597244456 0.5605067086765436 -0.025499368036164705
0.21463328063400547 0.2656626159479784 -0.025499368036164705
0.6584548811770594 0.37152579228691973 -0.025499368036164705
0.25484068415343003 0.5717672296013138 -0.025499368036164705
0.18395244101289213 0.2902848057236989 -0.025499368036164705
0.6717655512919375 0.4093464549581592 -0.025499368036164705
0.12593627885701017 0.38508125633494494 -0.025499368036164705
0.3760544800501426 0.23101407466043777 -0.025499368036164705
0.6546401757188492 0.46755641231111605 -0.025499368036164705
0.27528097757121955 0.5893413940518386 -0.025499368036164705
0.17485426649758848 0.2798912633121583 -0.025499368036164705
0.6318845396833759 0.32691209797084597 -0.025499368036164705
0.3831535041114108 0.5987557607307906 -0.025499368036164705
0.1290880007462801 0.33710164543809734 -0.025499368036164705
0.28674549344027933 0.37241317029457827 -0.025499368036164705
0.34281350387819826 0.33175697789771724 -0.025499368036164705
0.338101220665115 0.49793125951579537 -0.025499368036164705
0.3371934431630276 0.32715689190399316 -0.025499368036164705
0.30877694742352557 0.3898241387896715 -0.025499368036164705
0.4562856916391312 0.4233813071252643 -0.025499368036164705
0.48733372215996534 0.40229842963296325 -0.025499368036164705
0.4367327762290001 0.327942272439507 -0.025499368036164705
0.4385585309803895 0.4921174036035499 -0.025499368036164705
0.3093583330147502 0.4999100104754018 -0.024173400898284132
0.47664438707920503 0.3324913596971588 -0.024173400898284132
0.4483808875479201 0.34117134457666926 -0.024173400898284132
0.4654654641321504 0.4989716337316709 -0.024173400898284132
0.659801247809369 0.48025509759312596 -0.024173400898284132
0.6716941530614362 0.30561502578704114 -0.024173400898284132
0.6555275537265076 0.3661403257576818 -0.023459418593271535
0.32284239883227395 0.5904939654870733 -0.023459418593271535
0.13791078208679305 0.3538904293531082 -0.023459418593271535
0.5161276085464024 0.259940557760663 -0.023459418593271535
0.4858751583082967 0.5719610247983887 -0.023459418593271535
0.1349222561529546 0.38609103130917694 -0.023459418593271535
0.5734603876389153 0.2935589245795426 -0.023459418593271535
0.1330659021599218 0.3524726644902975 -0.023459418593271535
0.4618955526070874 0.2403978420977464 -0.023459418593271535
0.5956856368192365 0.527041338065881 -0.023459418593271535
0.1613396014384213 0.5328449942309121 -0.023459418593271535
0.29938298023900245 0.22827034265974638 -0.023459418593271535
0.6836788560384334 0.42763460171369655 -0.023459418593271535
0.17551725006652888 0.5517145265776741 -0.023459418593271535
0.27438339981634663 0.2319422516569541 -0.023459418593271535
0.3140400169861899 0.4290829658181507 -0.023459418593271535
0.318201513849692 0.39670896815943607 -0.023459418593271535
0.2923145554193776 0.4612835677742194 -0.023459418593271535
0.27616835557887814 0.44760570675962075 -0.023459418593271535
0.3065942015196299 0.3751365028008406 -0.023459418593271535
0.4828764326272437 0.4245848772965712 -0.023459418593271535
0.48022449835148256 0.4491254690945762 -0.023459418593271535
0.46297672581182076 0.33405192102097214 -0.023459418593271535
0.46138556524636415 0.48728272342389306 -0.023459418593271535
0.34304809806413095 0.5045406957107692 -0.022133451455390963
0.4600391986140546 0.3760544800501426 -0.022133451455390963
0.3241887654645835 0.35935749386006194 -0.022133451455390963
0.5104871483368029 0.48025509759312596 -0.022133451455390963
0.7119933543057908 0.45338896343022284 -0.022133451455390963
0.631384752069867 0.3082057615795155 -0.022133451455390963
0.6453482060064708 0.35193207788793085 -0.02141946915037835
0.3789920072479087 0.5920443270636719 -0.02141946915037835
0.13118914867246012 0.38273531447561776 -0.02141946915037835
0.49656449338905695 0.25270893698560665 -0.02141946915037835
0.5001548044085489 0.5683095152956099 -0.02141946915037835
0.13326989710421108 0.40411398463713827 -0.02141946915037835
0.5556108300135999 0.28184961477733567 -0.02141946915037835
0.12441651652205475 0.40400178741777903 -0.02141946915037835
0.3452512434624555 0.2301674956416371 -0.02141946915037835
0.6717043528086507 0.44591254872201946 -0.02141946915037835
0.2801564567397343 0.591646536922308 -0.02141946915037835
0.15130305017938678 0.3051662369096047 -0.02141946915037835
0.6197570402453757 0.3131016402424592 -0.02141946915037835
0.34491465180437814 0.599816534441095 -0.02141946915037835
0.1215911865436477 0.36022447237329147 -0.02141946915037835
0.3384684115648358 0.33148158472292666 -0.02141946915037835
0.29013180951548195 0.37101580492619646 -0.02141946915037835
0.3224242091964809 0.42617603786202796 -0.02141946915037835
0.289387227968826 0.36713990098469945 -0.02141946915037835
0.3044828538462354 0.3871926040083393 -0.02141946915037835
0.4812648725673581 0.39292486194286913 -0.02141946915037835
0.4834068194823959 0.39615818180985485 -0.02141946915037835
0.4723400937547005 0.3757892866225665 -0.02141946915037835
0.49103623039881644 0.4318572970604855 -0.02141946915037835
0.47149351473589984 0.4256966497429481 -0.02141946915037835
0.47275828339049353 0.4573668648438645 -0.020093502012497794
0.448401287042349 0.4238198962554864 -0.020093502012497794
0.46582245528465666 0.3702202246434681 -0.020093502012497794
0.5104871483368029 0.45338896343022284 -0.020093502012497794
0.6716941530614362 0.5097119675485035 -0.020093502012497794
0.6499890909890527 0.3324913596971588 -0.020093502012497794
0.6767022289437388 0.42716541334183106 -0.01937951970748518
0.24597710382405918 0.5726852068506157 -0.01937951970748518
0.20292397083179867 0.2716294680684409 -0.01937951970748518
0.6683996347111636 0.38209273040110636 -0.01937951970748518
0.2167140290657566 0.5570897933596974 -0.01937951970748518
0.24647689143756796 0.2572580242432584 -0.01937951970748518
0.6652785120635369 0.4417408521113028 -0.01937951970748518
0.12889420554920536 0.3680374787395724 -0.01937951970748518
0.43912971682439955 0.23523677000722665 -0.01937951970748518
0.6064361703832835 0.5203197046515481 -0.01937951970748518
0.1767208202378358 0.5466452522120844 -0.01937951970748518
0.26967111660326337 0.23657293689232167 -0.01937951970748518
0.680251740974373 0.4407514766314997 -0.01937951970748518
0.17418108318143383 0.5496745771347807 -0.01937951970748518
0.26876333910117595 0.23272763219246795 -0.01937951970748518
0.3087157489402388 0.37011822717132353 -0.01937951970748518
0.3422423180341881 0.3306962041874128 -0.01937951970748518
0.337642232040464 0.4982372519322294 -0.01937951970748518
0.3064922040474852 0.4339278457450221 -0.01937951970748518
0.48351901670175496 0.4189954158230439 -0.01937951970748518
0.4779907537115146 0.4056541464665226 -0.01937951970748518
0.48138726953393174 0.3575725380975304 -0.01937951970748518
0.47516542373310755 0.4703001443118073 -0.01937951970748518
0.3086341509625231 0.4999406097170452 -0.018053552569604607
0.47664438707920503 0.3324913596971588 -0.018053552569604607
0.46600605073451706 0.4326324778487848 -0.018053552569604607
0.3148661965105617 0.3224650081853388 -0.018053552569604607
0.568176918581822 0.5608636998290499 -0.018053552569604607
0.631384752069867 0.5205644985846952 -0.018053552569604607
0.6448178191513183 0.278748891624138 -0.018053552569604607
0.5163316034906918 0.5681565190873931 -0.017339570264591993
0.12766003613625487 0.4040527861538515 -0.017339570264591993
0.538954642812377 0.2674781709521533 -0.017339570264591993
0.4749002303055313 0.5765611107921127 -0.017339570264591993
0.15296560897534484 0.3250047452417409 -0.017339570264591993
0.665625303468829 0.38370429046099197 -0.017339570264591993
0.13207652668011868 0.4688823794489966 -0.017339570264591993
0.34283390337262715 0.23093247668272207 -0.017339570264591993
0.6842296423880145 0.4091730592555133 -0.017339570264591993
0.3156209778044321 0.5974705925817679 -0.017339570264591993
0.17947475198574153 0.2780655085607689 -0.017339570264591993
0.6637077509925092 0.3590413016964134 -0.017339570264591993
0.2893770282216115 0.5974093940984812 -0.017339570264591993
0.17702681265426978 0.27496478540757124 -0.017339570264591993
0.29997456557744157 0.418363031495747 -0.017339570264591993
0.30531923311782166 0.4312249127331886 -0.017339570264591993
0.34067155696316037 0.4939533581021537 -0.017339570264591993
0.3194458830098568 0.3287990512055222 -0.017339570264591993
0.46502687500192846 0.42529885960158387 -0.017339570264591993
0.47839874360009316 0.41547650303405315 -0.017339570264591993
0.46322151974496795 0.33376632809896706 -0.017339570264591993
0.454092745988021 0.4913830218041083 -0.017339570264591993
0.5373532824997059 0.235858954587309 -0.016013603126711438
0.6985602872243392 0.37537109698677346 -0.016013603126711438
0.5776524837440608 0.5877298339919532 -0.016013603126711438
0.4944021469795902 0.3727905609415136 -0.016013603126711438
0.45336856393579394 0.41626188356956717 -0.016013603126711438
0.45522491792882674 0.42146375464894464 -0.016013603126711438
0.32372977683993254 0.43995589634877136 -0.016013603126711438
0.30897074262060037 0.5205644985846952 -0.016013603126711438
0.12768043563068376 0.3852240527959474 -0.015299620821698822
0.4833150217574657 0.2471806739953661 -0.015299620821698822
0.5687889034146899 0.5437689234976052 -0.015299620821698822
0.13723759877063843 0.46711782318089395 -0.015299620821698822
0.4823868447609494 0.2509749799591474 -0.015299620821698822
0.5158624151188264 0.5648008022538337 -0.015299620821698822
0.2900706110321951 0.5884030173081076 -0.015299620821698822
0.16833662802754482 0.535313333056813 -0.015299620821698822
0.24321297232893893 0.24653808992085488 -0.015299620821698822
0.6385755738560653 0.334225316723618 -0.015299620821698822
0.3886613676072223 0.5970320034515458 -0.015299620821698822
0.1278844305749732 0.3505551120139779 -0.015299620821698822
0.6008875078986139 0.29449730132327345 -0.015299620821698822
0.37585048510585317 0.6014076950065517 -0.015299620821698822
0.3144072078859107 0.4272470113195469 -0.015299620821698822
0.3167837489868813 0.39542380001041333 -0.015299620821698822
0.30399326597994103 0.4308883210751112 -0.015299620821698822
0.4659652517456593 0.3422933167702605 -0.015299620821698822
0.48284583338560033 0.4661182479538763 -0.015299620821698822
0.4680867991662682 0.4233915068724788 -0.015299620821698822
0.6851272201428878 0.3324913596971588 -0.01397365368381825
0.6716941530614362 0.5205644985846952 -0.01397365368381825
0.45735666509665 0.42931756000408333 -0.01397365368381825
0.5104871483368029 0.34592442677861046 -0.01397365368381825
0.46491467778256923 0.4743800431975937 -0.01397365368381825
0.3473523913886355 0.3262899133907635 -0.01397365368381825
0.3043604568796618 0.48025509759312596 -0.01397365368381825
0.15203743197882835 0.5085695958604833 -0.013259671378805652
0.34833156712122426 0.2395920620678035 -0.013259671378805652
0.6158505370622355 0.504204104052692 -0.013259671378805652
0.36370258617342427 0.5964404181131069 -0.013259671378805652
0.6396975460496567 0.4858445590666533 -0.013259671378805652
0.3797569882889937 0.2320340493818843 -0.013259671378805652
0.2946706970259193 0.23304382435611645 -0.013259671378805652
0.680822926818383 0.39060951932518545 -0.013259671378805652
0.37244376953622166 0.5999491311548831 -0.013259671378805652
0.37431032327646885 0.5942270729675676 -0.013259671378805652
0.3840816811079272 0.601764686159058 -0.013259671378805652
0.12386573017247357 0.38448967099650583 -0.013259671378805652
0.5138122659287188 0.24738466893965555 -0.013259671378805652
0.49082203570731264 0.5859040792405638 -0.013259671378805652
0.3109902925690647 0.39817773175831905 -0.013259671378805652
0.3385500095425515 0.33559208285035647 -0.013259671378805652
0.3194458830098568 0.4976864655826482 -0.013259671378805652
0.47489003055831697 0.3450064495293085 -0.013259671378805652
0.46100817459942883 0.48827209890369616 -0.013259671378805652
0.45525551717047014 0.32982922567418327 -0.013259671378805652
0.6179516849884154 0.2972308335767503 -0.01193370424092508
0.6851272201428878 0.4936983644217921 -0.01193370424092508
0.4610285740938577 0.4217595473181641 -0.01193370424092508
0.4598250039225508 0.34592442677861046 -0.01193370424092508
0.4229631174894711 0.4936983644217921 -0.01193370424092508
0.29553767553914884 0.35935749386006194 -0.01193370424092508
0.31606976668186876 0.5045406957107692 -0.01193370424092508
0.32056785520344805 0.5929011058296871 -0.011219721935912466
0.6792623654945698 0.3960051856016379 -0.011219721935912466
0.2924267526387367 0.23930646914579853 -0.011219721935912466
0.5668611511911559 0.2750463833852869 -0.011219721935912466
0.5423511586347942 0.5639032244989607 -0.011219721935912466
0.2923757539026644 0.5868118567426512 -0.011219721935912466
0.2817068183163332 0.5816915836409893 -0.011219721935912466
0.6453482060064708 0.3520952738433622 -0.011219721935912466
0.36609952676882374 0.22086532618204416 -0.011219721935912466
0.6715309571060045 0.4612427687853617 -0.011219721935912466
0.25967536433308674 0.5791314470901583 -0.011219721935912466
0.31410121546947667 0.4272470113195469 -0.011219721935912466
0.31684494747016806 0.3960255850960668 -0.011219721935912466
0.29997456557744157 0.42942975722344257 -0.011219721935912466
0.49236219753669697 0.4292461617735822 -0.011219721935912466
0.4874765186209678 0.409122060519441 -0.011219721935912466
0.30897074262060037 0.5205644985846952 -0.00989375479803191
0.29553767553914884 0.36096905391994755 -0.00989375479803191
0.47793975497544217 0.42180034630702207 -0.00989375479803191
0.47446164117530937 0.371903182933855 -0.00989375479803191
0.4647616815743522 0.41593549165870414 -0.00989375479803191
0.5776524837440608 0.5877298339919532 -0.00989375479803191
0.6860043984033317 0.3727905609415136 -0.00989375479803191
0.5127004934823419 0.2384496903797834 -0.00989375479803191
0.3047990460098839 0.2339720013526328 -0.009179772493019297
0.6851170203956732 0.3967497671482938 -0.009179772493019297
0.36673191109612074 0.6016932879285569 -0.009179772493019297
0.6797213541192209 0.4318980960493432 -0.009179772493019297
0.38393888464692466 0.23686872956154115 -0.009179772493019297
0.6711841657007127 0.36362098819570876 -0.009179772493019297
0.32679990075148674 0.6011017025901177 -0.009179772493019297
0.6669512706067094 0.3794917948614176 -0.009179772493019297
0.30560482603982664 0.4031348089045495 -0.009179772493019297
0.31110248978842375 0.39268006800972194 -0.009179772493019297
0.3323791624777996 0.49293338338070714 -0.009179772493019297
0.48688493328252885 0.3794509958725597 -0.009179772493019297
0.43387684700894963 0.32754448229814287 -0.009179772493019297
0.43722236409529447 0.4981148549656558 -0.009179772493019297
0.3042584594075172 0.4936983644217921 -0.007853805355138724
0.29553767553914884 0.35935749386006194 -0.007853805355138724
0.4836108144266852 0.5071314315032436 -0.007853805355138724
0.4738598560896559 0.38622362802296506 -0.007853805355138724
0.6045186179069637 0.26531582454268654 -0.007853805355138724
0.700610436414447 0.4130897621858682 -0.007853805355138724
0.5239202154182545 0.5877298339919532 -0.007853805355138724
0.34833156712122426 0.5914119427363752 -0.00713982305012611
0.676335038044018 0.3856728416733839 -0.00713982305012611
0.3544718149443328 0.2255980088895563 -0.00713982305012611
0.6862797915781225 0.4295419544428017 -0.00713982305012611
0.30789976916308154 0.588892605174402 -0.00713982305012611
0.6279168380169485 0.3306248059569116 -0.00713982305012611
0.5269393405937363 0.25019979917084806 -0.00713982305012611
0.5382406605073645 0.5714612371848798 -0.00713982305012611
0.31775272497225554 0.417200260313298 -0.00713982305012611
0.31065370091098726 0.35314584780645225 -0.00713982305012611
0.3161105656707265 0.43223468770742063 -0.00713982305012611
0.29315093469096387 0.4238402957499153 -0.00713982305012611
0.4383239367944567 0.4980026577462967 -0.00713982305012611
0.4483808875479201 0.3332665404854583 -0.00713982305012611
0.48646674364673564 0.45812164613773515 -0.00713982305012611
0.4769095805067811 0.43995589634877136 -0.005813855912245556
0.5104871483368029 0.4265228292673197 -0.005813855912245556
0.47617519870733954 0.4172206598077269 -0.005813855912245556
0.45289937556392845 0.32163882866096716 -0.005813855912245556
0.6985602872243392 0.34592442677861046 -0.005813855912245556
0.6179516849884154 0.5339975656661468 -0.005813855912245556
0.3722907733280047 0.5968280085072567 -0.005099873607232941
0.6851680191317455 0.407765494139917 -0.005099873607232941
0.33161418143671473 0.2319422516569541 -0.005099873607232941
0.6900944970363326 0.41379354474366636 -0.005099873607232941
0.35109569861634454 0.5990005546639379 -0.005099873607232941
0.6781199938065496 0.39725975450901707 -0.005099873607232941
0.38119515264623327 0.220008547416029 -0.005099873607232941
0.6836278573023611 0.44714671813496976 -0.005099873607232941
0.3739533321239626 0.5879644281778859 -0.005099873607232941
0.32258740515191237 0.41317136016358386 -0.005099873607232941
0.3340621207681865 0.3344599109095507 -0.005099873607232941
0.33657125858294507 0.4989512342372421 -0.005099873607232941
0.4877825110374018 0.38393888464692466 -0.005099873607232941
0.47631799516834217 0.4702899445645929 -0.005099873607232941
0.4596210089782615 0.3309817971094179 -0.005099873607232941
0.39358784551180936 0.5973583953624089 -0.0030599241643397717
0.6861777941059776 0.41817943604588664 -0.0030599241643397717
0.3732699490605933 0.22472083062911227 -0.0030599241643397717
0.6894009142257488 0.4254212565681575 -0.0030599241643397717
0.34485345332109135 0.5952878466778723 -0.0030599241643397717
0.6672980620120013 0.375473094458918 -0.0030599241643397717
0.4562142934086299 0.22976970550027292 -0.0030599241643397717
0.5952266481945853 0.5412903849244898 -0.0030599241643397717
0.43312206571507916 0.3305738072208392 -0.0030599241643397717
0.43633498608763593 0.3343579134374061 -0.0030599241643397717
0.48664013934938166 0.46118157030207485 -0.0030599241643397717
0.4863647461745911 0.4353456106078328 -0.0030599241643397717
0.312530454398449 0.43003154230909607 -0.0030599241643397717
0.33297074781623864 0.3337153293628948 -0.0030599241643397717
0.33641826237472805 0.49905323170938665 -0.0030599241643397717
0.31104129130513697 0.3665687151406892 -0.0030599241643397717
0.7254264213872424 0.4265228292673197 -0.0027539317479057836
0.5184123519224428 0.2384496903797834 -0.0027539317479057836
0.4692903693375751 0.40460357250343265 -0.0027539317479057836
0.4229325182478277 0.4936983644217921 -0.0027539317479057836
0.3039320674966542 0.3324913596971588 -0.0027539317479057836
0.38994653575624505 0.22887212774539983 -0.0010199747214465844
0.6724489343553065 0.4523587889615618 -0.0010199747214465844
0.4075003007123409 0.23341101525583724 -0.0010199747214465844
0.6751824666087833 0.37062821453204675 -0.0010199747214465844
0.4123757798808555 0.601458693742624 -0.0010199747214465844
0.6828220772724185 0.41907701380075973 -0.0010199747214465844
0.3614892410278852 0.22415984453231672 -0.0010199747214465844
0.6795173591749314 0.4569486752080715 -0.0010199747214465844
0.4898428599747239 0.3996362956099877 -0.0010199747214465844
0.48056109000955993 0.46163035917951134 -0.0010199747214465844
0.48277443515509905 0.3759932815668558 -0.0010199747214465844
0.31335663392282076 0.35383943061703593 -0.0010199747214465844
0.3374586365906036 0.3348883002925583 -0.0010199747214465844
0.29389551623761984 0.4090302627945108 -0.0010199747214465844
0.2960782621415155 0.4273388090444771 -0.0010199747214465844
0.31271404984830936 0.49592190931454555 -0.0010199747214465844
0.6823528889005529 0.4668220305116745 3.0599241643396993E-4
0.6045186179069637 0.278748891624138 3.0599241643396993E-4
0.473054076059713 0.36487555710308794 3.0599241643396993E-4
0.47017774734523365 0.5205644985846952 3.0599241643396993E-4
0.3043094581435895 0.3727905609415136 3.0599241643396993E-4
0.48481438459799225 0.464884078540926 0.0010199747214465844
0.4755122151383993 0.4820298536084431 0.0010199747214465844
0.29913818630585526 0.4192708089978345 0.0010199747214465844
0.29592526593329854 0.4273388090444771 0.0010199747214465844
0.30854235323759294 0.43180629832441303 0.0010199747214465844
0.3123264594541597 0.34786237874935894 0.0010199747214465844
0.47676678404577866 0.3557365835989265 0.0010199747214465844
0.4083876787199993 0.5973787948568379 0.0010199747214465844
0.6733465121101797 0.4525015854225644 0.0010199747214465844
0.43979270039333984 0.2340128003414907 0.0010199747214465844
0.6124744207342472 0.3013821306930379 0.0010199747214465844
0.5261947590470804 0.5747251562935091 0.0010199747214465844
0.6222661780601344 0.5054382734656423 0.0010199747214465844
0.42598224266495305 0.23618534649817202 0.0010199747214465844
0.6587914728351366 0.34146713724588873 0.0010199747214465844
0.395811390404563 0.6062831741750665 0.0010199747214465844
0.5104871483368029 0.34592442677861046 0.002345941859327157
0.4840188043152639 0.409275056727658 0.002345941859327157
0.3293600373023177 0.30561502578704114 0.002345941859327157
0.33040041151819316 0.48644634415230675 0.002345941859327157
0.5776524837440608 0.5768875027029757 0.002345941859327157
0.7036193618427143 0.3996566951044167 0.002345941859327157
0.5776524837440608 0.2384496903797834 0.002345941859327157
0.47947991680482666 0.45934561580347094 0.0030599241643397717
0.33805022192904255 0.4933821722581436 0.0030599241643397717
0.312071465773798 0.3962499795347851 0.0030599241643397717
0.32529033816374586 0.41809783806817097 0.0030599241643397717
0.3176507275001108 0.3327871523663783 0.0030599241643397717
0.4484624855256358 0.32781987547293345 0.0030599241643397717
0.43606979266005985 0.3263205126324069 0.0030599241643397717
0.44827889007577537 0.23083047921057737 0.0030599241643397717
0.6771612175683899 0.4559694994754827 0.0030599241643397717
0.42185134504309435 0.5925339149299663 0.0030599241643397717
0.6531612123727516 0.34650581236983485 0.0030599241643397717
0.3734229452688103 0.23278883067575473 0.0030599241643397717
0.698029900369187 0.41376294550202297 0.0030599241643397717
0.3796855900584924 0.5915139402085198 0.0030599241643397717
0.6373516041903293 0.3348577010509149 0.0030599241643397717
0.6045186179069637 0.278748891624138 0.004385891302220326
0.6843622391018027 0.4668220305116745 0.004385891302220326
0.4614773629712943 0.48025509759312596 0.004385891302220326
0.30897074262060037 0.30561502578704114 0.004385891302220326
0.3109596933274213 0.4545619343598865 0.004385891302220326
0.5104871483368029 0.4265228292673197 0.004385891302220326
0.30857295247923633 0.3539108288475371 0.004385891302220326
0.44837068780070555 0.4936371659385053 0.005099873607232941
0.31508039120206544 0.4814484680172185 0.005099873607232941
0.2992707830196434 0.4252376611182971 0.005099873607232941
0.31501919271877865 0.3815827430403831 0.005099873607232941
0.33853980979533693 0.3263409121268359 0.005099873607232941
0.4343766346224584 0.33016581733226064 0.005099873607232941
0.43606979266005985 0.3341335189986878 0.005099873607232941
0.4082040832701389 0.2239966485768852 0.005099873607232941
0.6915632606352158 0.4308169228446099 0.005099873607232941
0.4051543588530137 0.5928501070936149 0.005099873607232941
0.6737647017459728 0.3718929831866405 0.005099873607232941
0.38739659895262857 0.22332346526073044 0.005099873607232941
