0.5681759949984433 0.5104817395153237 -0.06953907852525432
0.4002530281756591 0.4312813650136275 -0.06833373449748326
0.5272221136856369 0.27781325464695944 -0.06833373449748326
0.5712171706992811 0.5220530421819263 -0.06833373449748326
-0.06313684736236261 0.39945101080333434 -0.06768470309791422
0.2491956058645332 0.4019544176302436 -0.06768470309791422
0.18773233232534503 0.3423269757641222 -0.06768470309791422
0.3387063077422406 0.32714891289134335 -0.06768470309791422
0.5793671507024409 0.4422499956663442 -0.06768470309791422
0.5455989741705775 0.3005386255090126 -0.06768470309791422
0.644205387519388 0.47268956830613224 -0.06768470309791422
0.6714739781784245 0.2925184517857667 -0.06768470309791422
0.6515858017202016 0.4766857473520503 -0.06768470309791422
0.5296977048811359 0.4487773971705815 -0.06647935907014314
0.4447116790461384 0.3002882848263217 -0.06647935907014314
0.5951942449747887 0.2411800680798555 -0.06647935907014314
-0.0611619375322453 0.4001093140800402 -0.0658303276705741
0.2607761804082722 0.37501961454812843 -0.0658303276705741
0.19695785007636216 0.4149999487615813 -0.0658303276705741
0.42275587398643144 0.3172094606008003 -0.0658303276705741
0.5439856675487914 0.3102555527482749 -0.0658303276705741
0.5766783063327978 0.38415241352777846 -0.0658303276705741
0.5574669769055541 0.5066060948721831 -0.0658303276705741
0.5583663489878139 0.5164435565142222 -0.0658303276705741
0.6636392419979125 0.4568253865252376 -0.0658303276705741
0.43607956143187004 0.3877220862254081 -0.06462498364280303
0.5365125345766106 0.3785429278600746 -0.06462498364280303
-0.08560260566458812 0.3620668021881576 -0.06397595224323399
-0.0890981033451242 0.3898546179668493 -0.06397595224323399
0.24573719569254385 0.4167986929261012 -0.06397595224323399
0.2856062673803563 0.41665034289191394 -0.06397595224323399
0.4307575039554041 0.32077913329842994 -0.06397595224323399
0.5479818465947095 0.4442898086364185 -0.06397595224323399
0.6481830228110326 0.28063190529651644 -0.06397595224323399
0.5481858278917169 0.5036390941884388 -0.06397595224323399
0.5445976114398137 0.2501552451481817 -0.06397595224323399
0.6754145259615223 0.312415900121126 -0.06397595224323399
0.43602393016904983 0.3877220862254081 -0.06277060821546293
0.5712171706992811 0.5168607909853739 -0.06277060821546293
-0.07358625289542411 0.3440700886658218 -0.062121576815893885
0.20749070250365395 0.3298284853838497 -0.062121576815893885
0.17427883859999255 0.4091123067797764 -0.062121576815893885
0.3980648651713977 0.33720889958466344 -0.062121576815893885
0.5571888205914531 0.3098383182771233 -0.062121576815893885
0.5465539775156574 0.30249499158485643 -0.062121576815893885
0.6897581198919981 0.4400062013992628 -0.062121576815893885
0.6411734836956869 0.271480562562593 -0.062121576815893885
0.6822757150426806 0.4562505301427622 -0.062121576815893885
0.16569308037140779 0.3420859069585679 -0.06091623278812278
0.4648316524327785 0.4365663349815468 -0.06091623278812278
0.7218295429078454 0.4365663349815468 -0.06091623278812278
-0.08837489692846152 0.40997459135348957 -0.06026720138855374
0.24931614026731025 0.401787523841783 -0.06026720138855374
0.1841997471362621 0.35417643474482546 -0.06026720138855374
0.4472707171358676 0.435045747131128 -0.06026720138855374
0.5541754605220253 0.34001827835708365 -0.06026720138855374
0.5617320403884363 0.4386246917058944 -0.06026720138855374
0.6702315466421067 0.45394183273572375 -0.06026720138855374
0.7127616470681521 0.4223618192081215 -0.06026720138855374
0.5472308245466366 0.5164991877770424 -0.06026720138855374
0.7266231033875196 0.32666677528023486 -0.05980360753171874
0.5303003768950214 0.4487773971705815 -0.05906185736078268
0.46405281475329563 0.30139163820558906 -0.05906185736078268
0.7428859758852923 0.3510888996583042 -0.05906185736078268
-0.07060998033454324 0.3957700755800643 -0.05841282596121363
0.19301730229326441 0.33084839186888687 -0.05841282596121363
0.20092621349086998 0.41656689599768365 -0.05841282596121363
0.42268169896933777 0.42954752398906454 -0.05841282596121363
0.5466003369013411 0.44081285471015574 -0.05841282596121363
0.557003383048719 0.3460264547416656 -0.05841282596121363
0.6837128559988691 0.31576304776747494 -0.05841282596121363
0.6792345393418427 0.4551749923949049 -0.05841282596121363
0.685826843986037 0.31274968769804723 -0.05841282596121363
0.16089951989173362 0.3388778374692696 -0.05794923210437859
0.15307405558835827 0.3632999618473389 -0.057207481933442564
0.4648223805556418 0.4351013783939482 -0.057207481933442564
0.702608941603465 0.29929619397269475 -0.057207481933442564
0.7283105850263989 0.42049817190364475 -0.057207481933442564
0.24448549227908936 0.34307799781219483 -0.05655845053387352
0.25573227924590713 0.3457853859361114 -0.05655845053387352
0.3862988530849246 0.31839626087429795 -0.05655845053387352
0.4300342975387414 0.32578594695224833 -0.05655845053387352
0.5476109715092413 0.43337680924652183 -0.05655845053387352
0.6300935905173298 0.268661911913036 -0.05655845053387352
0.6848718406409567 0.3174412575292177 -0.05655845053387352
0.5532204571769453 0.23414271333309977 -0.05655845053387352
0.716943263656804 0.43015019600295 -0.05655845053387352
-0.0931962730395458 0.3539075503078612 -0.056094856677038486
0.1671580369590065 0.41214421060347745 -0.05535310650610246
0.5935531227215928 0.3510888996583042 -0.05535310650610246
0.7543923754119378 0.41214421060347745 -0.05535310650610246
-0.08681722156949591 0.3564944040290006 -0.05470407510653341
0.2526540160365226 0.34763976136345154 -0.05470407510653341
0.18660116331466756 0.3479735489403728 -0.05470407510653341
0.3814867488509771 0.4267474170937809 -0.05470407510653341
0.4274938032032854 0.3182479108401107 -0.05470407510653341
0.553350263456859 0.43169859948477907 -0.05470407510653341
0.5735536837377295 0.31160924681023316 -0.05470407510653341
0.6915290484251079 0.3114145373903624 -0.05470407510653341
0.6978710123866111 0.4397280450851617 -0.05470407510653341
0.6041137907802948 0.5017383593754152 -0.05470407510653341
0.15610595941205932 0.3388778374692696 -0.05424048124969837
0.1438021784516577 0.3388778374692696 -0.053498731078762345
0.5937014727557799 0.3388778374692696 -0.053498731078762345
0.7446290887869922 0.3510888996583042 -0.053498731078762345
0.21790302052816876 0.3296615915953892 -0.052849699679193306
0.16710240569618628 0.3601289798665872 -0.052849699679193306
0.19642008120243346 0.3829656132542808 -0.052849699679193306
0.4048426073583258 0.3368751120077422 -0.052849699679193306
0.43138799160069957 0.43061378985978505 -0.052849699679193306
0.5528588539686139 0.3337412175355374 -0.052849699679193306
0.5996447460004052 0.25516205880199994 -0.052849699679193306
0.7017002976440683 0.31947179862215525 -0.052849699679193306
0.7088581867936012 0.4333953530007952 -0.052849699679193306
0.675451613470069 0.4638905569034034 -0.052849699679193306
0.16089951989173362 0.34134415678763186 -0.05238610582235827
0.16089951989173362 0.4115786260981388 -0.051644355651422204
0.6200614194554198 0.3388778374692696 -0.051644355651422204
0.7177591888448336 0.29002431683599417 -0.051644355651422204
0.1911443831116509 0.41482378309598394 -0.05099532425185316
0.2275643165046108 0.32412628094477886 -0.05099532425185316
0.18779723546530197 0.4024458271184887 -0.05099532425185316
0.4080135893390775 0.33390811132399806 -0.05099532425185316
0.44793829228971005 0.44330698965992815 -0.05099532425185316
0.546720871304118 0.4450686463159012 -0.05099532425185316
0.6295465497662645 0.26755855853376864 -0.05099532425185316
0.6682288211805792 0.4600890872773562 -0.05099532425185316
0.6036223812920495 0.4984375711147499 -0.05099532425185316
0.570197264214244 0.5128924275708661 -0.05099532425185316
0.16127039497720158 0.339174537537644 -0.050531730395018154
0.46427533980457647 0.4243552727925122 -0.050531730395018154
0.7666034376009723 0.39993314841444283 -0.050531730395018154
0.23513944012529508 0.4154171832327328 -0.04914094882451305
0.17499277313951847 0.3415944974703228 -0.04914094882451305
0.19040263294071477 0.35843222635057104 -0.04914094882451305
0.20401374857739124 0.34352304791475646 -0.04914094882451305
0.42228300825245957 0.43260724344417567 -0.04914094882451305
0.5551582794985158 0.3441349918057787 -0.04914094882451305
0.5370132159419925 0.3005293536318759 -0.04914094882451305
0.6991876189400225 0.3165604292012312 -0.04914094882451305
0.7010234506130892 0.4261169294484853 -0.04914094882451305
0.5550933763585588 0.5162766627257616 -0.04914094882451305
0.6051986004052887 0.5018588937781924 -0.04914094882451305
0.12865193121028892 0.3632999618473389 -0.047935604796741985
0.4356345113293084 0.41214421060347745 -0.047935604796741985
0.691464145285151 0.41892195279040567 -0.047935604796741985
0.5711337238050507 0.5043530287279646 -0.04728657339717294
0.7205129363544337 0.3495683118078853 -0.04728657339717294
0.7307490887133512 0.3700869759114037 -0.04728657339717294
0.6827393088995156 0.2914985453007295 -0.04728657339717294
0.5479447590861625 0.4488515721876751 -0.04728657339717294
0.43053497890412323 0.434239093820235 -0.04728657339717294
0.3089713977648419 0.32122418340099157 -0.04728657339717294
0.2528301817021198 0.35582682887515815 -0.04728657339717294
0.1795081773050916 0.38537630130982287 -0.04728657339717294
0.20165869178466939 0.4016577175618691 -0.04728657339717294
0.15515095606697923 0.41214421060347745 -0.04682297954033791
0.4092838365068055 0.42569969497733373 -0.04608122936940187
0.534583984132177 0.3618257333826035 -0.04608122936940187
0.6250682331092381 0.2411800680798555 -0.04608122936940187
0.25664092320530374 0.38205696929488414 -0.04543219796983283
0.15418668084476236 0.39016986178949714 -0.04543219796983283
0.20383758291179402 0.4105030883502815 -0.04543219796983283
0.20037917273980466 0.3585249451219381 -0.04543219796983283
0.295249019602525 0.386767082880328 -0.04543219796983283
0.430201191327202 0.3243580778731964 -0.04543219796983283
0.5435220736919563 0.40932555995392056 -0.04543219796983283
0.6729667503974333 0.2978126936308227 -0.04543219796983283
0.7375639184088263 0.3960482318941653 -0.04543219796983283
0.5729046523381606 0.5087664422450344 -0.04543219796983283
0.14651883845271102 0.3388778374692696 -0.044968604112997794
0.534583984132177 0.3235606964394402 -0.044226853942061765
0.7026553009891485 0.4117733355180095 -0.044226853942061765
0.7018857351868023 0.3374777840216277 -0.044226853942061765
0.19784795028148544 0.38944665537283446 -0.04357782254249272
0.192627883453523 0.3270840097513864 -0.04357782254249272
0.1923033677537385 0.35357376273093993 -0.04357782254249272
0.31127082329474354 0.32433026224178635 -0.04357782254249272
0.3651960607217941 0.3678524535214589 -0.04357782254249272
0.42238499890096326 0.3254707031296004 -0.04357782254249272
0.5515329755380657 0.409835513196439 -0.04357782254249272
0.5608233964290398 0.3190082047653202 -0.04357782254249272
0.704741473344906 0.3059904892653925 -0.04357782254249272
0.735987699295587 0.3521829811604348 -0.04357782254249272
0.5737762087890104 0.5041026880452738 -0.04357782254249272
0.13212888513655163 0.3877220862254081 -0.04311422868565769
0.534583984132177 0.3233659870195695 -0.042372478514721625
0.644483543833489 0.2411800680798555 -0.042372478514721625
0.5838918267451507 0.5156276313261926 -0.042372478514721625
0.7074488614688227 0.32390375589349807 -0.042372478514721625
0.6383641049232667 0.471892186872376 -0.04172344711515258
0.7306470980648476 0.39917285448923345 -0.04172344711515258
0.563938747146971 0.23834287367602516 -0.04172344711515258
0.5499474845476899 0.4411837297956237 -0.04172344711515258
0.5665626883766574 0.43918100433409646 -0.04172344711515258
0.42751234695755863 0.4292322801664166 -0.04172344711515258
0.2868765145480843 0.33092256688598043 -0.04172344711515258
0.37207579355722603 0.343847563614541 -0.04172344711515258
0.18725019471423665 0.3528320125600039 -0.04172344711515258
0.1880475761479929 0.3578851855995057 -0.04172344711515258
0.20971595301646218 0.32228117739457546 -0.04172344711515258
0.20323491089790838 0.3434581447747997 -0.04172344711515258
0.5938590946671037 0.5220530421819263 -0.041259853258317575
0.09495792969551901 0.41214421060347745 -0.04051810308738151
0.4979415256879363 0.4732087934257876 -0.04051810308738151
0.7074488614688227 0.33561413671715096 -0.04051810308738151
0.5425670703468763 0.3510888996583042 -0.04051810308738151
0.1747053449482807 0.36122306136871796 -0.03986907168781247
0.23626133725883594 0.4148423268502574 -0.03986907168781247
0.19500148400051834 0.3480199083260563 -0.03986907168781247
0.24490272675024077 0.3474821394521277 -0.03986907168781247
0.4048426073583258 0.4146012580447031 -0.03986907168781247
0.3810880581340989 0.42006239367821985 -0.03986907168781247
0.33104773722732594 0.34678674866687514 -0.03986907168781247
0.550095834581877 0.4412393610584439 -0.03986907168781247
0.5439578519173814 0.36626696253108304 -0.03986907168781247
0.5709111987537699 0.3677504628729551 -0.03986907168781247
0.6403019272448371 0.2799457863884006 -0.03986907168781247
0.7289410726716947 0.3393692469575147 -0.03986907168781247
0.6645571578344457 0.4600612716459461 -0.03986907168781247
0.1295420314154122 0.3919037028140601 -0.039405477830977434
0.4002530281756591 0.46099773123675286 -0.038663727660041405
0.5948326417664576 0.3022446509021655 -0.038663727660041405
0.7332710392945337 0.4243552727925122 -0.038663727660041405
0.5793856944567144 0.5049371569875769 -0.03801469626047236
0.6550349400150544 0.47973619493002473 -0.03801469626047236
0.7336790018885486 0.4146568893075233 -0.03801469626047236
0.5583570771106775 0.4214624471258616 -0.03801469626047236
0.5485567029771848 0.385682273255334 -0.03801469626047236
0.5714953270133822 0.4177629681483181 -0.03801469626047236
0.4486985862149197 0.3110343904277577 -0.03801469626047236
0.40843082381022894 0.33696783077910925 -0.03801469626047236
0.39496805820773967 0.36268801795631667 -0.03801469626047236
0.243224516988498 0.34182629439874035 -0.03801469626047236
0.22356813745869286 0.33365777064130714 -0.03801469626047236
0.17370398221751712 0.3526651187715433 -0.03801469626047236
0.16172471695689997 0.3997291671174354 -0.03801469626047236
0.12254176417720332 0.3388778374692696 -0.03755110240363733
0.4002530281756591 0.31445571309120024 -0.03680935223270129
0.5428544985381141 0.39993314841444283 -0.03680935223270129
0.7177591888448336 0.29002431683599417 -0.03680935223270129
0.1852845567612561 0.39839401680975056 -0.03616032083313225
0.1443677629569965 0.35334196580252236 -0.03616032083313225
0.2625192933099719 0.36368938068708023 -0.03616032083313225
0.28955608704059077 0.33372267378126397 -0.03616032083313225
0.35637850556479195 0.343847563614541 -0.03616032083313225
0.29513775707688455 0.3951488598119053 -0.03616032083313225
0.5592564491929373 0.4419625674751066 -0.03616032083313225
0.5442545519857557 0.3841709572820518 -0.03616032083313225
0.5712449863306911 0.3650708903804486 -0.03616032083313225
0.6636299701207757 0.293992680250502 -0.03616032083313225
0.5820652669492207 0.5061981322781682 -0.03616032083313225
0.5956392950773504 0.23523679483523038 -0.035696726976297215
0.11623688772424687 0.38478290117307407 -0.034954976805361186
0.46426606792743974 0.4351013783939482 -0.034954976805361186
0.6811260022777297 0.4854198556148222 -0.034954976805361186
0.6163526686007396 0.24580673477106904 -0.034954976805361186
0.14522077565357291 0.3993026607691472 -0.03430594540579214
0.15092298009264374 0.35300817822560115 -0.03430594540579214
0.3036678840426491 0.36218733659093477 -0.03430594540579214
0.5819910919321271 0.4432699021513814 -0.03430594540579214
0.5490573843425667 0.38455110424465655 -0.03430594540579214
0.5777260284492449 0.3106542434651529 -0.03430594540579214
0.6222032230739976 0.25448521177102085 -0.03430594540579214
0.5868124680432114 0.5049278851104402 -0.03430594540579214
0.6200614194554198 0.5098419799928915 -0.03384235154895711
0.1152169812392098 0.3920798684796575 -0.033100601378021045
0.6200614194554198 0.41214421060347745 -0.033100601378021045
0.7100542589442356 0.40897322862272584 -0.033100601378021045
0.15494697476997177 0.39295142493050733 -0.032451569978452
0.1594067476727248 0.36136213952576846 -0.032451569978452
0.29727028881832573 0.34982792436771293 -0.032451569978452
0.42690040306653665 0.3176915982119087 -0.032451569978452
0.547991118471846 0.34217862572993496 -0.032451569978452
0.5392570102090742 0.43354370303498246 -0.032451569978452
0.658168834487259 0.27271372222177415 -0.032451569978452
0.6415814462897018 0.47930041670459983 -0.032451569978452
0.127010808957093 0.41214421060347745 -0.031987976121616996
0.554249635539119 0.45492465171221397 -0.031246225950680932
0.5954538575346162 0.3755110240363735 -0.031246225950680932
0.7161922416087314 0.39993314841444283 -0.031246225950680932
0.16999523136283684 0.39932120452342057 -0.03059719455111189
0.13121096930001824 0.34717616750661656 -0.03059719455111189
0.30724682861741553 0.3394805094831551 -0.03059719455111189
0.42226446449818633 0.3246362341872975 -0.03059719455111189
0.5547503169045008 0.33458495835497715 -0.03059719455111189
0.5748332027825943 0.3172558199864838 -0.03059719455111189
0.6888031165469178 0.3133245440805228 -0.03059719455111189
0.6079894354234354 0.49948529323119706 -0.03059719455111189
0.6259490614372246 0.5098419799928915 -0.030133600694276855
0.09857396177883225 0.3510888996583042 -0.029391850523340823
0.46405281475329563 0.4365663349815468 -0.029391850523340823
0.7127523751910154 0.4482303564195162 -0.029391850523340823
0.14176236548158355 0.39279380301918343 -0.02874281912377178
0.14420086916853586 0.36212243345097783 -0.02874281912377178
0.30723755674027875 0.3394805094831551 -0.02874281912377178
0.4222088332353662 0.3245898748016139 -0.02874281912377178
0.5478242246833853 0.4074062813866235 -0.02874281912377178
0.6005626618369384 0.250081070131088 -0.02874281912377178
0.725427031236885 0.34649932047563736 -0.02874281912377178
0.6205621008208017 0.4974918396468064 -0.02874281912377178
0.40687314845126316 0.3632999618473389 -0.028279225266936745
0.46331106458235977 0.4487773971705815 -0.027537475096000713
0.595741285725854 0.3510888996583042 -0.027537475096000713
0.7543923754119378 0.4243552727925122 -0.027537475096000713
0.1526290054857966 0.4048750589283043 -0.02688844369643167
0.14984744234478647 0.3648390934520312 -0.02688844369643167
0.2971497544155486 0.3505604026615122 -0.02688844369643167
0.44619517938801045 0.4396075106823846 -0.02688844369643167
0.5490759280968401 0.3091800150004176 -0.02688844369643167
0.649499629364444 0.28014976768540806 -0.02688844369643167
0.7313424888501 0.41000240698489965 -0.02688844369643167
0.5779114659919788 0.5141534028614573 -0.02688844369643167
0.4054081918636646 0.3510888996583042 -0.026424849839596636
0.4059552326147299 0.376985252501109 -0.025683099668660603
0.4415685126967969 0.3021797477622086 -0.025683099668660603
0.7666034376009723 0.39993314841444283 -0.025683099668660603
0.15033885183303158 0.4082407503289266 -0.02503406826909156
0.1575616441225214 0.36117670198303437 -0.02503406826909156
0.2935615379636455 0.3501431681903607 -0.02503406826909156
0.4504046116080726 0.4426765020146325 -0.02503406826909156
0.5808691947985865 0.44349242720266213 -0.02503406826909156
0.6891739916323858 0.3032181980015191 -0.02503406826909156
0.7349028896705931 0.4114766354496351 -0.02503406826909156
0.5760107311789553 0.4977421803294972 -0.02503406826909156
0.10716899188455374 0.38400406349359123 -0.023828724241320463
0.4639971834904755 0.4351013783939482 -0.023828724241320463
0.6420913995322202 0.2533911302688901 -0.023828724241320463
0.6451233033559213 0.49763091780385676 -0.023828724241320463
0.1222636078631023 0.34937360238801457 -0.023179692841751417
0.3683577708254091 0.35052331515296553 -0.023179692841751417
0.41878751057192365 0.3851445043814054 -0.023179692841751417
0.5492057343767538 0.3429111040237342 -0.023179692841751417
0.5735814993691397 0.3152809101563666 -0.023179692841751417
0.7044540451536683 0.30255989472481337 -0.023179692841751417
0.685455968900569 0.45112318208616675 -0.023179692841751417
0.4002530281756591 0.4150833956558116 -0.022716098984916416
0.4630792676539422 0.3004737223690557 -0.022716098984916416
0.7410037848265421 0.4243552727925122 -0.022716098984916416
0.11464212485673439 0.3911619526431241 -0.021325317414411307
0.1093849705202251 0.3543433285332861 -0.021325317414411307
0.3043725467050383 0.3364578775365906 -0.021325317414411307
0.42878259412528663 0.31601338845016586 -0.021325317414411307
0.555149007621379 0.40412403688023146 -0.021325317414411307
0.6197832631413188 0.2612722258350857 -0.021325317414411307
0.7290245195659248 0.4013610174934947 -0.021325317414411307
0.6348593353655937 0.4787070165678509 -0.021325317414411307
0.40586251384336297 0.38625712963780956 -0.020861723557576272
0.4632183458109926 0.3037096074897642 -0.020861723557576272
0.7410037848265421 0.4243552727925122 -0.020861723557576272
0.6502691951667902 0.25968673484470983 -0.020861723557576272
0.6471260288174486 0.4861894214171683 -0.019470941987071198
0.6870507317680815 0.30111348189148807 -0.019470941987071198
0.5736834900176434 0.31159070305595965 -0.019470941987071198
0.42438772436249067 0.4321900089730242 -0.019470941987071198
0.4137621531638319 0.35173793105787327 -0.019470941987071198
0.37201089041726904 0.35930378280142083 -0.019470941987071198
0.12728896527119402 0.3888996146217692 -0.019470941987071198
0.6642975452746182 0.48226741738834394 -0.019007348130236162
0.4054081918636646 0.3510888996583042 -0.018265597959300134
0.5443194551257127 0.3632999618473389 -0.018265597959300134
0.7634602712516309 0.3755110240363735 -0.018265597959300134
0.701338694435737 0.29561525874942457 -0.018265597959300134
0.13570782971131803 0.3975873634988576 -0.01761656655973109
0.3943932018252643 0.39178316841128297 -0.01761656655973109
0.42651098422679523 0.31732999500357734 -0.01761656655973109
0.5491037437282501 0.4037253461633534 -0.01761656655973109
0.549539521953675 0.29900876578145696 -0.01761656655973109
0.7105920278181641 0.3077150584128189 -0.01761656655973109
0.6775563295801 0.45739097103057635 -0.01761656655973109
0.713262328433534 0.4487773971705815 -0.017152972702896053
0.4054081918636646 0.41214421060347745 -0.017152972702896053
0.7177591888448336 0.451920563519923 -0.016411222531960024
0.5348528685691415 0.36643385631954367 -0.016411222531960024
0.40776324865638647 0.3371718120761166 -0.016411222531960024
0.1180356318887668 0.4093626474624673 -0.015762191132390982
0.3546632082945023 0.4078513314891851 -0.015762191132390982
0.4297097818389569 0.4350179314997179 -0.015762191132390982
0.5492428218853007 0.3420951788357046 -0.015762191132390982
0.5517833162207567 0.4457640371011538 -0.015762191132390982
0.6241039578870211 0.2710447843371681 -0.015762191132390982
0.6537276053387796 0.4745346718563358 -0.015762191132390982
0.7218295429078454 0.3022446509021655 -0.015298597275555945
0.40061463138399045 0.3510888996583042 -0.015298597275555945
0.4054081918636646 0.3388778374692696 -0.014556847104619882
0.5444399895284898 0.3877406299796816 -0.014556847104619882
0.7074488614688227 0.3346869490034808 -0.014556847104619882
0.12344113625946322 0.3470000018410192 -0.013907815705050838
0.3044930811078155 0.3364022462737704 -0.013907815705050838
0.42858788470541603 0.3158279509074319 -0.013907815705050838
0.5560669234579123 0.4007583454796092 -0.013907815705050838
0.6575198030876901 0.27665427000487186 -0.013907815705050838
0.725742275059533 0.41282105763445665 -0.013907815705050838
0.6444464563249424 0.4739783592281337 -0.013907815705050838
0.7074488614688227 0.41958025606711136 -0.013444221848215835
0.4084122800559557 0.31445571309120024 -0.012702471677279772
0.534583984132177 0.3984681918268441 -0.012702471677279772
0.688274619550126 0.284794978130895 -0.012702471677279772
0.11823034130863752 0.3413905161733153 -0.012053440277710728
0.37566401000912913 0.35960975474693196 -0.012053440277710728
0.414559534597588 0.3105429809395125 -0.012053440277710728
0.5837898360966471 0.30702893950470306 -0.012053440277710728
0.622379388739595 0.48514169930072115 -0.012053440277710728
0.7216626491193848 0.4275633422818106 -0.012053440277710728
0.6230098763848905 0.49910514626859237 -0.012053440277710728
0.10942205802877195 0.3513392403409951 -0.010848096249939662
0.6107895423187193 0.3388778374692696 -0.010848096249939662
0.7639424088627395 0.3700869759114037 -0.010848096249939662
0.12949567202972875 0.36088000191465996 -0.010199064850370618
0.3302596276707063 0.4050141370853548 -0.010199064850370618
0.41844445111786566 0.3439310105087713 -0.010199064850370618
0.5512826348553749 0.342577316446813 -0.010199064850370618
0.5897516530955456 0.450993375806253 -0.010199064850370618
0.670092468485056 0.4630468160839637 -0.010199064850370618
0.6733932567457214 0.28332074966615967 -0.010199064850370618
0.7344485676908948 0.4142211110820984 -0.010199064850370618
0.10716899188455374 0.39993314841444283 -0.008993720822599553
0.5999970773315996 0.4384207104088869 -0.008993720822599553
0.7609939519332686 0.3632999618473389 -0.008993720822599553
0.11599581891869268 0.3868505297745583 -0.008344689423030509
0.3887280848947402 0.3882598550993368 -0.008344689423030509
0.4212260142588757 0.31579086339888507 -0.008344689423030509
0.5464427149900173 0.38192716301497026 -0.008344689423030509
0.675479429101479 0.28740964748344466 -0.008344689423030509
0.7395388282389435 0.3555394006839205 -0.008344689423030509
0.7580269512495245 0.3708565417137499 -0.008344689423030509
0.688274619550126 0.2804093802452356 -0.007881095566195474
0.6200614194554198 0.3510888996583042 -0.007139345395259443
0.4082639300217683 0.4365663349815468 -0.007139345395259443
0.29722392943264214 0.35005044941899377 -0.0064903139956904
0.3174273497135127 0.4015186394048187 -0.0064903139956904
0.42164324873002734 0.40379024930331026 -0.0064903139956904
0.44546270109421104 0.3072885520645306 -0.0064903139956904
0.5748981059225512 0.4362140036503522 -0.0064903139956904
0.6643717202917119 0.4665701293959099 -0.0064903139956904
0.7180558889132082 0.4307714117711089 -0.0064903139956904
0.7055481266557991 0.452541779288082 -0.006026720138855364
0.5562894485091932 0.29527219929536674 -0.005284969967919301
0.4431076443014892 0.4522172635882974 -0.005284969967919301
0.11835087571141455 0.3956402693001505 -0.0046359385683502575
0.3703512244097996 0.3992841170148737 -0.0046359385683502575
0.316212733808605 0.4035584523748928 -0.0046359385683502575
0.4537517592544214 0.30993103704849034 -0.0046359385683502575
0.5484361685744076 0.3031718386158355 -0.0046359385683502575
0.7386672717880937 0.3539168221849979 -0.0046359385683502575
0.6471353006945854 0.4737372904225794 -0.0046359385683502575
0.7021917071323134 0.29097932018107425 -0.003430594540579191
0.4002530281756591 0.4487773971705815 -0.003430594540579191
0.43686767098848966 0.3877220862254081 -0.003430594540579191
0.4045737229213615 0.3535181314681197 -0.003430594540579191
0.36619742345255785 0.35349031583670965 -0.002781563141010148
0.36615106406687437 0.3812503159839912 -0.002781563141010148
0.3843332151319442 0.3634668556357994 -0.002781563141010148
0.41668279446189255 0.30879059616067617 -0.002781563141010148
0.5934882195816358 0.3148544038080783 -0.002781563141010148
0.7502942057175161 0.37077309481951953 -0.002781563141010148
0.6693043589284364 0.2964126401831808 -0.002781563141010148
0.7654166373274748 0.3755110240363735 -0.0015762191132390815
0.407716889270703 0.36030514553218457 -0.0015762191132390815
0.6200614194554198 0.3510888996583042 -0.0015762191132390815
0.42506457139346987 0.42749843914185365 -9.271877136700383E-4
0.30676469100630716 0.33589229303125195 -9.271877136700383E-4
0.3460589063116442 0.4050141370853548 -9.271877136700383E-4
0.4249811244992394 0.3244044372588799 -9.271877136700383E-4
0.5897145655869986 0.3167273229896918 -9.271877136700383E-4
0.7515273653766974 0.3774395744808072 -9.271877136700383E-4
0.7422925757485435 0.3799615250619898 -9.271877136700383E-4
0.4245824337823615 0.3540559003420484 2.7815631410102795E-4
0.43185158545753466 0.3964654663653169 2.7815631410102795E-4
0.7162942322572351 0.4477760344398178 2.7815631410102795E-4
0.729117238337292 0.40436510568578565 9.271877136700713E-4
0.6948483804400467 0.45760422420472047 9.271877136700713E-4
0.5409537637250904 0.45198546665987993 9.271877136700713E-4
0.41264025603029103 0.33020863234645453 9.271877136700713E-4
0.3889135224374743 0.3720247982329741 9.271877136700713E-4
0.3637403760113322 0.3754832084049634 9.271877136700713E-4
0.40523202619806725 0.32666677528023486 0.0021325317414411377
0.6200614194554198 0.39993314841444283 0.0021325317414411377
0.7140782536215636 0.3236626870879439 0.002781563141010181
0.70672565505216 0.3072607364331205 0.002781563141010181
0.6698977590651854 0.2961715713776266 0.002781563141010181
0.54991966891628 0.4474237031086232 0.002781563141010181
0.428958759790884 0.32311564633687856 0.002781563141010181
0.36740276748032885 0.37565937407056077 0.002781563141010181
0.7337346331513689 0.3206307832642428 0.00398690716878128
0.5353628218116598 0.3022446509021655 0.00398690716878128
0.40696586722263034 0.3222070023774819 0.00398690716878128
0.7220335242048527 0.4128952326515502 0.0046359385683503234
0.552117103797678 0.3831046914113313 0.0046359385683503234
0.5512919067325116 0.29832264687334115 0.0046359385683503234
0.4211425673646455 0.42885213320381194 0.0046359385683503234
0.35239159839601064 0.3522478843003918 0.0046359385683503234
0.7666034376009723 0.3510888996583042 0.00584128259612139
0.4256208840216719 0.3022446509021655 0.00584128259612139
0.5833447859940855 0.4444567024248791 0.006490313995690433
0.7018208320468454 0.44227781129775434 0.006490313995690433
0.7142636911642977 0.3102926402568216 0.006490313995690433
0.4475117859414219 0.3139550317258184 0.006490313995690433
0.4137157937781482 0.42570896685447046 0.006490313995690433
0.36362911348569177 0.37937739680237764 0.006490313995690433
0.6200614194554198 0.3022446509021655 0.0076956580234614986
0.7485789084472265 0.3388778374692696 0.0076956580234614986
0.7289225289174212 0.33466840524920743 0.008344689423030542
0.7189181734869212 0.33464058961779736 0.008344689423030542
0.5498269501449128 0.3079839428497832 0.008344689423030542
0.4140310376007962 0.3100237558198573 0.008344689423030542
0.3043725467050383 0.37468582697120717 0.008344689423030542
0.7601872986223757 0.3510888996583042 0.009550033450801609
0.4002530281756591 0.3022446509021655 0.009550033450801609
0.4002530281756591 0.31445571309120024 0.009550033450801609
0.6966378527274298 0.31204502503565806 0.010199064850370651
0.5858389209438579 0.43392384999758715 0.010199064850370651
0.42577850593299577 0.31664387609546146 0.010199064850370651
0.4246936963080019 0.4174106368171235 0.010199064850370651
0.3731791469364934 0.3651728810289524 0.010199064850370651
0.4597135762533199 0.2974140029139445 0.011404408878141719
0.5923848662023685 0.3388778374692696 0.011404408878141719
0.7521671248991296 0.37195062321588046 0.012053440277710761
0.739112321890655 0.386118051480759 0.012053440277710761
0.5853289677013394 0.31310201902924195 0.012053440277710761
0.4575439570033319 0.32080694892984 0.012053440277710761
0.3609773566245954 0.38853801141343786 0.012053440277710761
0.7665570782152888 0.3877220862254081 0.013258784305481861
0.5958803638829047 0.2948549648242152 0.013258784305481861
0.7213937646824204 0.4215180783886818 0.013907815705050904
0.7443509324728911 0.3783945778258875 0.013907815705050904
0.5527661351972469 0.3002604691949116 0.013907815705050904
0.42024319528238546 0.42365061013012284 0.013907815705050904
0.36557620768439886 0.3893353928471941 0.013907815705050904
0.4068824203283999 0.40640491865585976 0.01511315973282197
0.73592279615563 0.34394955426304474 0.015762191132391013
0.7447959825754525 0.37632694922440313 0.015762191132391013
0.5856720271553973 0.3125457064010399 0.015762191132391013
0.412983315484349 0.3231434619682887 0.015762191132391013
0.3065050784464795 0.3839391603536344 0.015762191132391013
0.5561225547207325 0.45864267444403084 0.01696753516016208
0.5561596422292792 0.2923793736287162 0.01696753516016208
0.7274946598383694 0.33691219951628903 0.017616566559731123
0.5432068298693086 0.43508283463967473 0.017616566559731123
0.4531676309948094 0.3093376369117415 0.017616566559731123
0.30850780390800675 0.37764355577781467 0.017616566559731123
0.3118920390629025 0.37901579359404636 0.017616566559731123
0.6200614194554198 0.41214421060347745 0.019470941987071232
0.7459642390946768 0.39217258725102444 0.019470941987071232
0.582371238894732 0.4352590003052721 0.019470941987071232
0.44716872648736394 0.31363051602603376 0.019470941987071232
0.41338200620122695 0.42972368965466173 0.019470941987071232
0.3170379308737713 0.3882042238365166 0.019470941987071232
0.7337346331513689 0.3498742837533964 0.021325317414411342
0.5434293549205894 0.4364087130702229 0.021325317414411342
0.4463157137907876 0.30372815124403757 0.021325317414411342
0.3624330413350573 0.3869896079316088 0.021325317414411342
0.35463539266309224 0.3886956333247617 0.021325317414411342
0.5850693551415118 0.29298204564260166 0.02215978635671439
0.5865621273605206 0.445077918193038 0.023179692841751483
0.5436426080947334 0.31573523213606486 0.023179692841751483
0.44914363631748133 0.44387257416526693 0.023179692841751483
0.3118549515543557 0.35271147815722675 0.023179692841751483
0.4002530281756591 0.3388778374692696 0.024755911954990564
0.7487179866042769 0.3786912778942618 0.025034068269091592
0.5864415929577435 0.3125457064010399 0.025034068269091592
0.4104520930260298 0.3323504359650323 0.025034068269091592
0.3210711974282361 0.3958442505971579 0.025034068269091592
0.7574706386213224 0.3777640901805917 0.026888443696431702
0.5924404974651887 0.3172372762322104 0.026888443696431702
0.42908856607079787 0.4363252661759926 0.026888443696431702
0.4002530281756591 0.3755110240363735 0.027352037553266737
0.6200614194554198 0.4487773971705815 0.027352037553266737
0.5934233164416789 0.3175339763005848 0.02874281912377181
0.42023392340524873 0.43611201300184854 0.02874281912377181
0.44283875986452487 0.29785905301650617 0.02994816315154288
0.35266975471011164 0.36301253365610114 0.02994816315154288
0.5441432894601154 0.43547225347941615 0.03059719455111192
0.4487078580920562 0.3077799615527757 0.03059719455111192
0.34036597374971 0.37425004874578227 0.03059719455111192
0.6032051468208981 0.3251925468154994 0.032358851207085045
0.5505223409301655 0.4497509442699351 0.03245156997845206
0.4201412046338818 0.3147802287909847 0.03245156997845206
0.4276977845002928 0.42740572037048663 0.03245156997845206
0.5871740712515426 0.31310201902924195 0.034305945405792175
0.4102110242204755 0.3326656797876802 0.034305945405792175
0.3493411508180362 0.39993314841444283 0.03476953926262721
0.44063205310599013 0.30067770366606317 0.03476953926262721
0.5948048261350473 0.4378829415349583 0.03616032083313228
0.4240168492770227 0.3234865214223465 0.03616032083313228
0.34723643470800514 0.3810185190555736 0.03616032083313228
0.4979415256879363 0.4732087934257876 0.03662391468996732
0.5791260818968865 0.4411280985328035 0.038014696260472394
0.4272249187663211 0.3145391599854305 0.038014696260472394
0.4576366757746991 0.4411280985328035 0.038014696260472394
0.6036409250463229 0.43965387006806816 0.038478290117307426
0.34308263375076337 0.39255273421362913 0.038478290117307426
0.5459605773789086 0.3012896475570854 0.0398690716878125
0.4485687799350058 0.43814255409478586 0.0398690716878125
0.33349551279141487 0.39993314841444283 0.04033266554464754
0.6200614194554198 0.41214421060347745 0.041222765749770796
0.5944988541895363 0.45215236044834056 0.04172344711515265
0.4136045312525078 0.3302920792406848 0.04172344711515265
0.34364821825610203 0.36698089707060894 0.04172344711515265
0.5919027285912601 0.2978683248936429 0.043577822542492754
0.44739125153864473 0.43795711655205194 0.043577822542492754
0.5768637438755316 0.33062586681760603 0.04396724138223416
0.4069380515912201 0.31703329493520294 0.04396724138223416
0.5949160886606877 0.29910148455282404 0.04543219796983287
0.42860642845968955 0.4367888600328276 0.04543219796983287
0.5569662955401723 0.2931582113081989 0.04671171701469756
0.4040637696788429 0.32666677528023486 0.04671171701469756
0.5921808849053611 0.2977570623680025 0.047286573397172973
0.447076007715997 0.43786439778068487 0.047286573397172973
0.5499382126705532 0.4537378514387163 0.04914094882451309
0.45028407720529545 0.3084660804608917 0.04914094882451309
0.4562180785727837 0.43107738371662 0.04914094882451309
0.4067989734341697 0.43196748392174333 0.049456192647160925
0.5494560750594448 0.4481005501396023 0.05099532425185323
0.414624437737545 0.32796483807937293 0.05099532425185323
0.34009708931274574 0.3878333487510485 0.05099532425185323
0.4002530281756591 0.4243552727925122 0.052200668279624295
0.5953147793775658 0.4297051459003884 0.052849699679193334
0.4516934025300738 0.3123417251040324 0.052849699679193334
0.45046951474802926 0.4483138033137465 0.052849699679193334
0.6027230092097897 0.42035909374659425 0.0540550437069644
0.5893436905015307 0.4339053062433138 0.05470407510653345
0.41978887330268705 0.3230229275655115 0.05470407510653345
0.4497184926999566 0.44194402372083325 0.05470407510653345
0.5712171706992811 0.4243552727925122 0.055909419134304514
0.4368862147427632 0.41214421060347745 0.055909419134304514
0.5487421405199189 0.45132716338317425 0.05655845053387355
0.4285229815654591 0.3176545107033619 0.05655845053387355
0.34364821825610203 0.37753229325217424 0.05655845053387355
0.44298710989871204 0.45107682270048327 0.05776379456164462
0.40301604756239573 0.32294875254841793 0.05776379456164462
0.5813049730240113 0.43771604774649775 0.058412825961213666
0.45363122485164425 0.31245298762967283 0.058412825961213666
0.42826336900563156 0.4371041038554755 0.058412825961213666
0.4037763414876054 0.40237165210139514 0.0588764198180487
0.5712171706992811 0.4243552727925122 0.05961816998898476
0.4029233287910288 0.3251925468154994 0.05961816998898476
0.5352422874088827 0.44963040986715797 0.06026720138855381
0.5819910919321271 0.31469678189675443 0.06026720138855381
0.4212723736445594 0.34473766381966425 0.06026720138855381
0.3295364212540437 0.36737958778748714 0.06026720138855381
0.5241253067219789 0.2932416582024292 0.06073079524538881
0.4002530281756591 0.37403679557163805 0.061472545416324874
0.47058021625753294 0.4243552727925122 0.061472545416324874
0.5265174510232477 0.32137253343517885 0.061472545416324874
0.5376900629729717 0.30795612721837307 0.06212157681589391
0.4538630217800618 0.3123602688583058 0.06212157681589391
0.41965906702277345 0.42972368965466173 0.06212157681589391
0.48211443141558846 0.32666677528023486 0.06258517067272895
0.4002530281756591 0.29002431683599417 0.06332692084366498
0.5204721871301188 0.3133894472204796 0.06332692084366498
0.4888736298482433 0.4487773971705815 0.06332692084366498
0.4141793876349833 0.4496211379900212 0.06332692084366498
0.5805539509759384 0.30550835165428414 0.06397595224323402
0.4195385326199963 0.3228004025142307 0.06397595224323402
0.415801966133906 0.41938554664724065 0.06397595224323402
0.43564378320644515 0.39993314841444283 0.06443954610006906
0.43564378320644515 0.3510888996583042 0.06518129627100509
0.4826151127809703 0.42939917395487726 0.06518129627100509
0.6035945656606395 0.33062586681760603 0.06518129627100509
0.5423167296641853 0.4437056803768063 0.06583032767057413
0.5269532292486726 0.31554052271619415 0.06583032767057413
0.4741498889551626 0.3184704358913915 0.06583032767057413
0.45767376328324577 0.4490555534846825 0.06583032767057413
0.4073831016937818 0.3841245978963684 0.06629392152740916
0.5060915056910963 0.4243552727925122 0.0670356716983452
0.4869079918952626 0.29002431683599417 0.0670356716983452
0.40061463138399045 0.3632999618473389 0.0670356716983452
0.54084250119945 0.45141061027740453 0.06768470309791424
0.4168496882503532 0.3407878441594298 0.06768470309791424
0.4164139100249283 0.40948318186524446 0.06768470309791424
0.4869079918952626 0.32666677528023486 0.06814829695474928
0.5142043981857093 0.4243552727925122 0.06814829695474928
0.4735194013098671 0.3251925468154994 0.06889004712568535
0.5712171706992811 0.4243552727925122 0.06889004712568535
0.5820559950720839 0.44587529962679423 0.06953907852525439
0.5938312790356938 0.29707094345988666 0.06953907852525439
0.41479133152600556 0.307001123873293 0.06953907852525439
0.4267242374009393 0.39138447769440493 0.06953907852525439
0.48943921435358184 0.29425229281032966 0.07000267238208939
0.4106282586916269 0.4487773971705815 0.07074442255302545
0.6004977586969815 0.3388778374692696 0.07074442255302545
0.5967797359651644 0.3212798146638118 0.0713934539525945
0.4128256935730252 0.3429018321465976 0.0713934539525945
0.4115554464052972 0.4113746448011313 0.0713934539525945
0.4104799086574398 0.4487773971705815 0.07259879798036556
0.5823434232633218 0.4459865621524346 0.07324782937993461
0.5344541778522633 0.29746036229962797 0.07324782937993461
0.42629773105265084 0.3136676035345806 0.07324782937993461
0.5771140845582227 0.32666677528023486 0.0744531734077057
0.4002530281756591 0.3510888996583042 0.0744531734077057
0.4191862012888016 0.34459858566261375 0.07510220480727475
0.40914475834975483 0.34575757030470133 0.07510220480727475
0.6200614194554198 0.31445571309120024 0.07630754883504579
0.5266750729345716 0.44288048331164 0.07695658023461482
0.41920474504307503 0.428509073749754 0.07695658023461482
0.469838466086597 0.4500198287068994 0.07695658023461482
0.46204081741463177 0.45296828563637015 0.07816192426238593
0.5296977048811359 0.30770578653568215 0.07881095566195497
0.5249412319100084 0.4495376910957909 0.07881095566195497
0.40603867950896033 0.442351986314848 0.080016299689726
0.524959775664282 0.4431308239943309 0.08066533108929505
0.42175451125566776 0.4346748720456599 0.08066533108929505
0.5981241581499861 0.45243051676244156 0.08066533108929505
0.4979415256879363 0.4732087934257876 0.08187067511706614
0.4191491137802548 0.36100980819457384 0.08251970651663519
0.5856812990325341 0.44105392351570993 0.08251970651663519
0.5185529085628218 0.45864267444403084 0.08372505054440628
0.4002530281756591 0.4243552727925122 0.08372505054440628
0.42708584060927046 0.43750279457235364 0.08437408194397533
0.48409861312284236 0.2999637691265372 0.08437408194397533
0.6200614194554198 0.31445571309120024 0.08557942597174636
0.5915225816286555 0.3039784919267285 0.0862284573713154
0.5915782128914756 0.43639016931594954 0.0862284573713154
0.6015362089362919 0.3248680311157149 0.0862284573713154
0.48459002261108747 0.4577525742389077 0.0874338013990865
0.42372942108578493 0.3147153256510278 0.08808283279865554
0.4054081918636646 0.36545103734305345 0.08928817682642658
0.5956392950773504 0.4092050255511434 0.08928817682642658
0.591810009819893 0.3057679642141117 0.08993720822599563
0.5996632897546784 0.43653851935013666 0.08993720822599563
0.5827421139801999 0.41601985524661833 0.09114255225376672
0.5012886733342854 0.4558332956716106 0.09114255225376672
0.5917636504342094 0.4390419261770459 0.09179158365333577
0.5891026216959766 0.3070103957504296 0.09364595908067591
0.5840772642878849 0.438791585494355 0.09364595908067591
0.4002530281756591 0.46099773123675286 0.09398901853473382
0.5846521206703601 0.4467097685690973 0.09550033450801598
0.6022686872300913 0.3330550986274216 0.09550033450801598
0.4276514251146093 0.3202320925473646 0.09735470993535612
0.5960379857942285 0.31324109718629245 0.09735470993535612
0.4178325072268434 0.43625109115889904 0.09920908536269621
0.40770761739356626 0.45207818543124684 0.09967267921953127
0.4273547250462348 0.31655115732409456 0.10106346079003635
0.5922921474310016 0.3202320925473646 0.10106346079003635
0.4437659475781949 0.45397892024427045 0.10152705464687135
0.5848097425816841 0.3119059468786075 0.10291783621737649
0.45446569379394736 0.3111827404619449 0.10291783621737649
0.46773374997656597 0.45497101109789745 0.1033814300742115
0.5843739643562591 0.4431679115028776 0.10477221164471656
0.4395657872352695 0.4399783857678527 0.10477221164471656
0.41109185254846203 0.45204109792270014 0.10477221164471656
0.6200614194554198 0.3632999618473389 0.10523580550155164
0.5852918801927927 0.4387452261086714 0.1066265870720567
0.5943041447696654 0.43327481859801814 0.1066265870720567
0.42369233357723823 0.3078726803241428 0.1066265870720567
0.45814662901721737 0.29240718926012627 0.1070901809288917
0.422116114463999 0.3649318122233981 0.10848096249939679
0.42695603432935686 0.43829090412897315 0.10848096249939679
0.44254205979615036 0.4548226610637103 0.10848096249939679
0.4869079918952626 0.46099773123675286 0.10894455635623185
0.6200614194554198 0.39993314841444283 0.10968630652716789
0.49444602800740034 0.44437325553064877 0.11033533792673693
0.5317189740969365 0.3028844104245979 0.11033533792673693
0.47530887359725016 0.3076316115185886 0.11033533792673693
0.5698820203915962 0.46099773123675286 0.11154068195450803
0.4979415256879363 0.28583342837020553 0.11154068195450803
0.585987270978045 0.44723826556588925 0.11218971335407707
0.5273982793512342 0.29856371567889534 0.11218971335407707
0.6067655476413912 0.4368074037871011 0.11265330721091207
0.4219770363069486 0.4294269895862874 0.11404408878141714
0.5597664024354558 0.44612564030948515 0.11404408878141714
0.514334204465623 0.3043864545207433 0.11404408878141714
0.6200614194554198 0.31445571309120024 0.11450768263825221
0.5539992948564282 0.4468673904804212 0.1158984642087573
0.5937385602643269 0.3122211907012554 0.1158984642087573
0.5021324141537249 0.3056010704256511 0.1158984642087573
0.6072198696210893 0.3632999618473389 0.11636205806559229
0.5911146190346405 0.4557776644087904 0.11775283963609737
0.4950116125127389 0.44810982201673905 0.11775283963609737
0.5971784266820426 0.27781325464695944 0.11821643349293244
0.5965201234053369 0.2937330676906745 0.11960721506343751
0.42146708306443 0.3963263882082664 0.11960721506343751
0.4749194547575087 0.38815786445083317 0.11960721506343751
0.5875913057226944 0.4732087934257876 0.12007080892027251
0.45878638853964987 0.3797204562564355 0.12146159049077765
0.4057419794405858 0.4525510511652186 0.12146159049077765
0.48133559373610557 0.309569433840159 0.12146159049077765
0.4945202030244938 0.4421665487721139 0.12146159049077765
0.6151102370644216 0.4543868828382854 0.12266693451854868
0.4286342440910995 0.38085162526711297 0.12331596591811773
0.42466588067659167 0.345488685867737 0.12331596591811773
0.48079782486217704 0.4313555400307211 0.12331596591811773
0.5623810717880054 0.31509547261363247 0.12331596591811773
0.46287528635693487 0.3737400955032637 0.12517034134545788
0.40707712974827076 0.2977848779994126 0.12517034134545788
0.4136138031296445 0.38726776424570986 0.12517034134545788
0.5929875382162539 0.3008724130859339 0.12517034134545788
0.45250932771810365 0.388500923904891 0.12702471677279795
0.42222737698963936 0.3997384389945721 0.12702471677279795
0.4771632490245904 0.4212584658288542 0.12702471677279795
0.42053062347362324 0.3775137494979008 0.1288790922001381
0.40356308831346105 0.4427506770317261 0.1288790922001381
0.4694490472468556 0.3196850517962993 0.1288790922001381
0.41389195944374557 0.38537630130982287 0.1288790922001381
0.428615700336826 0.35794081686232593 0.13073346762747823
0.40906131145552466 0.30205921335943153 0.13073346762747823
0.47618043004810023 0.4477482188084077 0.13073346762747823
0.4323986262086 0.32889202579304294 0.13073346762747823
0.4509145648505909 0.3615290333142291 0.1325878430548183
0.4286713315996462 0.4541550859098678 0.1325878430548183
0.45868439789114623 0.35454730983029353 0.1325878430548183
0.5504203502816616 0.3953528411089128 0.1325878430548183
0.4419764752908116 0.39475016909502725 0.13444221848215845
0.4550961814392431 0.3983754730554771 0.13444221848215845
0.5224656407145094 0.34840005528866097 0.13444221848215845
0.4709232757115909 0.34579465781324814 0.13444221848215845
