0.5966688089752422 0.1962435253946926 -0.12435118762115793
0.4118289622592963 0.2441524713231542 -0.12435118762115793
0.43694983008415966 0.2840701665122406 -0.12435118762115793
0.5831733312489152 0.20326117381238268 -0.12435118762115793
0.6916384136607964 0.31167805808952714 -0.12435118762115793
0.54743923415499 0.26578379419306725 -0.12435118762115793
0.6435173959394925 0.19419992448184872 -0.12435118762115793
0.5376742920572978 0.25922884786885114 -0.12435118762115793
0.3821196320074816 0.29240844382172143 -0.12435118762115793
0.39414988643780763 0.41518837225045696 -0.12435118762115793
0.4515345856555405 0.4646492981174462 -0.12435118762115793
0.32221899015648353 0.306222029237312 -0.12435118762115793
0.40431969286728986 0.452590124806278 -0.12435118762115793
0.26955770814296526 0.2744690980726535 -0.12435118762115793
0.20591689103638502 0.4078140576357138 -0.12435118762115793
0.19087907299847753 0.25166174071516056 -0.12435118762115793
0.12151231748515562 0.24029662054420353 -0.12435118762115793
0.15518353441234198 0.2720688309627568 -0.12435118762115793
0.15180002535381282 0.47419252879534896 -0.12435118762115793
0.20660130454964873 0.3901928195759094 -0.1238692062737891
0.1508360626590752 0.252596784529056 -0.12309803611799897
0.34390815078808085 0.23783851567262254 -0.12309803611799897
0.5804356771958601 0.4211842202117252 -0.12309803611799897
0.2812409360031856 0.3901928195759094 -0.12309803611799897
0.14293156856222633 0.4866854853191491 -0.12309803611799897
0.15675479360476435 0.322705791317326 -0.12309803611799897
0.6002740294535612 0.20190198641280255 -0.12242326223168261
0.6815360846199457 0.34905089176450615 -0.12242326223168261
0.5611564233011069 0.4915534969275742 -0.12242326223168261
0.7039867757803858 0.24361265221410114 -0.12242326223168261
0.5257211546425506 0.22830492462166704 -0.12242326223168261
0.5263380907671827 0.30266500689373005 -0.12242326223168261
0.5123317128126444 0.2003307272203802 -0.12242326223168261
0.723237110794297 0.26140740355895825 -0.12242326223168261
0.5889763866712356 0.24267760840020555 -0.12242326223168261
0.5002725395014763 0.21814475781913212 -0.12242326223168261
0.6919854402309019 0.21881953170544854 -0.12242326223168261
0.45414692455827943 0.2832315189678189 -0.12242326223168261
0.16976828998372281 0.4962383556239993 -0.12242326223168261
0.41204103405213854 0.45411318586396354 -0.12242326223168261
0.414074995338035 0.45017057844248665 -0.12242326223168261
0.435523165295948 0.4780483795742997 -0.12242326223168261
0.31512422472321433 0.29830789551351583 -0.12242326223168261
0.4115301338239276 0.4643408300551302 -0.12242326223168261
0.2439741382246277 0.2815638635059228 -0.12242326223168261
0.26066033247053666 0.2829326905324502 -0.12242326223168261
0.154132815075078 0.27658017637412896 -0.12242326223168261
0.15183858386160237 0.29740177058046247 -0.12242326223168261
0.1918912338279521 0.17457364401698997 -0.12242326223168261
0.4518334140909092 0.5298131762817119 -0.12194128088431379
0.44585684538353554 0.5298517347895015 -0.12117011072852366
0.2803251714431848 0.3774974308862145 -0.12117011072852366
0.57360118169017 0.27068072468233456 -0.12117011072852366
0.21749408300018425 0.19289857484395284 -0.12117011072852366
0.13310878870284967 0.47907018003072155 -0.12117011072852366
0.16173848073655814 0.3206139922697453 -0.12117011072852366
0.7082282116372315 0.23432005183683013 -0.1204953368422073
0.6019031264076677 0.24816255613326285 -0.1204953368422073
0.49734209290947384 0.5111894170193804 -0.1204953368422073
0.6859317545079496 0.19416136597405917 -0.1204953368422073
0.5379345619848768 0.2520376861661082 -0.1204953368422073
0.4646830368117622 0.30001410948320156 -0.1204953368422073
0.6188592302081033 0.18770281591931684 -0.1204953368422073
0.5586404806678417 0.5106495979103274 -0.1204953368422073
0.5211134129617045 0.3143578743808979 -0.1204953368422073
0.46437456874944605 0.20146820320017073 -0.1204953368422073
0.5265308833061303 0.29154087739645745 -0.1204953368422073
0.6842737386730008 0.27653197823939213 -0.1204953368422073
0.08432263672217671 0.39680560366180984 -0.1204953368422073
0.10398747569482501 0.2593734422730618 -0.1204953368422073
0.18821853596100163 0.21994736805829151 -0.1204953368422073
0.22949541854966812 0.25670326560863843 -0.1204953368422073
0.44562549433679866 0.457477415668598 -0.1204953368422073
0.40555356511655405 0.41130360259066423 -0.1204953368422073
0.42813921105425745 0.4497753537376442 -0.1204953368422073
0.36890370346262835 0.5000652875221079 -0.1204953368422073
0.39708997265675744 0.4468641863995364 -0.1204953368422073
0.22647821531513923 0.4641673167700774 -0.1204953368422073
0.2863499382852952 0.27125910229917716 -0.12001335549483846
0.2115849916814424 0.18705696091384266 -0.11924218533904835
0.19155384688479396 0.3521066535068246 -0.11924218533904835
0.5298565546029752 0.3278147935994356 -0.11924218533904835
0.5851301755192324 0.5044609574101114 -0.11924218533904835
0.17213963821277742 0.43107447745973354 -0.11924218533904835
0.12807690343631906 0.2520666050469504 -0.11924218533904835
0.2525437665808456 0.4309009641746807 -0.11856741145273199
0.4106914862795058 0.4774218038227202 -0.11856741145273199
0.40977572171950505 0.44180338225216365 -0.11856741145273199
0.3353578016857578 0.4730743320694533 -0.11856741145273199
0.4047727553338167 0.41982503281214517 -0.11856741145273199
0.4084550928277144 0.5194409376863347 -0.11856741145273199
0.2628292485336963 0.4105131531809793 -0.11856741145273199
0.2578455614019027 0.3567529536954601 -0.11856741145273199
0.17062621678203932 0.324855428126591 -0.11856741145273199
0.15146263841065466 0.3035614921998361 -0.11856741145273199
0.41613787550477355 0.21629394944523586 -0.11856741145273199
0.6870595908607926 0.19759307316732533 -0.11856741145273199
0.5536182350282586 0.216322868326078 -0.11856741145273199
0.598423221079665 0.2923120475522476 -0.11856741145273199
0.5467451810147789 0.49670105771747336 -0.11856741145273199
0.5403155498408789 0.25110264235221275 -0.11856741145273199
0.5466680639992 0.275452340021286 -0.11856741145273199
0.43910910652037205 0.20045604237069614 -0.11856741145273199
0.6753956422544668 0.17928742159425717 -0.11856741145273199
0.604033483963038 0.31174553547815886 -0.11856741145273199
0.5208820619149676 0.29349772166677496 -0.11856741145273199
0.6757041103167829 0.30433266235562617 -0.11856741145273199
0.4958672299865253 0.49301872022357546 -0.11856741145273199
0.1788584581950989 0.5081240156501147 -0.11808543010536315
0.5704683029322728 0.2658705508355937 -0.11731425994957302
0.3709569440024195 0.5408409095095107 -0.11731425994957302
0.3692989281674708 0.36480204219651946 -0.11731425994957302
0.23151974020861715 0.30911391732152493 -0.11731425994957302
0.19155384688479396 0.4678978523987121 -0.11731425994957302
0.17920548476520448 0.31402048743773964 -0.11731425994957302
0.7074570414814415 0.28121683693581717 -0.11663948606325666
0.6106751869297804 0.40619460030855464 -0.11663948606325666
0.5440364458425663 0.4903003454244153 -0.11663948606325666
0.6991958811875398 0.24475976782083897 -0.11663948606325666
0.5024221763107415 0.30513275139225843 -0.11663948606325666
0.4228952539948846 0.22833384350250918 -0.11663948606325666
0.5540905767486798 0.24692868388399863 -0.11663948606325666
0.42718488798646714 0.21789412751850035 -0.11663948606325666
0.6170373407150489 0.186324349265842 -0.11663948606325666
0.5112231557136964 0.5013377182791615 -0.11663948606325666
0.6039852858283011 0.26517649769538254 -0.11663948606325666
0.4396489256294251 0.22795789805156147 -0.11663948606325666
0.524169174704023 0.2912709678419309 -0.11663948606325666
0.20339130877617234 0.40916360540834656 -0.11663948606325666
0.38912764079822443 0.4224373717148841 -0.11663948606325666
0.4184417463451966 0.5326472266042407 -0.11663948606325666
0.4469172043477471 0.47281406214187427 -0.11663948606325666
0.2694613118734915 0.28280737538213424 -0.11663948606325666
0.26414987742548696 0.2774959409341299 -0.11663948606325666
0.3045977520966791 0.3510848530504027 -0.11663948606325666
0.42609561014141356 0.5118449116518021 -0.11663948606325666
0.26642482938506784 0.396044073132967 -0.11663948606325666
0.15387254514749882 0.2459550815623136 -0.11663948606325666
0.1305060894270579 0.46993181368460857 -0.11663948606325666
0.17170585500014546 0.5213881423297048 -0.11615750471588784
0.18492178354499883 0.25496813275811075 -0.1153863345600977
0.28464372431560964 0.3774974308862145 -0.1153863345600977
0.24233540164357367 0.4617574100332333 -0.1153863345600977
0.2165686788132362 0.1882137161475279 -0.1153863345600977
0.1878618697639486 0.4773928849418781 -0.1153863345600977
0.5757026203646983 0.4409840139616367 -0.1153863345600977
0.6977306578915384 0.3394112648171296 -0.1153863345600977
0.6813722109618403 0.1887920937643704 -0.11471156067378135
0.6830495060506839 0.3516921495480873 -0.11471156067378135
0.5479597740101484 0.4909269211759948 -0.11471156067378135
0.5550738186973122 0.49809880362484293 -0.11471156067378135
0.5997052914636658 0.2285362756684041 -0.11471156067378135
0.6874451759386876 0.29679447408277776 -0.11471156067378135
0.5311964627486604 0.27826711108991997 -0.11471156067378135
0.49467191624505064 0.3103767084516313 -0.11471156067378135
0.5126016223671712 0.21155125298712654 -0.11471156067378135
0.4584365585498622 0.20479387449701564 -0.11471156067378135
0.49545272602778806 0.2152143112271296 -0.11471156067378135
0.6667970950174069 0.20794603250880775 -0.11471156067378135
0.2565442117640068 0.4246737651666756 -0.11471156067378135
0.36398749371946626 0.48664692681135957 -0.11471156067378135
0.4331710963207881 0.468254518595765 -0.11471156067378135
0.2989489307055164 0.34507936546218704 -0.11471156067378135
0.34016797553249867 0.5293311949343432 -0.11471156067378135
0.2763343658869709 0.392255699742648 -0.11471156067378135
0.43627505619784324 0.47522396887871843 -0.11471156067378135
0.2703674368065448 0.39862749315486395 -0.11471156067378135
0.3902265582702254 0.5194794961941241 -0.11471156067378135
0.16926702938245916 0.3268315516508032 -0.11471156067378135
0.11474529936809727 0.45832570283996726 -0.11471156067378135
0.026774063846338503 0.3331358676743874 -0.11471156067378135
0.19165024315426762 0.4040738823801318 -0.11422957932641252
0.5691765929213244 0.4988988926614752 -0.11345840917062239
0.2840364278179249 0.31402048743773964 -0.11345840917062239
0.19747257783048308 0.3394112648171296 -0.11345840917062239
0.2119609371323901 0.2124477382932326 -0.11345840917062239
0.5511697697836248 0.31402048743773964 -0.11345840917062239
0.13472824603000888 0.32671587612743463 -0.11345840917062239
0.4198780507603557 0.20829305907891332 -0.11278363528430602
0.67847068325068 0.180386339066258 -0.11278363528430602
0.5883305316657617 0.23528401453156775 -0.11278363528430602
0.6066458228657772 0.22491177593619047 -0.11278363528430602
0.5799344165945965 0.2420606722755735 -0.11278363528430602
0.6425245143639127 0.4486089588770116 -0.11278363528430602
0.5324978123865565 0.2813517917130804 -0.11278363528430602
0.5377224901920346 0.29784519342004173 -0.11278363528430602
0.4614055636496541 0.19492289650290198 -0.11278363528430602
0.6095280713230427 0.23545752781662052 -0.11278363528430602
0.6446645115462304 0.20061027640185422 -0.11278363528430602
0.45037783042185525 0.2738714412019162 -0.11278363528430602
0.5138933323781195 0.23201618099640708 -0.11278363528430602
0.42197948943488384 0.463723893930498 -0.11278363528430602
0.39870942998391673 0.43096844156331243 -0.11278363528430602
0.34211518017586884 0.43216375530478707 -0.11278363528430602
0.3163677365994259 0.2839930494966616 -0.11278363528430602
0.26732131469117393 0.4123446823009808 -0.11278363528430602
0.36663839112999486 0.4544120142993323 -0.11278363528430602
0.2657500554987514 0.4158053083750891 -0.11278363528430602
0.39957699640918065 0.5002677196880028 -0.11278363528430602
0.2785225612040254 0.26313289678253865 -0.11278363528430602
0.204586622517647 0.39778884561044225 -0.11278363528430602
0.10231018060598142 0.3964103789569674 -0.11278363528430602
0.15033480205781158 0.2462249911168402 -0.11278363528430602
0.26772617902296364 0.4409840139616367 -0.1123016539369372
0.3185173734086909 0.2647619937366453 -0.11153048378114708
0.5439882477078294 0.4125374748399285 -0.11153048378114708
0.5704683029322728 0.5171563460998065 -0.11153048378114708
0.15523173254707898 0.4536794026513316 -0.11153048378114708
0.2545391693589525 0.4188321512365653 -0.11153048378114708
0.22964001295387879 0.23783851567262254 -0.11153048378114708
0.12365231466747317 0.31993921838342887 -0.11153048378114708
0.5493382406636232 0.2676249629400162 -0.1108557098948307
0.6894791372245841 0.27777549011560376 -0.1108557098948307
0.6682141201786712 0.19943424191427414 -0.1108557098948307
0.6263974184809517 0.19042119071847713 -0.1108557098948307
0.6526075641508685 0.16850067904014276 -0.1108557098948307
0.5940275511916611 0.2996285244053064 -0.1108557098948307
0.5332015051537148 0.2526835411715824 -0.1108557098948307
0.541424106939827 0.2689359522048594 -0.1108557098948307
0.43597622776247463 0.20294306612311924 -0.1108557098948307
0.48041490798988057 0.22002448507387062 -0.1108557098948307
0.44969341690859155 0.2735147750048632 -0.1108557098948307
0.6831941004548945 0.23039672366924777 -0.1108557098948307
0.530030067888028 0.5001038460298972 -0.1108557098948307
0.17121423402582922 0.4280958327329942 -0.1108557098948307
0.09667099884176618 0.2990212279076217 -0.1108557098948307
0.26933599672317554 0.25360894535853057 -0.1108557098948307
0.32490844607480157 0.512866712108224 -0.1108557098948307
0.3000574878044647 0.377690223425162 -0.1108557098948307
0.4370944244883703 0.5213495838219153 -0.1108557098948307
0.24392594008989088 0.2687913578006487 -0.1108557098948307
0.38795160631064446 0.45153940546901405 -0.1108557098948307
0.27779958918297215 0.41942016848035535 -0.1108557098948307
0.4594776382601786 0.5218219255423369 -0.1108557098948307
0.34194166689081607 0.4516358017384879 -0.1108557098948307
0.23151974020861715 0.20763756444649173 -0.11037372854746187
0.08697353413270532 0.3142807573653188 -0.11037372854746187
0.21797606434755318 0.25380173789747806 -0.10960255839167177
0.19155384688479396 0.46963298524923985 -0.10960255839167177
0.2763825640217079 0.3774974308862145 -0.10960255839167177
0.5804356771958601 0.3996300143573911 -0.10960255839167177
0.5089578433810628 0.47953288212419565 -0.10960255839167177
0.16616306950540402 0.5298517347895015 -0.10960255839167177
0.4949032672917877 0.19522172493827059 -0.1089277845053554
0.699176601933645 0.2606844315379051 -0.1089277845053554
0.691676972168586 0.2252202439985066 -0.1089277845053554
0.6942796714443775 0.22196205009029324 -0.1089277845053554
0.7001694835092248 0.22282961651555716 -0.1089277845053554
0.5955024141146098 0.21388404270839173 -0.1089277845053554
0.47955698119156404 0.3009684325509917 -0.1089277845053554
0.5115701822838017 0.3038024828735206 -0.1089277845053554
0.4918957036842061 0.20223937335596082 -0.1089277845053554
0.44963557914690727 0.21547458115470877 -0.1089277845053554
0.5190312535410712 0.23407906116314567 -0.1089277845053554
0.675578795166467 0.2244394342157691 -0.1089277845053554
0.18500854018752522 0.4317106928382604 -0.1089277845053554
0.2848172376006624 0.25879506465621915 -0.1089277845053554
0.09557208136976521 0.25565254627137446 -0.1089277845053554
0.2355201853917785 0.26000001802464123 -0.1089277845053554
0.39258826687233256 0.4811908979591445 -0.1089277845053554
0.31874872445542796 0.29265907412235315 -0.1089277845053554
0.4178922876091961 0.46230686876923377 -0.1089277845053554
0.4021314975502355 0.5387780293427722 -0.1089277845053554
0.45213224252627765 0.4706065875709249 -0.1089277845053554
0.2962787540410931 0.44120572538142633 -0.1089277845053554
0.3996926719325492 0.507979421245904 -0.1089277845053554
0.038457291706558955 0.2616676734865374 -0.10844580315798656
0.1352198670043251 0.4536794026513316 -0.10844580315798656
0.38771061563696 0.4394609529039512 -0.10767463300219644
0.5484031968497278 0.31562066551100426 -0.10767463300219644
0.5021619063831622 0.5109869848534854 -0.10767463300219644
0.21694462426418376 0.3028481598057302 -0.10767463300219644
0.33121276209838596 0.19975234960353758 -0.10767463300219644
0.1735663030009891 0.46310695780586597 -0.10767463300219644
0.027159648924233625 0.23783851567262254 -0.10767463300219644
0.6395747885180156 0.18865713898710715 -0.10699985911588007
0.6975957031142751 0.2325849189863023 -0.10699985911588007
0.5559895832573131 0.49323079201641784 -0.10699985911588007
0.5579271482737359 0.49732763346905284 -0.10699985911588007
0.7008538970224886 0.28223863739223903 -0.10699985911588007
0.46797978922776484 0.28640295623350576 -0.10699985911588007
0.4776772539368257 0.2054300898755425 -0.10699985911588007
0.4254497551359394 0.25723344509074425 -0.10699985911588007
0.5123317128126444 0.25991326138211485 -0.10699985911588007
0.48434787578441035 0.21454917696776074 -0.10699985911588007
0.6042841142636699 0.2614748809475899 -0.10699985911588007
0.27220860555349374 0.2582359662932714 -0.10699985911588007
0.4326023583308927 0.4603789433797584 -0.10699985911588007
0.28581011917624216 0.4071103648685554 -0.10699985911588007
0.44319630834605966 0.5094350049149579 -0.10699985911588007
0.3095332410937359 0.3632886207657814 -0.10699985911588007
0.31837277900448024 0.5260537217722351 -0.10699985911588007
0.33362266883523006 0.5065334772037975 -0.10699985911588007
0.24316440956104818 0.31320111914721266 -0.10699985911588007
0.09733613310113519 0.25150750668400246 -0.10699985911588007
0.020132360879596103 0.3137891363910027 -0.10699985911588007
0.1398565275660132 0.5058490636905337 -0.10699985911588007
0.41858634074940726 0.5428170330337231 -0.10699985911588007
0.5555076019099443 0.4062331588163441 -0.10651787776851125
0.19155384688479396 0.46637479134102666 -0.10651787776851125
0.4200804829262506 0.3901928195759094 -0.1057467076127211
0.4274258786601516 0.4409840139616367 -0.1057467076127211
0.29312659602930097 0.5679475404855338 -0.1057467076127211
0.11756971006367854 0.5044609574101114 -0.1057467076127211
0.09449244315165908 0.3295306471960686 -0.1057467076127211
0.23143298356609077 0.2839930494966616 -0.1057467076127211
0.18811250006458038 0.20418657799933088 -0.1057467076127211
0.6045733030720912 0.22252114845324114 -0.10507193372640476
0.6789333853441541 0.27950098333918416 -0.10507193372640476
0.6506603595074985 0.19625316502163986 -0.10507193372640476
0.6778344678721532 0.26481983149832955 -0.10507193372640476
0.7015479501626997 0.27091207572907156 -0.10507193372640476
0.4739370786812435 0.2917722284431945 -0.10507193372640476
0.4787665317818792 0.20720378123385977 -0.10507193372640476
0.43818370233342385 0.2717121647657038 -0.10507193372640476
0.4495199036235387 0.21884845058629068 -0.10507193372640476
0.4663988904083952 0.27993476655181615 -0.10507193372640476
0.5926876430459759 0.411988016103928 -0.10507193372640476
0.6074459119024095 0.24203175339473137 -0.10507193372640476
0.41411355384582454 0.5450148679777247 -0.10507193372640476
0.23255118029198643 0.46990289480376646 -0.10507193372640476
0.22721082696313993 0.270565049158966 -0.10507193372640476
0.2728930190667575 0.30106482882046554 -0.10507193372640476
0.3907952962601206 0.49353926007873383 -0.10507193372640476
0.37641297285463465 0.42646673577888755 -0.10507193372640476
0.29932487615646414 0.3712413129973671 -0.10507193372640476
0.3033446005935202 0.3478748572769262 -0.10507193372640476
0.29283740722087964 0.4117277461763488 -0.10507193372640476
0.32658574116364514 0.5146018449587516 -0.10507193372640476
0.1641001893386653 0.39643929783780957 -0.10507193372640476
0.07497219858322143 0.30425554534004723 -0.10507193372640476
0.2713988768899141 0.3394112648171296 -0.10458995237903593
0.5741024422914338 0.30417842832446823 -0.10458995237903593
0.414354544519509 0.45184787353133005 -0.1038187822232458
0.30887774646131433 0.2490108433046319 -0.1038187822232458
0.22638181904566557 0.31685453776026845 -0.1038187822232458
0.153467680815709 0.22514312698292752 -0.1038187822232458
0.14678741934117703 0.5161827437781215 -0.1038187822232458
0.2525630458347403 0.46248038205428654 -0.1038187822232458
0.46330457015828735 0.19906793609027384 -0.10314400833692944
0.6432764052658081 0.19044046997237185 -0.10314400833692944
0.4649625859932361 0.2123802609046009 -0.10314400833692944
0.4811957177726182 0.29554132257961885 -0.10314400833692944
0.5282756557836054 0.261503799828432 -0.10314400833692944
0.4236182260159379 0.2352550956507256 -0.10314400833692944
0.6128633822468349 0.23947725225367658 -0.10314400833692944
0.6698239378788831 0.20417693837238346 -0.10314400833692944
0.695494264439747 0.2459358023084189 -0.10314400833692944
0.6215101276186317 0.2214415102351349 -0.10314400833692944
0.6847942785281592 0.3828956219767454 -0.10314400833692944
0.5059502797734812 0.26031812571390467 -0.10314400833692944
0.43977424077974103 0.5205494947852831 -0.10314400833692944
0.3679011822601012 0.4771229753873515 -0.10314400833692944
0.13600067678706262 0.4634347051220767 -0.10314400833692944
0.2794479653909736 0.29285186666130064 -0.10314400833692944
0.4007433912698132 0.47271766587240044 -0.10314400833692944
0.3392329317186032 0.4439915775692182 -0.10314400833692944
0.272623109512231 0.39454993095612373 -0.10314400833692944
0.39500781323612416 0.480284773026091 -0.10314400833692944
0.23280181059261834 0.2961197001964613 -0.10314400833692944
0.14905273167381053 0.2752113493476015 -0.10314400833692944
0.09677703473818727 0.40024695048202324 -0.10314400833692944
0.05667618663710071 0.2383783347816756 -0.10314400833692944
0.25146412836273935 0.354574398005353 -0.10266202698956062
0.31127801357121104 0.22514312698292752 -0.10189085683377049
0.18343728099510273 0.29063475246340414 -0.10189085683377049
0.25146412836273935 0.3774974308862145 -0.10189085683377049
0.12807690343631906 0.5410240624215109 -0.10189085683377049
0.27102293143896655 0.4163644067380369 -0.10189085683377049
0.43277587161594555 0.40136514720791894 -0.10189085683377049
0.3692989281674708 0.3394112648171296 -0.10189085683377049
0.4886760682837823 0.19453731142500688 -0.10121608294745413
0.6222330996396851 0.20239360738711876 -0.10121608294745413
0.6863173395858446 0.19328415992184794 -0.10121608294745413
0.5924659316261862 0.2361997790915685 -0.10121608294745413
0.6905684150696376 0.31831012142932225 -0.10121608294745413
0.6752510478502562 0.280599900811185 -0.10121608294745413
0.4420684719932167 0.22102700627639776 -0.10121608294745413
0.5277454763014998 0.2605012786259049 -0.10121608294745413
0.4350604632024739 0.22391889436061072 -0.10121608294745413
0.47971121522272225 0.2199088095505021 -0.10121608294745413
0.5152139612699101 0.2752595474823385 -0.10121608294745413
0.6650137640321422 0.22550943280692792 -0.10121608294745413
0.4203793113616194 0.5080083401267461 -0.10121608294745413
0.22076191653534488 0.19490361724900715 -0.10121608294745413
0.3323213191973342 0.5013859164138984 -0.10121608294745413
0.3257085351114338 0.29087574313708847 -0.10121608294745413
0.28074931502886935 0.2968137533366724 -0.10121608294745413
0.44861377869048524 0.46651938574523727 -0.10121608294745413
0.4189912050811971 0.4603114659911267 -0.10121608294745413
0.18875835507005467 0.2871837660162433 -0.10121608294745413
0.08776398354239015 0.31044418584026295 -0.10121608294745413
0.023515869938125274 0.33743514129291735 -0.10121608294745413
0.1923539359214262 0.4274885362353094 -0.10121608294745413
0.23151974020861715 0.3394112648171296 -0.1007341016000853
0.07202247273732422 0.22514312698292752 -0.1007341016000853
0.3888577312436978 0.4007385714563395 -0.09996293144429517
0.480299232466512 0.5044609574101114 -0.09996293144429517
0.22155236594502983 0.32671587612743463 -0.09996293144429517
0.04922475500677865 0.2513821915336866 -0.09996293144429517
0.16616306950540402 0.3521066535068246 -0.09996293144429517
0.24233540164357367 0.23539969005493627 -0.09996293144429517
0.4941128178821029 0.19961739482627433 -0.09928815755797882
0.5278900707057104 0.26361487812990747 -0.09928815755797882
0.6760029387521517 0.2641836161198028 -0.09928815755797882
0.6561935053752928 0.2728110822377048 -0.09928815755797882
0.5985581758569279 0.23257527935935485 -0.09928815755797882
0.5958108821769257 0.21401899748565495 -0.09928815755797882
0.49270543234778574 0.28353998703013494 -0.09928815755797882
0.5125341449785396 0.22517204586376963 -0.09928815755797882
0.4448350449271137 0.2062108996582799 -0.09928815755797882
0.48391409257177825 0.30018762276825434 -0.09928815755797882
0.6617459304969816 0.2848316970410834 -0.09928815755797882
0.4702932996951353 0.22228015777955668 -0.09928815755797882
0.3962898836201252 0.40442090895023725 -0.09928815755797882
0.40761644528329266 0.45735210051828207 -0.09928815755797882
0.42309768616077953 0.5130402253932768 -0.09928815755797882
0.3314537527720703 0.5327339832467669 -0.09928815755797882
0.24208477134294193 0.4233627759018323 -0.09928815755797882
0.33894374291018187 0.44365419062606004 -0.09928815755797882
0.29549794425835557 0.2931603347236168 -0.09928815755797882
0.2855980473833998 0.22962555351345765 -0.09928815755797882
0.14463778253191206 0.2767247707783396 -0.09928815755797882
0.094694875317554 0.2513243537720024 -0.09928815755797882
0.07821111323753996 0.4266691679447825 -0.09928815755797882
0.43815478345258174 0.5401757752501418 -0.09880617621060998
0.1788584581950989 0.27631026681960247 -0.09880617621060998
0.14882138062707348 0.23407906116314567 -0.09803500605481985
0.14077229212601408 0.48714818741262317 -0.09803500605481985
0.46717006056418514 0.4951008796442089 -0.09803500605481985
0.5405565405145631 0.32671587612743463 -0.09803500605481985
0.2265360530768235 0.3394112648171296 -0.09803500605481985
0.25563808683095346 0.26474271448275055 -0.09803500605481985
0.4493753092193281 0.2768211670478134 -0.09736023216850348
0.4628997058264975 0.2543801155143207 -0.09736023216850348
0.6413677591302275 0.202885228361435 -0.09736023216850348
0.5701791141238515 0.4170970183860376 -0.09736023216850348
0.609691944981148 0.23781923641872782 -0.09736023216850348
0.6650234036590896 0.18043453720099498 -0.09736023216850348
0.5716346977929054 0.4071682026302397 -0.09736023216850348
0.4882904832058873 0.23265239637493396 -0.09736023216850348
0.4858902160959906 0.2947412335429864 -0.09736023216850348
0.49463335773726125 0.2176627764717633 -0.09736023216850348
0.4887628249263088 0.2701023470654919 -0.09736023216850348
0.6574177379976096 0.23158239778377512 -0.09736023216850348
0.4349737065599475 0.5181299484214915 -0.09736023216850348
0.40147600291781377 0.5606696221402645 -0.09736023216850348
0.4014181651561295 0.4707897404829251 -0.09736023216850348
0.3247445724166962 0.5348450615482426 -0.09736023216850348
0.1791862055113098 0.41897674564077597 -0.09736023216850348
0.22963037332693137 0.30258788987815105 -0.09736023216850348
0.01180372319706269 0.33436973992365165 -0.09736023216850348
0.08304056633817566 0.301691404572045 -0.09736023216850348
0.23445018680061966 0.2556621858983219 -0.09736023216850348
0.372248654013368 0.4251653861409917 -0.09736023216850348
0.3044338784385737 0.30627986699899623 -0.09736023216850348
0.26659834267012067 0.35346584090640476 -0.09736023216850348
0.20637959312985912 0.25054354398926487 -0.09687825082113467
0.5343486207604529 0.42520394464878125 -0.09687825082113467
0.039199542981506935 0.4536794026513316 -0.09610708066534453
0.21694462426418376 0.32671587612743463 -0.09610708066534453
0.3015805488621502 0.25054354398926487 -0.09610708066534453
0.25997591895727296 0.33448541544702015 -0.09610708066534453
0.38857818206222394 0.32671587612743463 -0.09610708066534453
0.49071002956967885 0.49176556872041655 -0.09610708066534453
0.5376935713111923 0.2817180975370807 -0.09543230677902817
0.6119186988059921 0.2223669144220831 -0.09543230677902817
0.683357974113 0.24108706995388848 -0.09543230677902817
0.5588718317145787 0.28410872502003015 -0.09543230677902817
0.6978752522957492 0.35794826743693475 -0.09543230677902817
0.504967037824849 0.2743437829223376 -0.09543230677902817
0.48730724125725483 0.22072817784102905 -0.09543230677902817
0.47310807076376926 0.24985913047600114 -0.09543230677902817
0.6092870806493581 0.2011018973761703 -0.09543230677902817
0.5425519432926703 0.4835815254420938 -0.09543230677902817
0.5803585601802812 0.41669215405424775 -0.09543230677902817
0.6440957735563352 0.234985186096199 -0.09543230677902817
0.42124687778688313 0.5083264478160096 -0.09543230677902817
0.4775712180404046 0.46030182636417943 -0.09543230677902817
0.3897734958036986 0.4627599312357604 -0.09543230677902817
0.3497883232259805 0.5131751801705399 -0.09543230677902817
0.28581975880318955 0.42435565747741216 -0.09543230677902817
0.2973198337514098 0.3785385105965312 -0.09543230677902817
0.27029995941791324 0.363124747107676 -0.09543230677902817
0.2895984925665611 0.24780588993620986 -0.09543230677902817
0.2549247544368476 0.3133264342975286 -0.09543230677902817
0.10765053393482807 0.4577280459692298 -0.09543230677902817
0.08061138034743681 0.43462186017636817 -0.09543230677902817
0.05964519173689263 0.23306690033367108 -0.09543230677902817
0.08697353413270532 0.22514312698292752 -0.09495032543165934
0.23374649403346123 0.3674047414723113 -0.09495032543165934
0.4112698638963484 0.4697004626378716 -0.09417915527586922
0.5177684624109649 0.31658462820574185 -0.09417915527586922
0.23354406186756632 0.2908950223909833 -0.09417915527586922
0.1961423093117452 0.2264444766208234 -0.09417915527586922
-0.08776398354239015 0.4155932365822468 -0.09417915527586922
0.20099104166627563 0.36480204219651946 -0.09417915527586922
0.006559766137689856 0.3540442185232472 -0.09350438138955285
0.009548050491376619 0.3342347851463884 -0.09350438138955285
0.08643371502365227 0.31544715222595143 -0.09350438138955285
0.2267192059888237 0.2590167760760089 -0.09350438138955285
0.368026497410417 0.4248954765864652 -0.09350438138955285
0.26111339493706337 0.3705954579918928 -0.09350438138955285
0.32615195795101315 0.4572364249949137 -0.09350438138955285
0.12919510016221472 0.47580234649556086 -0.09350438138955285
0.4093804970146626 0.5610070090834226 -0.09350438138955285
0.3826883699973768 0.5218219255423369 -0.09350438138955285
0.4054764481009751 0.41622945196077366 -0.09350438138955285
0.46716042093723775 0.2543319173795839 -0.09350438138955285
0.4633238494121819 0.24369940885662755 -0.09350438138955285
0.49394894422399754 0.30334942040699375 -0.09350438138955285
0.6409918136792799 0.21494440167260315 -0.09350438138955285
0.6738533019428866 0.27502819643560145 -0.09350438138955285
0.5847927885760743 0.4234784514252008 -0.09350438138955285
0.4859191349768328 0.230146093368616 -0.09350438138955285
0.4912980468134689 0.2958883491497243 -0.09350438138955285
0.5237643103722331 0.2663043340482256 -0.09350438138955285
0.6709324949778315 0.2876464681097174 -0.09350438138955285
0.6142129300194678 0.4566773266319658 -0.09350438138955285
0.23268613506924982 0.3473928759295574 -0.09302240004218403
0.43089614436120716 0.4028978478925519 -0.09302240004218403
0.5255958394922348 0.4409840139616367 -0.0922512298863939
0.5247379126939182 0.31404940631858175 -0.0922512298863939
0.38199431685716567 0.5359439790202436 -0.0922512298863939
0.2165686788132362 0.3394112648171296 -0.0922512298863939
-0.04967781747330518 0.46637479134102666 -0.0922512298863939
0.2165686788132362 0.2759343213686548 -0.0922512298863939
0.05550979177646805 0.23004005747219491 -0.09157645600007754
0.10300423374619257 0.4561085886420706 -0.09157645600007754
0.08956659378154955 0.2984621295446739 -0.09157645600007754
0.22492623537661158 0.2448079659555758 -0.09157645600007754
0.2672441976755948 0.3073691448440498 -0.09157645600007754
0.31859449042426985 0.2819687278377126 -0.09157645600007754
0.23576117606546296 0.36681672422852124 -0.09157645600007754
0.2860800287307687 0.4234398929174114 -0.09157645600007754
0.49886515396715947 0.5003833952113713 -0.09157645600007754
0.41643670394014226 0.5608816939331067 -0.09157645600007754
0.3819171998415867 0.47301649430776904 -0.09157645600007754
0.45747259585512434 0.45565552617554395 -0.09157645600007754
0.471103028358715 0.19630136315637686 -0.09157645600007754
0.4522479180496462 0.2463213873863139 -0.09157645600007754
0.6293567839537964 0.2102499033492308 -0.09157645600007754
0.5480465306526748 0.21705547997407856 -0.09157645600007754
0.5575030046880513 0.4270740322765723 -0.09157645600007754
0.5145006288758042 0.2701891037080183 -0.09157645600007754
0.5056032532033755 0.2570213732979019 -0.09157645600007754
0.6125067160497819 0.23453212362967232 -0.09157645600007754
0.5400745591671945 0.48434305597093663 -0.09157645600007754
0.6294049820885332 0.2597108292162199 -0.09157645600007754
0.26641518975812045 0.2886297100583497 -0.0910944746527087
0.5597393981398426 0.26323893267895987 -0.0903233044969186
0.5455402276463568 0.3234287633383793 -0.0903233044969186
0.4484306257784852 0.43858374685173995 -0.0903233044969186
0.27805021948360403 0.3615824067960958 -0.0903233044969186
0.2550307903332687 0.26323893267895987 -0.0903233044969186
0.12777807500095031 0.3833679636971668 -0.0903233044969186
0.2985247871198319 0.22393817361450544 -0.0903233044969186
0.439542889733004 0.5016076278336881 -0.08964853061060223
0.3838354856041146 0.4651120002109203 -0.08964853061060223
0.3266628581792241 0.5337943422109784 -0.08964853061060223
0.011186787072430518 0.36059916484746335 -0.08964853061060223
0.1083253078211445 0.3054990572162587 -0.08964853061060223
0.10226198247124459 0.2342236555673563 -0.08964853061060223
0.1417458944476991 0.2748739624044434 -0.08964853061060223
0.31686899720068956 0.35471899240956367 -0.08964853061060223
0.31953917386511277 0.2818337730604492 -0.08964853061060223
0.2814048096612911 0.37780589894853056 -0.08964853061060223
0.2973776715130941 0.342544143575027 -0.08964853061060223
0.44942350735406494 0.22189457270166169 -0.08964853061060223
0.43998631257258325 0.21631322869913058 -0.08964853061060223
0.6259925541491618 0.22161502352018767 -0.08964853061060223
0.5796066692783858 0.22905681552356244 -0.08964853061060223
0.5871930556859712 0.4260715110740452 -0.08964853061060223
0.682153020744578 0.20539153136775296 -0.08964853061060223
0.603320151568932 0.2180194426688163 -0.08964853061060223
0.5710081220413259 0.4749926178319814 -0.08964853061060223
0.5032801031090579 0.24020022427472984 -0.08964853061060223
0.5286226823537109 0.48750485360967605 -0.08964853061060223
0.5455402276463568 0.4028978478925519 -0.08916654926323339
0.23650342734041094 0.3901928195759094 -0.08916654926323339
0.5206217919873884 0.4028978478925519 -0.08839537910744326
0.42849587725131044 0.4155932365822468 -0.08839537910744326
0.26957698739686 0.23783851567262254 -0.08839537910744326
0.20099104166627563 0.3774974308862145 -0.08839537910744326
0.03731981572676857 0.25488137611558437 -0.08839537910744326
0.4479968425658532 0.5156814831768579 -0.0877206052211269
0.39166286268538436 0.4496885970951178 -0.0877206052211269
0.3142662979248978 0.5205976929200199 -0.0877206052211269
0.010907237890956633 0.33898712123144503 -0.0877206052211269
0.01063732833643017 0.3685036589443121 -0.0877206052211269
0.16303983037445388 0.389132460611698 -0.0877206052211269
0.07784480741353968 0.3702002332870504 -0.0877206052211269
0.3099284657985783 0.43505564338900016 -0.0877206052211269
0.3059183809884697 0.3341962266385988 -0.0877206052211269
0.24319332844189032 0.37375725563063233 -0.0877206052211269
0.26964446478549164 0.3720896001687362 -0.0877206052211269
0.4341446986424731 0.2213547535926085 -0.0877206052211269
0.4560652103208075 0.24916507733579 -0.0877206052211269
0.6413195609954906 0.21511791495765592 -0.0877206052211269
0.6657174567993008 0.20954621058207223 -0.0877206052211269
0.5455595069002516 0.49369349410989194 -0.0877206052211269
0.6144731999470469 0.4644565055784987 -0.0877206052211269
0.6625074610258244 0.1971014521930091 -0.0877206052211269
0.5233208875326539 0.27993476655181615 -0.0877206052211269
0.5073191068000088 0.23993995434715068 -0.0877206052211269
0.5932178225280816 0.2725411726831782 -0.0877206052211269
0.31626170070300486 0.25054354398926487 -0.08723862387375808
0.463429885308603 0.4373402349755284 -0.08646745371796793
0.445480899932588 0.35058359244913906 -0.08646745371796793
0.20660130454964873 0.3901928195759094 -0.08646745371796793
0.27269058690086256 0.35355259754893115 -0.08646745371796793
0.028750187370550687 0.26323893267895987 -0.08646745371796793
0.40543788959318555 0.5937817407045031 -0.08579267983165159
0.4161764340125631 0.40211703810981436 -0.08579267983165159
0.38647674338769583 0.49166917245094277 -0.08579267983165159
0.12446204333105283 0.47522396887871843 -0.08579267983165159
0.004275174551161518 0.3427562153678693 -0.08579267983165159
0.1119305282994633 0.45940534105807335 -0.08579267983165159
0.22952433743051026 0.25784074158842896 -0.08579267983165159
0.3271351998996456 0.44624725027490436 -0.08579267983165159
0.2982645171922527 0.33891000421586603 -0.08579267983165159
0.25026881462126466 0.3081017564920505 -0.08579267983165159
0.34326229578260664 0.44716301483490517 -0.08579267983165159
0.4457797283679566 0.24278364429662677 -0.08579267983165159
0.4989904691174754 0.27218450648612535 -0.08579267983165159
0.6392855997095943 0.2553247989551636 -0.08579267983165159
0.6637991710367728 0.2139611597239707 -0.08579267983165159
0.5092566718164315 0.24513571327178665 -0.08579267983165159
0.5401709554366682 0.4890471939212564 -0.08579267983165159
0.519436117872861 0.2691480239977017 -0.08579267983165159
0.6994754303690137 0.3336564075295458 -0.08579267983165159
0.5152236008968576 0.25636587866548033 -0.08579267983165159
0.5256054791191821 0.4028978478925519 -0.08531069848428276
0.5597393981398426 0.2647619937366453 -0.08453952832849262
0.38199431685716567 0.2759343213686548 -0.08453952832849262
0.40047348171528657 0.6089737927735686 -0.08453952832849262
0.027159648924233625 0.22514312698292752 -0.08453952832849262
0.2628003296528542 0.3259254267177498 -0.08453952832849262
0.22190903214208269 0.3013250987480447 -0.08453952832849262
0.43694983008415966 0.5325990284695038 -0.08386475444217627
0.3847801690449575 0.46139110420923296 -0.08386475444217627
0.34030293030976205 0.5355680335692957 -0.08386475444217627
0.040375577469086876 0.23768428164146446 -0.08386475444217627
0.09479127158702767 0.45769912708838767 -0.08386475444217627
0.11395484995841232 0.39798163814938975 -0.08386475444217627
0.26698392774801566 0.3449444106849238 -0.08386475444217627
0.24329936433831142 0.31680633962553145 -0.08386475444217627
0.3117889137994221 0.3308127175800697 -0.08386475444217627
0.325583219961118 0.41806098108077516 -0.08386475444217627
0.4589378191511257 0.21494440167260315 -0.08386475444217627
0.5093048699511683 0.2261745670662968 -0.08386475444217627
0.45730872219701896 0.24814327687936813 -0.08386475444217627
0.6698721360136202 0.2448272452094705 -0.08386475444217627
0.5433231134484603 0.34045234452744627 -0.08386475444217627
0.6558271995512923 0.27792008451981437 -0.08386475444217627
0.6740557341087816 0.24203175339473137 -0.08386475444217627
0.5243908861238127 0.272946037014968 -0.08386475444217627
0.16173848073655814 0.4560025527456495 -0.08338277309480745
0.5206217919873884 0.32671587612743463 -0.08338277309480745
0.4109613958340324 0.4196322402731975 -0.08261160293901731
0.4581762886222829 0.49176556872041655 -0.08261160293901731
0.2823976912368708 0.25760939054169196 -0.08261160293901731
0.28213742130929165 0.3162376016356363 -0.08261160293901731
0.16921883124772233 0.4648420906563937 -0.08261160293901731
0.01877317348001595 0.25228831646674 -0.08193682905270096
0.08368642134364983 0.2503700307042121 -0.08193682905270096
0.13542229917022003 0.3932196624373857 -0.08193682905270096
0.31411206389373986 0.23832049701999133 -0.08193682905270096
0.32181412582469365 0.4192755740761447 -0.08193682905270096
0.23095100221872195 0.31229499421415935 -0.08193682905270096
0.26521987601664576 0.2915697962772996 -0.08193682905270096
0.22562028851682273 0.474472077976823 -0.08193682905270096
0.38519467300369475 0.4598969620323896 -0.08193682905270096
0.4497898131780652 0.45717858723322946 -0.08193682905270096
0.4599114214728107 0.24932895099389535 -0.08193682905270096
0.4378463153902657 0.2329705040641974 -0.08193682905270096
0.6669898875563546 0.24748778224694654 -0.08193682905270096
0.547053649077095 0.295444926310145 -0.08193682905270096
0.6975282257256437 0.3620547485165172 -0.08193682905270096
0.515647744482542 0.43229871008205045 -0.08193682905270096
0.5496081502181499 0.3354782970226 -0.08193682905270096
0.29312659602930097 0.3521066535068246 -0.08145484770533211
0.5216532320707578 0.4987928567650541 -0.08068367754954199
0.455824219647123 0.2843497156937146 -0.08068367754954199
0.33426852384070427 0.23783851567262254 -0.08068367754954199
0.1470573288957035 0.3833679636971668 -0.08068367754954199
0.08831344227839064 0.23199690174251225 -0.08068367754954199
0.6433246034005449 0.2518256143732659 -0.08000890366322565
0.5858917060480753 0.47252487333345294 -0.08000890366322565
0.5448750933869879 0.21459737510249757 -0.08000890366322565
0.7037265058528068 0.3540924166579842 -0.08000890366322565
0.5444605894282506 0.3451082843430292 -0.08000890366322565
0.48096436672588117 0.27417990926423225 -0.08000890366322565
0.48890741933051934 0.45964633173175784 -0.08000890366322565
0.38633214898348517 0.45022841620417087 -0.08000890366322565
0.26335942801580214 0.4795810802589326 -0.08000890366322565
0.33877986925207654 0.4257148448769922 -0.08000890366322565
0.24363675128146955 0.33286595811986097 -0.08000890366322565
0.317264221905532 0.3572060161619868 -0.08000890366322565
0.22474308246461153 0.3560203420474595 -0.08000890366322565
0.14736579695801966 0.2459550815623136 -0.08000890366322565
0.06328897072300098 0.2508423724246336 -0.08000890366322565
0.1177914214834683 0.3034747355573097 -0.08000890366322565
0.528468448322553 0.3062316688642594 -0.0795269223158568
0.2779056250793934 0.3695061801468393 -0.0795269223158568
0.16616306950540402 0.3150230086402669 -0.07875575216006668
0.5249210656059184 0.3028481598057302 -0.07875575216006668
0.3185173734086909 0.2656777582966462 -0.07875575216006668
0.253016108301267 0.36389591726346615 -0.07875575216006668
0.5156381048555948 0.38253895577969244 -0.07875575216006668
0.427435518287099 0.5177925614783334 -0.07808097827375031
0.40555356511655405 0.4606874114420744 -0.07808097827375031
0.24671179227768272 0.43421699584457835 -0.07808097827375031
0.04893556619835734 0.23018465187640555 -0.07808097827375031
-0.004795714406319874 0.412913420290876 -0.07808097827375031
0.11971934687294351 0.3107912124103685 -0.07808097827375031
0.28949245667014006 0.37353554421084273 -0.07808097827375031
0.3231636735973264 0.4242496215809909 -0.07808097827375031
0.2333609089555661 0.38769615619653885 -0.07808097827375031
0.29545938575056613 0.2274855563311401 -0.07808097827375031
0.5899499889929207 0.23446464624104066 -0.07808097827375031
0.5252777318029714 0.3217803871303778 -0.07808097827375031
0.6497831534552874 0.25491993462337376 -0.07808097827375031
0.555015980935628 0.3252988509661702 -0.07808097827375031
0.5249210656059184 0.3028481598057302 -0.07759899692638149
0.16364712687213864 0.4536794026513316 -0.07759899692638149
0.31761124847563754 0.24852886195726312 -0.07682782677059137
0.4910859750206264 0.26323893267895987 -0.07682782677059137
0.5510926527680459 0.43650158743110656 -0.07682782677059137
0.2529197120317933 0.2667188380069627 -0.07682782677059137
0.008150304584006916 0.3521066535068246 -0.07682782677059137
0.3669275799384162 0.5280876830581314 -0.076153052884275
0.4738599616656647 0.452406971894278 -0.076153052884275
0.6436137922089662 0.24959886054842195 -0.076153052884275
0.58142855877144 0.42439421598520155 -0.076153052884275
0.6010644788632461 0.23633473386883172 -0.076153052884275
0.5219135019983369 0.48804467271872926 -0.076153052884275
0.537761048699824 0.3276991180760671 -0.076153052884275
0.23048830012524787 0.3513354833510345 -0.076153052884275
0.2580383539408502 0.3384183832415498 -0.076153052884275
0.3250434008520649 0.4502476954580656 -0.076153052884275
0.2576238499821131 0.29397006338719633 -0.076153052884275
0.15352551857739324 0.30455437377541583 -0.076153052884275
0.08546975232891453 0.25270282042547726 -0.076153052884275
0.057591951197101476 0.2247286230241904 -0.076153052884275
0.3147290000183719 0.25054354398926487 -0.07567107153690616
0.4404104561582678 0.26875279929285917 -0.07489990138111603
0.5142114400673828 0.3686675326024176 -0.07489990138111603
0.29312659602930097 0.4155932365822468 -0.07489990138111603
0.3185173734086909 0.25054354398926487 -0.07489990138111603
-0.014849845312433578 0.3774974308862145 -0.07489990138111603
0.23406460172272467 0.2525775052751613 -0.07422512749479968
0.257344300800639 0.34809656869671596 -0.07422512749479968
0.3239541230070114 0.44190941814858486 -0.07422512749479968
0.37372351693631667 0.2970354647564621 -0.07422512749479968
0.2627521315181174 0.2882730438612968 -0.07422512749479968
0.07816291510280311 0.4451290535490087 -0.07422512749479968
0.07187787833311357 0.2579082189770605 -0.07422512749479968
0.245670712567366 0.4360581645915273 -0.07422512749479968
0.37315477894642146 0.52118571016381 -0.07422512749479968
0.41902976358898664 0.3892963342698035 -0.07422512749479968
0.656993594411925 0.4180513414538278 -0.07422512749479968
0.522221970060653 0.29243736270256354 -0.07422512749479968
0.639738662176121 0.44716301483490517 -0.07422512749479968
0.5400263610324576 0.38248111801800816 -0.07422512749479968
0.49071002956967885 0.3013250987480447 -0.07374314614743085
0.26772617902296364 0.27911539826128906 -0.07374314614743085
0.48202472569009247 0.26401010283475 -0.07297197599164072
0.4233483164614113 0.4282886252719418 -0.07297197599164072
0.16616306950540402 0.32671587612743463 -0.07297197599164072
0.22964001295387879 0.23185230733830173 -0.07297197599164072
0.3188258414710069 0.21750854244060522 -0.07297197599164072
0.05042970837520072 0.2252298836254539 -0.07229720210532437
0.029810546334762104 0.34399972724408096 -0.07229720210532437
0.21485282521660304 0.23262347749409185 -0.07229720210532437
0.29785001323351545 0.35219341014935096 -0.07229720210532437
0.30137811669625525 0.34632287733839867 -0.07229720210532437
0.36626244567904714 0.4360581645915273 -0.07229720210532437
0.2411786464098886 0.31242994899142257 -0.07229720210532437
0.4026713166592885 0.5820213958287034 -0.07229720210532437
0.4946526369911558 0.45986804315154745 -0.07229720210532437
0.5845132393946004 0.4666157820147111 -0.07229720210532437
0.5752399182712242 0.27712963511012945 -0.07229720210532437
0.5781221667284898 0.48689755711199145 -0.07229720210532437
0.5339533960556101 0.38437048489969394 -0.07229720210532437
0.5121292806467497 0.3008334777737285 -0.07181522075795553
0.062055098473736775 0.2124477382932326 -0.07181522075795553
0.0899810977402868 0.23096546165914295 -0.0710440506021654
0.23700468794167445 0.27353405425875804 -0.0710440506021654
0.38199431685716567 0.40442090895023725 -0.0710440506021654
0.4871433675991495 0.30049609083057033 -0.0710440506021654
0.5029909143006367 0.4224662905957262 -0.07036927671584906
0.6885826519184782 0.3283546127084887 -0.07036927671584906
0.7007285818721726 0.3460144092760825 -0.07036927671584906
0.5364018613002439 0.40053613929044457 -0.07036927671584906
0.09843505057313602 0.45672552476670264 -0.07036927671584906
0.13799607956516952 0.40459442223529 -0.07036927671584906
0.22090651093955554 0.23306690033367108 -0.07036927671584906
0.22995812064314222 0.37243662673884176 -0.07036927671584906
0.3342396049598621 0.4293200653553111 -0.07036927671584906
0.3646622676057827 0.43413023920205196 -0.07036927671584906
0.422625344440358 0.3792132844828475 -0.07036927671584906
0.38609115830980084 0.5335147930295046 -0.07036927671584906
0.3304994297042799 0.5189396770850712 -0.07036927671584906
0.4831911205507251 0.27096027386380844 -0.06988729536848022
