0.1271617774263461 0.31798125302575025 -0.17740507508916994
0.12451556764708296 0.42064824592232625 -0.17740507508916994
0.4973635522758301 0.49312664335959444 -0.17740507508916994
0.11569486838287298 0.35501827903738303 -0.17740507508916994
0.11571469017897228 0.46926120085597867 -0.17740507508916994
0.22119637812165585 0.42015270101984253 -0.17740507508916994
0.34855141805997053 0.30204452896187395 -0.17740507508916994
0.5474036765286355 0.35440380335830324 -0.17740507508916994
0.12388127017190387 0.3947708911146266 -0.17542289547923504
0.12425788429779147 0.3206869281933113 -0.17542289547923504
0.12380198298750653 0.43013297535586464 -0.17542289547923504
0.5804664324223492 0.4247612686129411 -0.17542289547923504
0.11492181833499834 0.36294699747712245 -0.17542289547923504
0.1650412297722013 0.4989443405147533 -0.17542289547923504
0.5454611405108994 0.3568022406863245 -0.17542289547923504
0.22690505539826816 0.4501926330084054 -0.17542289547923504
0.42988024745559783 0.2948690387739097 -0.17542289547923504
0.5803574125438028 0.5213826136992158 -0.17492735057675135
0.5542521070809605 0.2578022800681279 -0.17492735057675135
0.09737952878707473 0.47971719829838516 -0.17492735057675135
0.22724202593195716 0.4455543327211578 -0.17344071586930024
0.1259130042720871 0.40405740258717154 -0.17344071586930024
0.49586700667032935 0.49241305870001784 -0.17344071586930024
0.12307848742988023 0.31323393285995627 -0.17344071586930024
0.11804375122064573 0.42513788273882874 -0.17344071586930024
0.5984348905864085 0.4074370188221104 -0.17344071586930024
0.20452624760210364 0.30957681147962646 -0.17344071586930024
0.12714195563024666 0.48320583441187037 -0.17344071586930024
0.4793950941117706 0.48317610171772135 -0.17344071586930024
0.6978411980246418 0.4274966764746512 -0.17294517096681647
0.10728051593869946 0.46665463466891427 -0.17294517096681647
0.30626161608201036 0.4113914671439305 -0.17145853625936533
0.1462600779680684 0.4094092875339956 -0.17145853625936533
0.12339563616746976 0.48504926144910987 -0.17145853625936533
0.4197017551585823 0.2840562490017151 -0.17145853625936533
0.11819241469139084 0.3928085333007912 -0.17145853625936533
0.4543998092304921 0.5167740461061172 -0.17145853625936533
0.3525554208720389 0.29804052614980553 -0.17145853625936533
0.4736864168351583 0.49937050913088915 -0.17145853625936533
0.5902187561032287 0.4040474916891218 -0.17145853625936533
0.6717358925617998 0.4536019819374933 -0.1701701195129077
0.2911871401484557 0.3658310688095778 -0.1701701195129077
0.22648879768018185 0.352887435956703 -0.16947635664943048
0.12673560881021004 0.41376017177780267 -0.16947635664943048
0.5335779737493401 0.32982477619511097 -0.16947635664943048
0.1319090975921401 0.3824516448388815 -0.16947635664943048
0.33872971809274327 0.5152279460103681 -0.16947635664943048
0.15484291567908634 0.30190577638917854 -0.16947635664943048
0.11276124256016931 0.43227372933459424 -0.16947635664943048
0.5892673098904601 0.4080514945011902 -0.16947635664943048
0.5612392902059811 0.36649509897890586 -0.16947635664943048
0.5934199761732734 0.5058225037612273 -0.16749417703949562
0.37980047961059366 0.27085493279954886 -0.16749417703949562
0.10511994016387043 0.34400727130419484 -0.16749417703949562
0.26011647476272676 0.35968631201877965 -0.16749417703949562
0.2644178045162855 0.2976540011258682 -0.16749417703949562
0.13032335390419222 0.4201130574276438 -0.16749417703949562
0.5502084606766936 0.46669427826111304 -0.16749417703949562
0.11199810341034441 0.35027095887158904 -0.16749417703949562
0.12095755524724994 0.4970910025794642 -0.16749417703949562
0.534123073142072 0.3390815549735067 -0.16749417703949562
0.23397152570768603 0.499162380271846 -0.16749417703949562
0.5905359048408182 0.40554403729462263 -0.16749417703949562
0.22885750231405402 0.44122327027345015 -0.16551199742956074
0.13541755550172477 0.4209554837618662 -0.16551199742956074
0.4033586842746694 0.5188751564926483 -0.16551199742956074
0.5739351506076139 0.3571986766083114 -0.16551199742956074
0.1123945393323313 0.320330135863523 -0.16551199742956074
0.11126469695466853 0.448438404053613 -0.16551199742956074
0.12707257934389904 0.36271904682198 -0.16551199742956074
0.5950057198612212 0.40565305717316913 -0.16551199742956074
0.12429752788999021 0.48663500513705776 -0.16551199742956074
0.22157299224754343 0.44983584067861715 -0.16551199742956074
0.6325779343675367 0.34918076008612486 -0.16472903648363652
0.1757053560736508 0.5319278092240692 -0.16472903648363652
0.3099782028506382 0.3594781831597365 -0.16352981781962592
0.11905466282171254 0.4016589652591503 -0.16352981781962592
0.11948083143784846 0.32091487884845377 -0.16352981781962592
0.11924296988465627 0.43994476442504216 -0.16352981781962592
0.3766785467249463 0.5229287137949651 -0.16352981781962592
0.5337662808122839 0.3153647759406361 -0.16352981781962592
0.11056102319314168 0.4080316727050909 -0.16352981781962592
0.227578996465646 0.45372091271408943 -0.16352981781962592
0.21785640547891558 0.42833910280887344 -0.16352981781962592
0.290295159323985 0.29604843564182093 -0.16352981781962592
0.5030226750621941 0.4526505357247245 -0.16352981781962592
0.40893851987663604 0.28590958693700413 -0.16352981781962592
0.6064726289046944 0.3230754546232828 -0.16201345041802573
0.5803574125438028 0.5319278092240692 -0.16201345041802573
0.10306838426758791 0.3361281073547039 -0.16201345041802573
0.30399202042863493 0.44578228337630027 -0.16154763820969104
0.13543737729782407 0.41326462687531884 -0.16154763820969104
0.5400200574816285 0.47486085825404467 -0.16154763820969104
0.5151040597847472 0.3076144536657909 -0.16154763820969104
0.11342527272949743 0.3088830486161492 -0.16154763820969104
0.1098870821257637 0.4360696032876194 -0.16154763820969104
0.12068996099990872 0.4559805974694151 -0.16154763820969104
0.12141345655753502 0.31574139006652385 -0.16154763820969104
0.2900374759746935 0.3192300261800091 -0.16154763820969104
0.5383352048131836 0.47164972728595017 -0.16154763820969104
0.4636169444166891 0.4371598020730836 -0.16154763820969104
0.5746982897574388 0.43006359906951686 -0.16154763820969104
0.3005628497034476 0.4469319475500625 -0.15956545859975618
0.14515005738650494 0.39682244701090924 -0.15956545859975618
0.1169931960273803 0.46555452498540056 -0.15956545859975618
0.44483579261255635 0.522046643868544 -0.15956545859975618
0.5060752316614939 0.506010810824171 -0.15956545859975618
0.14544738432799517 0.3817876146695534 -0.15956545859975618
0.21807444523600847 0.4204797606554818 -0.15956545859975618
0.35725318654758453 0.2868610331497729 -0.15956545859975618
0.5767399347556715 0.43760579248531895 -0.15956545859975618
0.46377551878548395 0.3973972790977903 -0.15956545859975618
0.570614999760973 0.437694990567766 -0.15956545859975618
0.6586832398303787 0.4405493292060722 -0.159297864352415
0.29628134174598825 0.375286065548967 -0.159297864352415
0.3100178464428369 0.35968631201877965 -0.15758327898982133
0.14918379289272232 0.4015003908903555 -0.15758327898982133
0.5233301051659767 0.31364027967999286 -0.15758327898982133
0.5973942462911929 0.4266443392423792 -0.15758327898982133
0.4877301593715468 0.5150297280493745 -0.15758327898982133
0.12211713031906188 0.42125281070335646 -0.15758327898982133
0.15300939953989656 0.30744596839894645 -0.15758327898982133
0.33155422790477906 0.5138205984873143 -0.15758327898982133
0.5813485023487702 0.36833852601614536 -0.15758327898982133
0.4639340931542787 0.39017223441957777 -0.15758327898982133
0.3132289774109314 0.43517762246314884 -0.15758327898982133
0.5411994543495398 0.5319278092240692 -0.1565822782868042
0.10219622523921648 0.38833871828038813 -0.1565822782868042
0.22915482925554428 0.3560688342306486 -0.15560109937988648
0.14405985860104076 0.3969711104816544 -0.15560109937988648
0.5281963561083669 0.48725939171418725 -0.15560109937988648
0.40929531220642434 0.527854430125653 -0.15560109937988648
0.11604174981461153 0.5012535797603273 -0.15560109937988648
0.46427106368796767 0.3907470665064589 -0.15560109937988648
0.19776701513222575 0.5012436688622777 -0.15560109937988648
0.32981982074608607 0.38930998628925617 -0.15560109937988648
0.2803842612743107 0.2927976610815279 -0.15560109937988648
0.12441645866658631 0.30785231521898304 -0.15560109937988648
0.5401786318504231 0.3330359071632054 -0.15560109937988648
0.46286371616491395 0.4876459167381246 -0.15560109937988648
0.202871127627808 0.5215213662719113 -0.1538567813231438
0.10154210596793796 0.34918076008612486 -0.1538567813231438
0.22337677569258418 0.2792891070398218 -0.1538567813231438
0.684788545293221 0.37371023275906873 -0.1538567813231438
0.38825447564696575 0.2953645836763935 -0.15361891976995162
0.43579705359125337 0.3133132200443536 -0.15361891976995162
0.4496723108607974 0.4771899192957181 -0.15361891976995162
0.4792365197429759 0.290508243632053 -0.15361891976995162
0.5905755484330171 0.3624217198804897 -0.15361891976995162
0.6116262958905252 0.41814078871575866 -0.15361891976995162
0.12838081788645594 0.4947024761494927 -0.15361891976995162
0.46799756135464526 0.4794198713568949 -0.15361891976995162
0.393695558676237 0.3246711092092804 -0.15361891976995162
0.45947418903192533 0.29502761314270454 -0.15361891976995162
0.11897537563731506 0.34606873809852723 -0.15361891976995162
0.33919553030107796 0.461887492707021 -0.15361891976995162
0.22147388326704665 0.44122327027345015 -0.15361891976995162
0.20128538393986017 0.49841906291812055 -0.15163674016001674
0.3998204936709357 0.5187562257160522 -0.15163674016001674
0.38144568868683953 0.514167479919053 -0.15163674016001674
0.42493470932881044 0.5205401873649935 -0.15163674016001674
0.12224597199370756 0.30560254136170695 -0.15163674016001674
0.12380198298750653 0.49762619107414646 -0.15163674016001674
0.10883652693249828 0.30747570109309547 -0.15163674016001674
0.463468280945944 0.4672492885518948 -0.15163674016001674
0.6074438969135627 0.40536564112972845 -0.15163674016001674
0.3051218628062978 0.35813030102498083 -0.15163674016001674
0.33011714768757633 0.45568327052792484 -0.15163674016001674
0.35570708645183546 0.3320646391543373 -0.15163674016001674
0.19774719333612645 0.5319278092240692 -0.15114119525753303
0.09737952878707473 0.362233412817546 -0.15114119525753303
0.227915966999335 0.27085493279954886 -0.15114119525753303
0.6325779343675367 0.362233412817546 -0.15114119525753303
0.23874857856762904 0.27085493279954886 -0.15034832341355908
0.3976103634058583 0.3511728505941095 -0.15034832341355908
0.3668667576557686 0.49476194153779074 -0.15034832341355908
0.1049712766931253 0.5089642584429739 -0.15034832341355908
0.2931891415544899 0.4274966764746512 -0.15034832341355908
0.6717358925617998 0.46665463466891427 -0.15034832341355908
0.4569072664370597 0.46379038513255855 -0.1496545605500819
0.45624323626773144 0.45867636173892656 -0.1496545605500819
0.1165273838190455 0.31755508440961416 -0.1496545605500819
0.4069563402667012 0.5273489743251198 -0.1496545605500819
0.45997964483245873 0.32704972474120214 -0.1496545605500819
0.11096737001317829 0.4900839976583444 -0.1496545605500819
0.1286682339298966 0.5075370891238208 -0.1496545605500819
0.4637854296835337 0.47774492958649983 -0.1496545605500819
0.46329979567909957 0.3267523977997119 -0.1496545605500819
0.3560936114757728 0.33983478322528204 -0.1496545605500819
0.3260041249969616 0.3375057221836086 -0.1496545605500819
0.2438725128593106 0.2762761940327208 -0.14915901564759818
0.1006798578376164 0.5058225037612273 -0.14836614380362423
0.3713563944722711 0.48087677337019696 -0.14836614380362423
0.6586832398303787 0.4691720027735316 -0.14836614380362423
0.33611324100762935 0.3230754546232828 -0.14836614380362423
0.39248642911417675 0.34918076008612486 -0.14836614380362423
0.5803574125438028 0.28140012832440237 -0.14836614380362423
0.13765741846095114 0.3919661069665689 -0.14767238094014704
0.13021433402564572 0.49443488190215146 -0.14767238094014704
0.1241686862153444 0.4868134013019519 -0.14767238094014704
0.11595255173216447 0.48327521069821816 -0.14767238094014704
0.49706622533433986 0.29390768166309134 -0.14767238094014704
0.38597496909554063 0.2763158376249194 -0.14767238094014704
0.43790807487583405 0.27358042976320934 -0.14767238094014704
0.21294060004627716 0.28292640662405216 -0.14767238094014704
0.465024291939743 0.2948293951817111 -0.14767238094014704
0.4688994530771655 0.4808470406760479 -0.14767238094014704
0.32981982074608607 0.4491817214073386 -0.14767238094014704
0.33926490658742575 0.45804206426374733 -0.14767238094014704
0.24229668006941232 0.5319278092240692 -0.14717683603766332
0.28348637236385876 0.5350695639058161 -0.14638396419368938
0.42323994576231605 0.32890306267649133 -0.14638396419368938
0.24096861973075598 0.5319278092240692 -0.14638396419368938
0.5542521070809605 0.2578022800681279 -0.14638396419368938
0.11493172923304792 0.39554394116250124 -0.14569020133021215
0.1394810237020912 0.4134232012441137 -0.14569020133021215
0.11060066678534028 0.31422502266492364 -0.14569020133021215
0.4594840999299749 0.5162983229997329 -0.14569020133021215
0.1150011055193957 0.41678299568295324 -0.14569020133021215
0.16300949567201795 0.511243764994399 -0.14569020133021215
0.11358384709829226 0.5090336347293217 -0.14569020133021215
0.4738251694078537 0.4776061770138044 -0.14569020133021215
0.46706593693797577 0.5041872055830309 -0.14569020133021215
0.2263104015152877 0.44531647116796563 -0.14569020133021215
0.3300180387070797 0.3473472439469351 -0.14569020133021215
0.21887722797803197 0.45013316762010736 -0.14569020133021215
0.6978411980246418 0.375286065548967 -0.14440178458375452
0.2931891415544899 0.3100128909938121 -0.14440178458375452
0.2931891415544899 0.375286065548967 -0.14440178458375452
0.6064726289046944 0.5083299609677948 -0.14440178458375452
0.4603067044680979 0.34229268594160134 -0.1437080217202773
0.4547367797641809 0.4607279176352091 -0.1437080217202773
0.38330893752017836 0.2732632810256198 -0.1437080217202773
0.46162485390870467 0.3293787857828756 -0.1437080217202773
0.2720293742184352 0.515505451155759 -0.1437080217202773
0.10713185246795433 0.3966440508460151 -0.1437080217202773
0.12263249701764486 0.5109365271548592 -0.1437080217202773
0.2453987911589604 0.5252775966327379 -0.1437080217202773
0.6159771801343321 0.3999840234887554 -0.1437080217202773
0.2262707579230891 0.44535611476016435 -0.1437080217202773
0.329760355357788 0.35519667520227716 -0.1437080217202773
0.22363445904187568 0.4542362794126724 -0.1437080217202773
0.30536963525753963 0.5449804619554903 -0.1432124768177936
0.6064726289046944 0.5083299609677948 -0.14241960497381964
0.2931891415544899 0.3246413765151313 -0.14241960497381964
0.44983088522959225 0.4405493292060722 -0.14241960497381964
0.13877734994056434 0.39482044560487506 -0.14172584211034245
0.4515851141843845 0.5195391866619765 -0.14172584211034245
0.436084469634694 0.5182309481194194 -0.14172584211034245
0.5185728741021332 0.5024627093223876 -0.14172584211034245
0.1165075620229462 0.30795142419947985 -0.14172584211034245
0.12649774725701785 0.4997570341548265 -0.14172584211034245
0.26215811976095965 0.27883320572953674 -0.14172584211034245
0.11536780874723371 0.293094988023018 -0.14172584211034245
0.47532171501335446 0.516536184552925 -0.14172584211034245
0.46518286630853767 0.28339221883238686 -0.14172584211034245
0.22489314309418426 0.3615495608521185 -0.14172584211034245
0.32952249380459586 0.3488239677563366 -0.14172584211034245
0.21672656310125266 0.4443154704649485 -0.14172584211034245
0.2931891415544899 0.26484892858144626 -0.14123029720785873
0.5411994543495398 0.5319278092240692 -0.1404374253638848
0.35261488626033693 0.3230754546232828 -0.1404374253638848
0.2931891415544899 0.4144440237432301 -0.1404374253638848
0.13923325125084943 0.3967134271323629 -0.1397436625004076
0.37937431099445756 0.5244946356868136 -0.1397436625004076
0.3386405200102962 0.5160505505484911 -0.1397436625004076
0.45949401082802466 0.5245144574829129 -0.1397436625004076
0.3388982033595877 0.2777727396382216 -0.1397436625004076
0.214863314267914 0.5104310713543256 -0.1397436625004076
0.29752020400219753 0.5280823807807955 -0.1397436625004076
0.43830451079782096 0.53281979004854 -0.1397436625004076
0.541764375538371 0.49937050913088915 -0.1397436625004076
0.4770065676817991 0.28565190358771264 -0.1397436625004076
0.47302238666583 0.4760204333258566 -0.1397436625004076
0.3371538853028452 0.34070694225365333 -0.1397436625004076
0.35560797747133865 0.33560282975807104 -0.1397436625004076
0.3207414381325845 0.2578022800681279 -0.13924811759792388
0.34854150716192095 0.542532470137221 -0.13845524575394993
0.5542521070809605 0.2683474755929812 -0.13845524575394993
0.3453997524801741 0.4405493292060722 -0.13845524575394993
0.3996123648118925 0.256186803686031 -0.13845524575394993
0.44710538826593177 0.3274858042553879 -0.13776148289047274
0.4552025919725157 0.2861375375921466 -0.13776148289047274
0.4572838805629473 0.27760425437137715 -0.13776148289047274
0.24227685827331302 0.5174281653773958 -0.13776148289047274
0.11032316163994949 0.4882504815191546 -0.13776148289047274
0.11165122197860584 0.3155431721055303 -0.13776148289047274
0.4130019880770025 0.2719054879928144 -0.13776148289047274
0.21761854392572338 0.5128195977842972 -0.13776148289047274
0.6071168372779233 0.36556347456223653 -0.13776148289047274
0.5930730947415348 0.34334324113486675 -0.13776148289047274
0.5668587694001465 0.4687458341573957 -0.13776148289047274
0.501109871738607 0.5048908793445578 -0.13776148289047274
0.3241507870616724 0.35399745653826664 -0.13776148289047274
0.35983993093854966 0.3332242142261493 -0.13776148289047274
0.3316037823950275 0.5408277956726767 -0.13726593798798903
0.35661888907240546 0.5449804619554903 -0.13647306614401508
0.48898884342385535 0.2578022800681279 -0.13647306614401508
0.37513244662919704 0.4536019819374933 -0.13647306614401508
0.358155078270105 0.258466310237456 -0.13647306614401508
0.4537556008572633 0.3294977165594717 -0.13577930328053786
0.42910719740772324 0.28078565264532257 -0.13577930328053786
0.46555948043442524 0.2819452277171344 -0.13577930328053786
0.11375233236513668 0.30281757900974854 -0.13577930328053786
0.45435025474024365 0.33380895721108006 -0.13577930328053786
0.11206747969669217 0.49200671187998124 -0.13577930328053786
0.10624978254153333 0.41035082284871466 -0.13577930328053786
0.22045306076793025 0.5219475348880472 -0.13577930328053786
0.330890197735451 0.5346731279838292 -0.13577930328053786
0.4740729418590956 0.5066451082993502 -0.13577930328053786
0.22476430141953857 0.3615495608521185 -0.13577930328053786
0.3293936521299502 0.35013220629889363 -0.13577930328053786
0.3206819727442864 0.45593104297916676 -0.13577930328053786
0.33611324100762935 0.5440785702329699 -0.13528375837805418
0.4368773414786679 0.47971719829838516 -0.13449088653408023
0.44983088522959225 0.4544543191697653 -0.13449088653408023
0.6064726289046944 0.3125302590984294 -0.13449088653408023
0.1201448616071767 0.497427973113153 -0.133797123670603
0.3424859484535699 0.5189544436770456 -0.133797123670603
0.11568495748482324 0.40748657331235877 -0.133797123670603
0.5292964657918806 0.5011742925759299 -0.133797123670603
0.3381053315156138 0.27633565942101884 -0.133797123670603
0.12037281226231918 0.30045878527392605 -0.133797123670603
0.45659011769947 0.4688746758320414 -0.133797123670603
0.5813088587565716 0.4689242303222897 -0.133797123670603
0.5859967135340673 0.3331052834495532 -0.133797123670603
0.5854714359374347 0.4546921807229575 -0.133797123670603
0.5723890505118646 0.46143159139673606 -0.133797123670603
0.3294432066201985 0.3426693000674889 -0.133797123670603
0.2201755556225393 0.3615495608521185 -0.133797123670603
0.3258455506281667 0.46951888420527016 -0.133797123670603
0.36174282336408703 0.5580331146869114 -0.13250870692414535
0.3743891292754714 0.46508871277706587 -0.13250870692414535
0.3584524052115952 0.24474962733670674 -0.13250870692414535
0.11506057090769374 0.4073775534338124 -0.13181494406066815
0.11302883680751052 0.327783131196878 -0.13181494406066815
0.2281736503486265 0.35605892333259886 -0.13181494406066815
0.30742119115382227 0.35533542777497257 -0.13181494406066815
0.3639628645272141 0.47082712274782723 -0.13181494406066815
0.46628297599205154 0.2775447889830791 -0.13181494406066815
0.28003737984257215 0.2810730686887631 -0.13181494406066815
0.24819366440896867 0.5177155814208363 -0.13181494406066815
0.45239780782445793 0.4692413790598794 -0.13181494406066815
0.49102057752403855 0.27900169099638117 -0.13181494406066815
0.4702770679060702 0.5074776237355227 -0.13181494406066815
0.5834793454294501 0.3291409242296834 -0.13181494406066815
0.5900899144285829 0.35732751828295717 -0.13181494406066815
0.5672849380162822 0.4730075203187556 -0.13181494406066815
0.3650728851087776 0.2563156453606767 -0.13131939915818444
0.43976141281112313 0.4851483704296065 -0.1305265273142105
0.4352123106063226 0.5058225037612273 -0.1305265273142105
0.6456305870989576 0.3100128909938121 -0.1305265273142105
0.1250309343456661 0.41662442131415856 -0.1298327644507333
0.33388328894645253 0.3404690807004611 -0.1298327644507333
0.30478489227260885 0.45223427800663824 -0.1298327644507333
0.3375106776326334 0.4537407345101887 -0.1298327644507333
0.4666199465257404 0.46965763677796574 -0.1298327644507333
0.36161398168944126 0.2714991411727778 -0.1298327644507333
0.3349437550377678 0.5275571031841628 -0.1298327644507333
0.24152363002153784 0.28828820246892595 -0.1298327644507333
0.36549905372491365 0.5269228057089838 -0.1298327644507333
0.5728350409240999 0.3189822537287673 -0.1298327644507333
0.4796527774610622 0.47589159165121075 -0.1298327644507333
0.4788698165151379 0.3274263388670899 -0.1298327644507333
0.38223856053081345 0.25228190985445925 -0.12933721954824956
0.3719906919474503 0.5511549514404374 -0.1285443477042756
0.34344730556438824 0.4274966764746512 -0.1285443477042756
0.3719906919474503 0.24474962733670674 -0.1285443477042756
0.6978411980246418 0.4274966764746512 -0.1285443477042756
0.3005628497034476 0.4473581161661985 -0.12785058484079845
0.3291954341689566 0.35024122617744 -0.12785058484079845
0.32283263762106573 0.46907289379303485 -0.12785058484079845
0.5830333550172146 0.4663771295235235 -0.12785058484079845
0.31508231534622044 0.27579056002828667 -0.12785058484079845
0.31015659901553233 0.5262984191318544 -0.12785058484079845
0.4617933391755491 0.34342252831926406 -0.12785058484079845
0.5101684325560093 0.517695759624737 -0.12785058484079845
0.41105945205926636 0.27629601582882013 -0.12785058484079845
0.41389396890147323 0.5262587755396555 -0.12785058484079845
0.4858074451499099 0.32717856641584797 -0.12785058484079845
0.4779183703023691 0.2846509028846956 -0.12785058484079845
0.4628835379610132 0.5580331146869114 -0.12656216809434076
0.2931891415544899 0.41601985653312834 -0.12656216809434076
0.45783889085372903 0.3100128909938121 -0.12656216809434076
0.6717358925617998 0.4274966764746512 -0.12656216809434076
0.22717264964560938 0.357089656729765 -0.12586840523086357
0.32852149310157874 0.4540281505536294 -0.12586840523086357
0.35760997887737284 0.334601829055054 -0.12586840523086357
0.4743405361064368 0.27618699595027374 -0.12586840523086357
0.47243764368089924 0.2760284215814789 -0.12586840523086357
0.32911614698455927 0.5292221340565082 -0.12586840523086357
0.45247709500885525 0.4749996108267402 -0.12586840523086357
0.6367999769366979 0.3951177725463653 -0.12586840523086357
0.4706338602358585 0.2923318488731931 -0.12586840523086357
0.27667758540373255 0.5187165821238534 -0.12586840523086357
0.48260622507986506 0.3262271202030792 -0.12586840523086357
0.6261655833293973 0.40207522297723663 -0.12586840523086357
0.6586832398303787 0.47971719829838516 -0.12457998848440592
0.2931891415544899 0.375286065548967 -0.12457998848440592
0.44983088522959225 0.375286065548967 -0.12457998848440592
0.6717358925617998 0.34918076008612486 -0.12457998848440592
0.13625007093789746 0.4102318920721185 -0.12388622562092871
0.3042695255740257 0.3537595949850744 -0.12388622562092871
0.2192934856961183 0.3595277376499848 -0.12388622562092871
0.3564305820094616 0.47248224272212286 -0.12388622562092871
0.4737161495293073 0.33208446095043676 -0.12388622562092871
0.4696625922269904 0.2749084901018657 -0.12388622562092871
0.404617368326978 0.536258871671777 -0.12388622562092871
0.5802979471555048 0.3259000605674399 -0.12388622562092871
0.4549052650310255 0.3228475039681403 -0.12388622562092871
0.3822881150210618 0.546843710788829 -0.12388622562092871
0.55396469103752 0.4835428049455594 -0.12388622562092871
0.48234854173057357 0.3282192107110638 -0.12388622562092871
0.42686733444849684 0.556457281897013 -0.12259780887447105
0.2931891415544899 0.4144440237432301 -0.12259780887447105
0.43853246145296354 0.3361281073547039 -0.12259780887447105
0.684788545293221 0.362233412817546 -0.12259780887447105
0.12979807630755938 0.4150485885242603 -0.12190404601099385
0.30392264414228715 0.35359110971823005 -0.12190404601099385
0.2193925946766151 0.3615495608521185 -0.12190404601099385
0.36836330326126954 0.45650587506604795 -0.12190404601099385
0.45771004917908337 0.33353145206568924 -0.12190404601099385
0.4411192058439285 0.26833756469493164 -0.12190404601099385
0.4575217421161395 0.4692413790598794 -0.12190404601099385
0.5706447324551218 0.4854754300652458 -0.12190404601099385
0.3501569835440178 0.2614296687543087 -0.12190404601099385
0.4452520503306427 0.46204606707581586 -0.12190404601099385
0.5991782079401343 0.35254055452496447 -0.12190404601099385
0.4057967651948892 0.5550301125778602 -0.12140850110851015
0.4378287876914367 0.482759843999635 -0.1206156292645362
0.37473601070720997 0.4536019819374933 -0.1206156292645362
0.44594581319411986 0.25288647463548947 -0.1206156292645362
0.11260266819137447 0.39486008919707366 -0.119921866401059
0.3005628497034476 0.35968631201877965 -0.119921866401059
0.32924498865920504 0.4587259162291749 -0.119921866401059
0.32264433055812203 0.469281022652078 -0.119921866401059
0.6051445685660383 0.4499349496591138 -0.119921866401059
0.3705437008321979 0.26692030627382823 -0.119921866401059
0.33912615401473034 0.5315115515059828 -0.119921866401059
0.45295281811523963 0.3275948241339343 -0.119921866401059
0.39734276915851713 0.5453570760813781 -0.119921866401059
0.5120614140834971 0.2777529178421223 -0.119921866401059
0.47971224284936026 0.4669916052026033 -0.119921866401059
0.6217255010031434 0.37845755292486283 -0.119921866401059
0.4181160114706345 0.5523739919005475 -0.11942632149857527
0.43938479868523556 0.4566743603328924 -0.11863344965460133
0.4129920771789529 0.5580331146869114 -0.11863344965460133
0.439919987179918 0.25161787968513116 -0.11863344965460133
0.11039253792629711 0.4051178686784867 -0.11793968679112414
0.3020792171050478 0.35616794321114525 -0.11793968679112414
0.30827352838609423 0.44701123473445986 -0.11793968679112414
0.3185114860714078 0.3493096017607707 -0.11793968679112414
0.3186700604402025 0.39665396174406486 -0.11793968679112414
0.47402338736884714 0.2745814304662264 -0.11793968679112414
0.4588597133528456 0.26988366479068077 -0.11793968679112414
0.45348800660992206 0.4696675476760153 -0.11793968679112414
0.6176323001086278 0.4433838460482791 -0.11793968679112414
0.40633195368957165 0.27306506306462636 -0.11793968679112414
0.33867025270444523 0.5241081106628763 -0.11793968679112414
0.4934586584442585 0.3055529868714586 -0.11793968679112414
0.43348781434567935 0.551898268794163 -0.11744414188864041
0.29628134174598825 0.375286065548967 -0.11665127004466648
0.48898884342385535 0.5449804619554903 -0.11665127004466648
0.44983088522959225 0.375286065548967 -0.11665127004466648
0.6347682428365145 0.362233412817546 -0.11665127004466648
0.2276979272422421 0.356722953501927 -0.11595750718118927
0.3280854135873931 0.4545038736600136 -0.11595750718118927
0.3035856736085983 0.3495970178042112 -0.11595750718118927
0.3132289774109314 0.3912128787147936 -0.11595750718118927
0.48533172204352554 0.2897252826861288 -0.11595750718118927
0.4328931604626989 0.26546340426052606 -0.11595750718118927
0.4525563821932526 0.5345541972072331 -0.11595750718118927
0.6312201413347314 0.37570232326705333 -0.11595750718118927
0.4775615779725808 0.2897550153802778 -0.11595750718118927
0.41867102176141624 0.5508873571930962 -0.11595750718118927
0.6355710255785383 0.3953853667937065 -0.11595750718118927
0.4880373972110866 0.4749996108267402 -0.11595750718118927
0.2931891415544899 0.375286065548967 -0.11466909043473163
0.5542521070809605 0.5449804619554903 -0.11466909043473163
0.44983088522959225 0.375286065548967 -0.11466909043473163
0.6586832398303787 0.3647408700241136 -0.11466909043473163
0.30626161608201036 0.44122327027345015 -0.11397532757125442
0.3381647969039118 0.33990415951162983 -0.11397532757125442
0.22210818074222585 0.3497357703769066 -0.11397532757125442
0.3260338576911106 0.4040177589949728 -0.11397532757125442
0.48635254454264193 0.2866033498004814 -0.11397532757125442
0.47508385346016224 0.2725100527738445 -0.11397532757125442
0.4478487056196574 0.5360011883224853 -0.11397532757125442
0.6466414987000244 0.40043992479904034 -0.11397532757125442
0.44333924700705557 0.2742741926266866 -0.11397532757125442
0.3642106369784559 0.5437515105973307 -0.11397532757125442
0.6351845005546009 0.4101625157857709 -0.11397532757125442
0.49274507378468196 0.5095093578357061 -0.11397532757125442
0.29628134174598825 0.4274966764746512 -0.11268691082479675
0.6456305870989576 0.49276985102980614 -0.11268691082479675
0.4106630161372793 0.29696023826239093 -0.11268691082479675
0.6717358925617998 0.4536019819374933 -0.11268691082479675
0.30827352838609423 0.44701123473445986 -0.11199314796131955
0.22271274552325593 0.3559598143521021 -0.11199314796131955
0.35466644215661963 0.47168937087814894 -0.11199314796131955
0.5800402638062131 0.47899370274075886 -0.11199314796131955
0.43747199536164844 0.26472008690680043 -0.11199314796131955
0.4073626870867378 0.5427009554040654 -0.11199314796131955
0.38258544196255206 0.2596556180034169 -0.11199314796131955
0.4791374107624791 0.47477166017159755 -0.11199314796131955
0.6346790447540676 0.4324818581936374 -0.11199314796131955
0.501446842272296 0.28260925788646263 -0.11199314796131955
0.6195054598400161 0.434652344866516 -0.11199314796131955
0.3453997524801741 0.362233412817546 -0.11070473121486189
0.5673047598123817 0.5188751564926483 -0.11070473121486189
0.44983088522959225 0.24535419211773693 -0.11070473121486189
0.6978411980246418 0.41601985653312834 -0.11070473121486189
0.3021882369835942 0.4504701381537962 -0.1100109683513847
0.3286007802859762 0.4557229141201236 -0.1100109683513847
0.36700551022846417 0.32736687347879184 -0.1100109683513847
0.4584632774308585 0.4696080822877173 -0.1100109683513847
0.46464767781385524 0.2686051589422729 -0.1100109683513847
0.4584632774308585 0.4696080822877173 -0.1100109683513847
0.5605752600366528 0.49921193476209447 -0.1100109683513847
0.4400983833448121 0.2524107515291051 -0.1100109683513847
0.4565504741072714 0.4780819001201888 -0.1100109683513847
0.4925567667217381 0.4813425855785316 -0.1100109683513847
0.44540071380138785 0.5580331146869114 -0.10951542344890097
0.44983088522959225 0.4536019819374933 -0.10872255160492703
0.4106630161372793 0.5058225037612273 -0.10872255160492703
0.6064726289046944 0.28390758553096995 -0.10872255160492703
0.48761122859495065 0.4731561837895007 -0.10802878874144985
0.40828440060535753 0.2621531643119348 -0.10802878874144985
0.42074239945379815 0.5397375968872127 -0.10802878874144985
0.5828648697503702 0.31879394666582345 -0.10802878874144985
0.458175861387418 0.3252261195000621 -0.10802878874144985
0.4260942844006222 0.5521262194493055 -0.10802878874144985
0.4937758071818481 0.32139060195483815 -0.10802878874144985
0.613519277418013 0.4450389660225747 -0.10802878874144985
0.3363213698666725 0.3399239813077291 -0.10802878874144985
0.22309927054719322 0.45405788324777824 -0.10802878874144985
0.32587528332231575 0.403859184626178 -0.10802878874144985
0.44983088522959225 0.4551778147273916 -0.10674037199499217
0.4719420987784156 0.4943357729216547 -0.10674037199499217
0.6325779343675367 0.3514107121473016 -0.10674037199499217
0.49127826087333004 0.28360034769143 -0.10604660913151498
0.45232843153811014 0.26518589911513524 -0.10604660913151498
0.47267550523409146 0.5335432856061663 -0.10604660913151498
0.5993566041050284 0.4710253407088207 -0.10604660913151498
0.41748171399545525 0.25127099825339244 -0.10604660913151498
0.4455691990682322 0.47987577266717985 -0.10604660913151498
0.6439259126344137 0.40334381792759494 -0.10604660913151498
0.30202966261479935 0.36039989667835626 -0.10604660913151498
0.22165227943194077 0.35829878629182527 -0.10604660913151498
0.3559152153108786 0.47260117349871894 -0.10604660913151498
0.29628134174598825 0.4013913710118091 -0.10475819238505732
0.5542521070809605 0.534435266430637 -0.10475819238505732
0.573836041627117 0.29696023826239093 -0.10475819238505732
0.5337464590161846 0.5126312907213535 -0.10406442952158013
0.43120830779425423 0.25824827048036325 -0.10406442952158013
0.4174222486071572 0.5437118670051322 -0.10406442952158013
0.40548952735534943 0.25677154667096175 -0.10406442952158013
0.45870113898405074 0.4738400357549282 -0.10406442952158013
0.5741234576705575 0.4967044775555269 -0.10406442952158013
0.4998214549921494 0.3215194436294839 -0.10406442952158013
0.23073066204544254 0.4469319475500625 -0.10406442952158013
0.35701532499439237 0.33835805941588054 -0.10406442952158013
0.22139459608264928 0.3488041459602373 -0.10406442952158013
0.4746973284362251 0.3100128909938121 -0.10277601277512245
0.3932892118562004 0.46665463466891427 -0.10277601277512245
0.45352765020212066 0.362233412817546 -0.10277601277512245
0.6433015260572843 0.4405493292060722 -0.10277601277512245
0.5917846779950772 0.32817956711886503 -0.10208224991164525
0.43790807487583405 0.5446236696257021 -0.10208224991164525
0.5062437169283382 0.2734119444963649 -0.10208224991164525
0.4468774376107893 0.34139079421908086 -0.10208224991164525
0.4096421936381629 0.5493809006895456 -0.10208224991164525
0.5886429233133303 0.47298769852265626 -0.10208224991164525
0.3005628497034476 0.44309643000483856 -0.10208224991164525
0.33518161659095985 0.34007264477847426 -0.10208224991164525
0.3241507870616724 0.3446316578813243 -0.10208224991164525
0.3727340093011758 0.3230754546232828 -0.1007938331651876
0.2931891415544899 0.46665463466891427 -0.1007938331651876
0.44983088522959225 0.34918076008612486 -0.1007938331651876
0.6586832398303787 0.4405493292060722 -0.1007938331651876
0.6221021151290308 0.35769422151079505 -0.10010007030171039
0.46993018647433166 0.5356642177887965 -0.10010007030171039
0.6054518064055779 0.46856743799250156 -0.10010007030171039
0.45261584758155066 0.2541451586877981 -0.10010007030171039
0.4822593436481265 0.46433548452529055 -0.10010007030171039
0.5074330246942993 0.3204391557420694 -0.10010007030171039
0.30179180106160713 0.4425116870199078 -0.10010007030171039
0.3270745019863263 0.3478427888494188 -0.10010007030171039
0.3246463319641562 0.4664861494020699 -0.10010007030171039
0.3256671544632726 0.39913168625648343 -0.10010007030171039
0.44983088522959225 0.45538594358643464 -0.09881165355525273
0.45383488804166067 0.4144440237432301 -0.09881165355525273
0.6717358925617998 0.38833871828038813 -0.09881165355525273
0.49289373725542707 0.27597886709123054 -0.09811789069177554
0.437848609487536 0.5409665482453723 -0.09811789069177554
0.5412291870436886 0.28753497421715074 -0.09811789069177554
0.45895882233334223 0.3249188816605223 -0.09811789069177554
0.4278881569476134 0.534128028591097 -0.09811789069177554
0.4970761362323896 0.4715605292035031 -0.09811789069177554
0.5032605366153863 0.2897153717880791 -0.09811789069177554
0.30199992992065033 0.3603602530861575 -0.09811789069177554
0.3191556944446366 0.35178732627318926 -0.09811789069177554
0.3588091975413834 0.470529795806337 -0.09811789069177554
0.33818461870001126 0.4554454089747327 -0.09811789069177554
0.3453997524801741 0.4148206378691178 -0.09682947394531788
0.45399346241045546 0.4405493292060722 -0.09682947394531788
0.6195252816361156 0.3255829118298504 -0.09682947394531788
0.49414251040968593 0.32994370697170705 -0.09613571108184067
0.44207065205669727 0.5408476174687762 -0.09613571108184067
0.6335492023764047 0.4398654772406448 -0.09613571108184067
0.5203766575471739 0.2730947957587754 -0.09613571108184067
0.46905802744596037 0.33512710665168666 -0.09613571108184067
0.507561866368945 0.3316979359264995 -0.09613571108184067
0.30199992992065033 0.3603602530861575 -0.09613571108184067
0.330067593197328 0.3414205269132299 -0.09613571108184067
0.21845105936189604 0.45194686196319767 -0.09613571108184067
0.3132289774109314 0.3912128787147936 -0.09613571108184067
0.3453997524801741 0.41491974684961447 -0.09484729433538303
0.44983088522959225 0.4405493292060722 -0.09484729433538303
0.48898884342385535 0.24474962733670674 -0.09484729433538303
0.4667289664042869 0.3370002663830752 -0.09415353147190582
0.4450141887774505 0.5448714420769439 -0.09415353147190582
0.6394560976140106 0.433195442853214 -0.09415353147190582
0.49326044048326495 0.2631145214227533 -0.09415353147190582
0.47140691028373316 0.3422332205533033 -0.09415353147190582
0.5272845534877968 0.43509833527875136 -0.09415353147190582
0.508265540130472 0.5190535526575424 -0.09415353147190582
0.3190764072602391 0.35178732627318926 -0.09415353147190582
0.22380294430872008 0.4494195829605308 -0.09415353147190582
0.2246552815409922 0.45875564892332393 -0.09415353147190582
0.44000918526236504 0.3191606498936615 -0.09286511472544816
0.3159941179667905 0.47263090619286796 -0.09286511472544816
0.44983088522959225 0.375286065548967 -0.09286511472544816
0.6717358925617998 0.4144440237432301 -0.09286511472544816
0.4978293644841648 0.27320381563732177 -0.09217135186197095
0.45689735553900995 0.5400349238287029 -0.09217135186197095
0.6516365913170602 0.38550420143818126 -0.09217135186197095
0.4628835379610132 0.2723316566089503 -0.09217135186197095
0.4693751761835499 0.4677646552504779 -0.09217135186197095
0.4936469655072023 0.33458200725895465 -0.09217135186197095
0.510663977458493 0.48581240059893477 -0.09217135186197095
0.2254382424869164 0.4488447508736496 -0.09217135186197095
0.3567080871548525 0.33806073247439034 -0.09217135186197095
0.3368367365652555 0.34349190460561185 -0.09217135186197095
0.44983088522959225 0.375286065548967 -0.09167580695948725
0.3453997524801741 0.4405493292060722 -0.0908829351155133
0.483280166147243 0.4943357729216547 -0.0908829351155133
0.5009017428795638 0.2578022800681279 -0.0908829351155133
0.5088502831154027 0.4689936066086375 -0.0901891722520361
0.4603166153661476 0.2631046105247036 -0.0901891722520361
0.45085170772870864 0.32602890224208575 -0.0901891722520361
0.4460845657668154 0.549034019257807 -0.0901891722520361
0.4948263623751135 0.26267844190856765 -0.0901891722520361
0.4899502005346737 0.457477143074916 -0.0901891722520361
0.493686609099401 0.4242558128124077 -0.0901891722520361
0.536501688673994 0.5001534700768135 -0.0901891722520361
0.6485840347177605 0.4105193081155592 -0.0901891722520361
0.22454626166244568 0.3515098211277983 -0.0901891722520361
0.33585555765833786 0.33947799089549374 -0.0901891722520361
0.33237683244290217 0.34899245302318105 -0.0901891722520361
0.44983088522959225 0.375286065548967 -0.08969362734955237
0.29628134174598825 0.43694176231599086 -0.08890075550557844
0.4903169037625117 0.2966232677287021 -0.08890075550557844
0.6195252816361156 0.47971719829838516 -0.08890075550557844
0.22712309515536105 0.4510152375465284 -0.08820699264210125
0.30109803819813 0.35210447501077885 -0.08820699264210125
0.32308041007230764 0.4570608853568297 -0.08820699264210125
0.3363511025608215 0.45461289353856016 -0.08820699264210125
0.45159502508243426 0.3369209791986778 -0.08820699264210125
0.4516941340629309 0.2577626364759291 -0.08820699264210125
0.5065014002776298 0.2755229657809455 -0.08820699264210125
0.5783653220358184 0.3065539875744757 -0.08820699264210125
0.5873247738727239 0.30864518706295696 -0.08820699264210125
0.543835753230753 0.5074974455316221 -0.08820699264210125
0.6456305870989576 0.48222465550495275 -0.08691857589564358
0.4985330382456918 0.2949681477544065 -0.08691857589564358
0.33234709974875315 0.47814136550848685 -0.08691857589564358
0.3015440286103654 0.44684274946761543 -0.08622481303216638
0.2268158573158211 0.3517179499868415 -0.08622481303216638
0.22102789285481142 0.44122327027345015 -0.08622481303216638
0.3215739535687571 0.46991532012725723 -0.08622481303216638
0.3130208485518882 0.4367633661510967 -0.08622481303216638
0.4584236338386598 0.4788153065758647 -0.08622481303216638
0.45844345563475924 0.5406989539980311 -0.08622481303216638
0.5154013867262375 0.5232557734306044 -0.08622481303216638
0.5563036629772431 0.5105797348250708 -0.08622481303216638
0.6002485849294992 0.484860954386166 -0.08622481303216638
0.546630626480761 0.29916045762941873 -0.08622481303216638
0.3141903345217497 0.46665463466891427 -0.08493639628570873
0.29628134174598825 0.4274966764746512 -0.08493639628570873
0.6717358925617998 0.4274966764746512 -0.08493639628570873
0.4549250868271248 0.362233412817546 -0.08493639628570873
0.3337841799659559 0.4578438463027539 -0.08424263342223152
0.4647666085904513 0.4263668340969883 -0.08424263342223152
0.46999956276067945 0.33479013611799785 -0.08424263342223152
0.6296343976467832 0.35724823109855985 -0.08424263342223152
0.5046976168325892 0.2684564954715278 -0.08424263342223152
0.46425124189186834 0.25337210863992343 -0.08424263342223152
0.5324382204736274 0.5158721543835969 -0.08424263342223152
0.2931891415544899 0.38833871828038813 -0.08295421667577385
0.32448775759536136 0.49276985102980614 -0.08295421667577385
0.6456305870989576 0.3100128909938121 -0.08295421667577385
0.3279268392185983 0.46169918564407714 -0.08226045381229666
0.3553403832239974 0.473512976119289 -0.08226045381229666
0.4615455667243072 0.46074773943130853 -0.08226045381229666
0.4635475681303415 0.5415116476381044 -0.08226045381229666
0.5981672963390675 0.4780422565279901 -0.08226045381229666
0.6033209633248979 0.32428458418534306 -0.08226045381229666
0.5330427852546576 0.2748391138155179 -0.08226045381229666
0.5668785911962456 0.4893109476104698 -0.08226045381229666
0.6195252816361156 0.4952773082363737 -0.080972037065839
0.4106630161372793 0.3075054337872445 -0.080972037065839
0.29512176667417644 0.33994380310382843 -0.080972037065839
0.2931891415544899 0.46665463466891427 -0.080972037065839
0.33210923819556093 0.34875459146998883 -0.0802782742023618
0.4645584797314082 0.4639985139916016 -0.0802782742023618
0.4913971916499262 0.34676250096200434 -0.0802782742023618
0.536531421368143 0.2863159337570408 -0.0802782742023618
0.5330427852546576 0.289963144239321 -0.0802782742023618
0.5357286386261193 0.2971782780194838 -0.0802782742023618
0.5361944508344539 0.2980504370478551 -0.0802782742023618
0.680526859131861 0.4274966764746512 -0.07898985745590414
0.525728542493998 0.3012417462198503 -0.07898985745590414
0.44983088522959225 0.4536019819374933 -0.07898985745590414
0.3140317601529549 0.4628290280217401 -0.07898985745590414
0.35637111662116355 0.33342243218714274 -0.07829609459242695
0.4609608237393764 0.4705793502965853 -0.07829609459242695
0.4704653749690141 0.4681908238666138 -0.07829609459242695
0.5440835256819949 0.29128129367992767 -0.07829609459242695
0.5058770137005004 0.2766726299547077 -0.07829609459242695
0.5343906673894133 0.29336258227035916 -0.07829609459242695
0.5427059108530901 0.5021852041769967 -0.07829609459242695
0.6456305870989576 0.32055808651866546 -0.07700767784596929
0.5420517915818115 0.27085493279954886 -0.07700767784596929
0.5189395773299711 0.46665463466891427 -0.07700767784596929
0.31398220566270657 0.46665463466891427 -0.07700767784596929
0.3582343654545024 0.33170784682454907 -0.0763139149824921
0.4681264030292909 0.46632757503327515 -0.0763139149824921
0.4614662795399098 0.3662275047315647 -0.0763139149824921
0.4687111460142218 0.5405304687311865 -0.0763139149824921
0.4664019067686477 0.26068635140058305 -0.0763139149824921
0.4674425510638635 0.546387809478544 -0.0763139149824921
0.5243311058689938 0.5328594336407385 -0.0763139149824921
0.5906944792096132 0.3567328643999767 -0.0763139149824921
0.5803574125438028 0.28140012832440237 -0.07502549823603441
0.5089692138919988 0.4405493292060722 -0.07502549823603441
0.31392274027440853 0.4144440237432301 -0.07502549823603441
0.3562422749465177 0.4651580890634135 -0.0743317353725572
0.46827506650003603 0.3363758798059457 -0.0743317353725572
0.4596922287890181 0.4162081635960722 -0.0743317353725572
0.5622303800109484 0.3020048853696752 -0.0743317353725572
0.46137708145746276 0.545079570935987 -0.0743317353725572
0.6136282972965594 0.47244259912992415 -0.0743317353725572
0.6535989491308958 0.43282873962537594 -0.0743317353725572
0.5816953837805088 0.3304095191800417 -0.0743317353725572
0.6717358925617998 0.3361281073547039 -0.07304331862609956
0.5091277882607935 0.4405493292060722 -0.07304331862609956
0.2931891415544899 0.34918076008612486 -0.07304331862609956
0.35619272045626943 0.3375651875719066 -0.07234955576262235
0.4637953405815833 0.42730836941170736 -0.07234955576262235
0.45975169417731615 0.47914236621150397 -0.07234955576262235
0.47399365467469806 0.26289648166566043 -0.07234955576262235
0.47170423722522337 0.5404115379545904 -0.07234955576262235
0.5890195374392181 0.3096660095620735 -0.07234955576262235
0.5535682551155331 0.2825101489059658 -0.07234955576262235
0.5766309148771253 0.3171388266915278 -0.07234955576262235
0.6978411980246418 0.4274966764746512 -0.0710611390161647
0.5411994543495398 0.4144440237432301 -0.0710611390161647
0.35111834065483616 0.4817786650927174 -0.0710611390161647
0.3370151327301496 0.33881396072616565 -0.0703673761526875
0.4628042507766159 0.43111415426278227 -0.0703673761526875
0.4589092678430939 0.47527711597213096 -0.0703673761526875
0.47354766426246286 0.2623216495787794 -0.0703673761526875
0.46417195470747086 0.5450597491398879 -0.0703673761526875
0.6290496546618525 0.3446019251871753 -0.0703673761526875
0.5912891330925933 0.3058800465070979 -0.0703673761526875
0.601011724079324 0.3322331244211819 -0.0703673761526875
0.6717358925617998 0.4536019819374933 -0.06907895940622985
0.5281468016181186 0.4952773082363737 -0.06907895940622985
0.5411994543495398 0.47971719829838516 -0.06907895940622985
0.33064242528420906 0.46081711571765616 -0.06838519654275264
0.3535266888809071 0.47276965876556337 -0.06838519654275264
0.45662976129166877 0.325136921417615 -0.06838519654275264
0.4748063483147715 0.26255951113197157 -0.06838519654275264
0.5985439104649549 0.32038960125182103 -0.06838519654275264
0.5385631554683261 0.27918999805932504 -0.06838519654275264
0.5350745193548407 0.27307497396267594 -0.06838519654275264
0.609257591256653 0.3447902322501192 -0.06838519654275264
0.44428078232177465 0.48690259938439895 -0.067096779796295
0.5411994543495398 0.4405493292060722 -0.067096779796295
0.6456305870989576 0.32055808651866546 -0.067096779796295
0.332228168972157 0.338893247910563 -0.06640301693281779
0.4705644839495109 0.4448308371635315 -0.06640301693281779
0.46166449750090327 0.47498969992869045 -0.06640301693281779
0.4692562454069538 0.541095389920018 -0.06640301693281779
0.5864129712521537 0.4903912354978843 -0.06640301693281779
0.6556405941291288 0.42770480533369437 -0.06640301693281779
0.6452539729730701 0.44761579951549 -0.06640301693281779
0.6154221698435502 0.4552471910137392 -0.06640301693281779
0.6606257758481149 0.3634623641757056 -0.06511460018636012
0.5281468016181186 0.4536019819374933 -0.06511460018636012
0.4657081439051704 0.4853168556964511 -0.06511460018636012
0.32749075970441266 0.3389428024008113 -0.06442083732288291
0.46906793834400995 0.46668436736306335 -0.06442083732288291
0.4996133261331062 0.4770511667230227 -0.06442083732288291
0.4683147100922348 0.5414323604537069 -0.06442083732288291
0.6181873103994094 0.4659707827034869 -0.06442083732288291
0.5961058295447352 0.33381886810912975 -0.06442083732288291
