0.08314533559449323 0.11602873587670798 -0.09616188807280142
0.14768285016706414 0.10868276071568264 -0.09616188807280142
0.7086040655327526 -0.27158298183035 -0.09616188807280142
0.6839886049054573 0.20778898701091947 -0.09616188807280142
0.7453934229181306 0.05222482746056887 -0.09566620823737461
0.6017652338048577 0.09140336165270403 -0.09487312050069172
0.17449912926365463 -0.10445956851784632 -0.09487312050069172
-0.47550566612494044 0.10445956851784632 -0.09487312050069172
0.797945399070081 -0.17492541392212177 -0.09417916873109418
0.8804066964916856 0.0971036797601124 -0.09417916873109418
0.9048337987815188 0.05738981134571625 -0.09417916873109418
0.20291149743031947 -0.17203064368322915 -0.09417916873109418
0.2753402349828851 -0.07309294853203768 -0.09417916873109418
0.33272013273189294 0.09622136965305268 -0.09417916873109418
0.1288073620340112 0.12145147327627741 -0.09417916873109418
-0.2769759784397938 -0.06898871949470366 -0.09417916873109418
-0.1968344626479869 0.0696628440708841 -0.09417916873109418
-0.3848953922089193 0.12578371503790758 -0.09417916873109418
0.7147604090887536 -0.22196543030412622 -0.09289040115898446
0.8376691810811858 0.20890922343898408 -0.09289040115898446
0.22899417037047828 0.05670577317282723 -0.09289040115898446
-0.28610640100835577 0.013056206865142148 -0.09289040115898446
-0.2722571064065306 -0.06438881062194286 -0.09219644938938693
-0.1965469683434394 0.07026757347010475 -0.09219644938938693
-0.41318879721508167 0.11308439765427275 -0.09219644938938693
0.20466620404773045 -0.17554997051475957 -0.09219644938938693
0.21988357499533354 -0.07621573149522656 -0.09219644938938693
0.062386264086818424 0.056656205189284596 -0.09219644938938693
0.31097961515007305 0.12840090456896125 -0.09219644938938693
0.8035664084038212 -0.1793865324409631 -0.09219644938938693
0.6885587729880923 0.06187075705797462 -0.09219644938938693
0.8219660438948644 0.0955571586735807 -0.09219644938938693
0.8498529914359769 -0.039168620595426584 -0.09090768181727722
0.29719971572520765 0.09011459408059437 -0.09090768181727722
0.15584174025818953 0.05222482746056887 -0.09090768181727722
-0.23388157354778688 0.0 -0.09090768181727722
-0.2743290481186147 -0.06816589096789517 -0.09021373004767969
-0.3382023517117136 0.06364529086880262 -0.09021373004767969
-0.20815579008913537 0.08677371198981763 -0.09021373004767969
0.20222745925743044 -0.09707393896998678 -0.09021373004767969
0.2657339597723136 -0.07451059286135836 -0.09021373004767969
0.07160590902575718 0.06264401760124047 -0.09021373004767969
0.13273314633059155 0.06051259430890515 -0.09021373004767969
0.7123811458787048 -0.1684518352714477 -0.09021373004767969
0.7088320782570491 -0.0853064996769543 -0.09021373004767969
0.8781463964421392 0.1251789856386871 -0.09021373004767969
0.7298290760857288 0.07405456741276563 -0.09021373004767969
-0.4297345901216286 -0.07833724119085331 -0.08892496247556997
-0.364443642199209 0.25839789820799686 -0.08892496247556997
0.1229186855891406 0.09604292491229903 -0.08892496247556997
0.7177444016980232 -0.10288330664118901 -0.08892496247556997
0.6801123885924194 0.26114396449626154 -0.08892496247556997
0.6065733282084979 0.06547930625988184 -0.08823101070597245
0.7106859208415452 0.09318780906024063 -0.08823101070597245
0.6956767354248216 -0.08447375755343724 -0.08823101070597245
0.06690686418591098 0.06459699615282213 -0.08823101070597245
0.13267366475034034 0.06067121185624178 -0.08823101070597245
0.14904101291613361 -0.06449786018573672 -0.08823101070597245
-0.41403145293530724 0.1920660226311809 -0.08823101070597245
-0.37875887584633533 0.15345256345143246 -0.08823101070597245
-0.38514323212663265 -0.18300499523957875 -0.08823101070597245
-0.3589415960259714 -0.13057198224813077 -0.08773533087054562
0.7192810091878463 0.05718162581483699 -0.08694224313386273
0.7175461297638523 -0.19427675469718447 -0.08694224313386273
0.8338127919615653 -0.027282218141891662 -0.08694224313386273
0.30745037472183406 0.09831313855855382 -0.08694224313386273
0.19700299379203198 0.2872563782265458 -0.08694224313386273
-0.31280371694444375 -0.15479089900708476 -0.08694224313386273
-0.37431758452091113 -0.25375833494840183 -0.08694224313386273
-0.37458525163204154 -0.16776779709855866 -0.08624829136426519
-0.3367252258021417 -0.08460263431064825 -0.08624829136426519
-0.19291859194811514 0.06258453602098925 -0.08624829136426519
0.25178552920340314 -0.166925141378333 -0.08624829136426519
0.2778582885468534 -0.04104229037334 -0.08624829136426519
0.32573104705237493 0.12488157773743098 -0.08624829136426519
0.1426368294424192 0.22032968684721768 -0.08624829136426519
0.8122308919270818 -0.06827494053168903 -0.08624829136426519
0.8144217967996683 0.06167248512380393 -0.08624829136426519
0.8786123354874403 0.08885556729861017 -0.08624829136426519
0.7147604090887536 -0.19427675469718447 -0.08575261152883838
0.753423436252045 -0.13057198224813077 -0.08575261152883838
-0.425580793100752 -0.1347951744459671 -0.08575261152883838
-0.3999442320124772 -0.18453168913269344 -0.08575261152883838
-0.20362527639333425 0.1436281891132729 -0.08495952379215549
0.13549903981227313 -0.07833724119085331 -0.08495952379215549
0.7177444016980232 -0.10288330664118901 -0.08495952379215549
0.8168407143965511 -0.08341300270562386 -0.08495952379215549
-0.2253657939751542 0.13020517916991473 -0.08426557202255795
-0.2728122678222086 0.06347675972475754 -0.08426557202255795
0.07433214812060457 0.08100399870544961 -0.08426557202255795
0.2178909420569178 -0.2637512404306065 -0.08426557202255795
0.8746468968040261 0.1265173211943394 -0.08426557202255795
0.6344999301364442 0.15084528751708737 -0.08426557202255795
0.8158196139355721 0.06664911067148907 -0.08426557202255795
-0.2666658378629161 0.11582055034582886 -0.08297680445044822
0.20493387115886094 0.11128012305331914 -0.08297680445044822
0.3667435966355893 0.11751577538298848 -0.08297680445044822
0.8245634062325008 0.11128012305331914 -0.08297680445044822
-0.2347936244449722 0.17847448154377762 -0.08228285268085068
-0.4087970738732001 0.05389031170760302 -0.08228285268085068
0.09236498053343199 0.13368485161461122 -0.08228285268085068
0.10706684445219126 0.14944747038118358 -0.08228285268085068
0.2756376428841412 -0.07340027003000221 -0.08228285268085068
0.6257660514362239 0.08253069259856415 -0.08228285268085068
0.8044090641240468 0.07475843277907168 -0.08228285268085068
0.19816288460693063 -0.2082648396529291 -0.08228285268085068
-0.34869093702934495 0.11789249205791281 -0.080994085108741
-0.33833122846892455 0.2872563782265458 -0.080994085108741
0.6867842391772644 -0.09140336165270403 -0.080994085108741
0.28182372723026794 0.11789249205791281 -0.080994085108741
0.8354485354184737 0.11789249205791281 -0.080994085108741
0.8106843708405503 0.2742001713614035 -0.080994085108741
-0.1955258678824602 0.05574415429209927 -0.08030013333914345
-0.2595677026196042 0.06053242150232217 -0.08030013333914345
0.09397098320021492 0.13816579732686957 -0.08030013333914345
0.2937002160870943 0.17597625517322668 -0.08030013333914345
0.13179135464328062 0.10371604876470608 -0.08030013333914345
0.8864143360970584 0.09455588540601854 -0.08030013333914345
0.8453323913368842 0.16910613265421096 -0.08030013333914345
0.8498529914359769 -0.013056206865142148 -0.07901136576703376
0.7195982442825193 0.26114396449626154 -0.07901136576703376
0.3590407319930565 0.09140336165270403 -0.07901136576703376
0.24594642074207534 -0.09928467103599035 -0.07901136576703376
-0.3676655611294833 -0.11751577538298848 -0.07901136576703376
-0.24616451986966317 0.11789249205791281 -0.07901136576703376
-0.1855329624002556 0.06095870616078929 -0.0783174139974362
-0.2599146785044029 0.06311987024325022 -0.0783174139974362
0.1034087272667414 0.15029012610140924 -0.0783174139974362
0.12683455628901252 0.17784001135443137 -0.0783174139974362
0.14324155884163997 0.07287484940444983 -0.0783174139974362
0.6095969752046012 0.06157334915671852 -0.0783174139974362
0.7086040655327526 -0.08540563564403958 -0.0783174139974362
-0.2615405083646029 0.13112714366380876 -0.07702864642532652
0.30146256230987817 -0.013056206865142148 -0.07702864642532652
0.15783437319660526 -0.024446929483250286 -0.07702864642532652
0.3667435966355893 0.09140336165270403 -0.07702864642532652
0.7147604090887536 -0.09140336165270403 -0.07702864642532652
-0.2187930793573947 0.14421309131907653 -0.07633469465572897
-0.3604782035157945 0.06474570010345018 -0.07633469465572897
0.3190096284839873 0.15075606514671042 -0.07633469465572897
0.1212135469552724 0.20069085176760745 -0.07633469465572897
0.1473061334921398 0.06728358086083545 -0.07633469465572897
0.90049164342318 0.06828485412839762 -0.07633469465572897
0.765755950557464 0.06513233037508297 -0.07633469465572897
-0.4803435013187061 -0.2002843943025575 -0.07633469465572897
-0.2512898493679765 0.1422898535576206 -0.07504592708361923
0.7584496297832729 0.27980135350172647 -0.07504592708361923
0.28506547335395926 -0.07833724119085331 -0.07504592708361923
0.11865583900447009 0.0 -0.07504592708361923
0.6908190730376387 -0.06050268071219656 -0.0743519753140217
0.8963081056121778 0.07457998803831803 -0.0743519753140217
0.8129248436966795 0.0684137308856085 -0.0743519753140217
0.26341417814251616 -0.0694050905564622 -0.0743519753140217
0.1609472425630857 0.23727202362210612 -0.0743519753140217
-0.3869574203242948 -0.0655883558236757 -0.0743519753140217
-0.3110291831336158 0.2529751608084275 -0.0743519753140217
-0.24786965850353138 0.18165674608721802 -0.0743519753140217
0.1055996321393278 0.10445956851784632 -0.073063207741912
0.7380474477571051 0.14227993996091204 -0.073063207741912
-0.23388157354778688 -0.026112413730284435 -0.073063207741912
-0.22819116903708697 0.16324719699946624 -0.07236925597231446
-0.4178878420549278 0.18297525444945315 -0.07236925597231446
-0.280326774127279 -0.06571723258088673 -0.07236925597231446
0.3567011231698421 0.07687994247469843 -0.07236925597231446
0.26478225448829407 -0.06011605044056364 -0.07236925597231446
0.6917608647249496 0.06276298076174291 -0.07236925597231446
0.6565675964096459 0.18503728256482868 -0.07236925597231446
0.8220651798619499 -0.07632478105902042 -0.07236925597231446
0.3667435966355893 0.11751577538298848 -0.07108048840020476
0.6867842391772644 -0.10445956851784632 -0.07108048840020476
-0.2599939872780713 0.26114396449626154 -0.07108048840020476
0.7086040655327526 -0.10106911844352681 -0.07038653663060722
0.7893106563369462 0.2541251380266176 -0.07038653663060722
0.15547493717997363 -0.06969258486100971 -0.07038653663060722
0.07049558619440104 0.07052532698452679 -0.07038653663060722
0.10743364753040703 0.15278835247196046 -0.07038653663060722
-0.3594868438449409 0.06366511806221965 -0.07038653663060722
-0.4447636027317695 0.14436179526970472 -0.07038653663060722
0.8498529914359769 0.23502163716926835 -0.06909776905849752
0.6539999748621351 0.1436281891132729 -0.06909776905849752
0.17089058006174754 -0.053801089337226195 -0.06909776905849752
0.8172372582648928 -0.04153797020876678 -0.06840381728889998
0.7607991522031959 0.26933259537751236 -0.06840381728889998
0.7127479489569207 0.06331814217742092 -0.06840381728889998
0.27830440039873755 -0.04151814301534976 -0.06840381728889998
0.3391044890121902 0.10038508027063792 -0.06840381728889998
-0.3983679701358199 0.07116971077058162 -0.06840381728889998
-0.19290867835140654 0.06847321246585972 -0.06840381728889998
0.7380177069669797 0.054633831460743125 -0.06711504971679028
0.30146256230987817 0.011489858585193552 -0.06711504971679028
0.1055996321393278 0.026112413730284435 -0.06711504971679028
-0.4809383171212182 -0.14080281405134012 -0.06642109794719274
0.628670735271825 0.1260712093424554 -0.06642109794719274
0.6771977911601099 0.05512951129617005 -0.06642109794719274
0.1505577932125397 -0.067035740943122 -0.06642109794719274
0.22635715364600775 0.26484173606854544 -0.06642109794719274
-0.4004894798314468 -0.07751441266404481 -0.06642109794719274
-0.4212485513391216 0.19089621821957367 -0.06642109794719274
0.8138269809971561 0.2512303677877253 -0.06513233037508301
0.8498529914359769 0.05222482746056887 -0.06513233037508301
0.3145187691750205 0.11751577538298848 -0.06513233037508301
-0.2615405083646029 0.23502163716926835 -0.06513233037508301
0.7005145706185872 -0.0928011787886077 -0.06443837860548547
0.8449556746619601 0.18733723700120908 -0.06443837860548547
0.27911731532883743 0.21617588982634117 -0.06443837860548547
0.24192150047840957 0.2593793442821418 -0.06443837860548547
0.27280235422549987 -0.06076043422661861 -0.06443837860548547
-0.42814841464826286 0.19053932873806634 -0.06443837860548547
-0.41284182133028285 0.10264538032018412 -0.06443837860548547
-0.2820517399545644 0.2529355064215935 -0.06394269877005869
0.23327684414856598 0.2742001713614035 -0.06314961103337577
0.1960711157014295 -0.10445956851784632 -0.06314961103337577
0.7093674124793101 0.2642865746528673 -0.06314961103337577
-0.3931534182671299 0.07329122046620837 -0.062455659263778225
-0.2410094495812244 0.19511941041741 -0.062455659263778225
0.26315642462809413 -0.0699602519721402 -0.062455659263778225
0.292807992383326 0.19864865084564912 -0.062455659263778225
0.274983345501378 0.2117841664844595 -0.062455659263778225
0.7096152523970233 0.06402200754372696 -0.062455659263778225
0.6587783284756497 0.19191731868055298 -0.062455659263778225
0.697034898173891 0.26114396449626154 -0.06195997942835141
0.2279433291193735 0.05672560036624426 -0.06116689169166853
0.6867842391772644 -0.09140336165270403 -0.06116689169166853
0.7584496297832729 0.284431003164613 -0.06116689169166853
0.6837506785844524 0.2065200466322267 -0.060472939922070985
0.7177444016980232 0.062049201798728276 -0.060472939922070985
0.2632059926116369 -0.07000981995568284 -0.060472939922070985
0.11261845860897157 0.1804373736920679 -0.060472939922070985
0.1273302361244393 0.18761481770904828 -0.060472939922070985
-0.3637893448164456 0.25677206834779703 -0.060472939922070985
-0.26707229532796617 -0.07398517223580584 -0.060472939922070985
0.13316934458576712 0.24808775763111923 -0.05997726008664417
-0.33833122846892455 0.05688421791358089 -0.05918417234996129
-0.2611142237061359 -0.08261991496894099 -0.05918417234996129
0.3145187691750205 0.22196543030412608 -0.05918417234996129
-0.2728420086123342 -0.08540563564403958 -0.058490220580363746
-0.43254013799014435 0.17847448154377762 -0.058490220580363746
-0.3962266332467761 0.23962154604202918 -0.058490220580363746
0.16942336774888409 0.07118953796399866 -0.058490220580363746
0.34110703554731453 0.11110167831256548 -0.058490220580363746
0.16068948904866365 0.2292915782717344 -0.058490220580363746
0.7983915109219654 0.06408148912397818 -0.058490220580363746
0.751648902441217 0.27508248146846326 -0.058490220580363746
0.6931685954575617 0.2512501949811422 -0.05799454074493693
0.6135425866945986 0.13057198224813063 -0.05720145300825405
-0.2599939872780713 0.26114396449626154 -0.05720145300825405
0.6808955627323939 -0.08245138382489577 -0.05720145300825405
0.8165631336887123 0.22279817242764316 -0.05650750123865651
0.6748383551434783 0.21969521665787142 -0.05650750123865651
0.8161467626269537 -0.06481509528040985 -0.05650750123865651
0.3566119007994651 0.08234233426110191 -0.05650750123865651
0.1626424676002453 0.07375715951150953 -0.05650750123865651
0.2178909420569178 -0.09323737704378326 -0.05650750123865651
-0.18292568646591065 0.08467202948760792 -0.05650750123865651
-0.2764307306208243 -0.030960162520758696 -0.05650750123865651
0.8750731814624929 0.1697406028435575 -0.055218733666546775
-0.364443642199209 0.3003125850916881 -0.055218733666546775
0.706224802322704 0.013056206865142148 -0.055218733666546775
0.695002610848641 0.22767566200824316 -0.05452478189694924
0.7443326680703173 0.27765010301597426 -0.05452478189694924
0.6922862853505021 -0.07042619101744138 -0.05452478189694924
0.3528447340502214 0.081529419331002 -0.05452478189694924
0.13947439209239612 0.07471877839223763 -0.05452478189694924
0.1567736183487919 -0.06235652329669295 -0.05452478189694924
-0.2337725239839929 0.17212977965031456 -0.05452478189694924
-0.2798905758721035 -0.06235652329669295 -0.05452478189694924
0.67394613143971 0.22965838134995029 -0.053236014324839535
-0.24693778041292905 0.24808775763111923 -0.053236014324839535
0.23571558893886582 0.05735015695888206 -0.053236014324839535
-0.2582392806606604 -0.041696587756103416 -0.052542062555242
-0.3689741558950101 0.25046702084116773 -0.052542062555242
-0.4667321330378858 0.07162573621917422 -0.052542062555242
0.13330813493968657 0.06028458158460885 -0.052542062555242
0.3218250899492116 0.15876625128720762 -0.052542062555242
0.3436944842882424 0.071566254638923 -0.052542062555242
0.8298374396814422 0.056229920530817476 -0.052542062555242
0.7037959711291126 0.23140317437065283 -0.052542062555242
-0.29313514107470784 0.22161845441932734 -0.051253294983132296
0.6670561817272774 0.10284365225435481 -0.051253294983132296
0.05337480467875893 0.11751577538298848 -0.051253294983132296
0.7682938313148493 0.0575087745062187 -0.051253294983132296
0.7156724599859391 0.07098135243311939 -0.05055934321353476
0.7012779175651445 -0.09323737704378326 -0.05055934321353476
0.3183454175045154 0.16583464574039417 -0.05055934321353476
0.1420915816234498 0.08047857807989707 -0.05055934321353476
0.05932296270388075 0.07300372616166084 -0.05055934321353476
-0.2797914399050182 -0.06629222118998175 -0.05055934321353476
-0.40011276315652233 0.22226283820538217 -0.05055934321353476
0.9025536715385556 0.10445956851784632 -0.049270575641425056
0.13672832580413158 -0.0821242351335142 -0.049270575641425056
-0.4297345901216286 -0.039168620595426584 -0.049270575641425056
-0.4202274508781424 0.19218498579168333 -0.04857662387182752
-0.20389294350446474 0.09146284323295525 -0.04857662387182752
-0.261282754850181 -0.04461118518841304 -0.04857662387182752
0.20606402118363398 -0.08925211116695168 -0.04857662387182752
0.13388312354878176 0.10711641243573404 -0.04857662387182752
0.6778719157362902 0.21315224283023756 -0.04857662387182752
0.8235720465616473 0.06363537727209403 -0.04857662387182752
0.6885290321979669 0.2436762070958207 -0.047287856299717816
0.35368738977044706 0.1566843959784152 -0.047287856299717816
0.1055996321393278 0.026112413730284435 -0.047287856299717816
-0.4297345901216286 0.039168620595426584 -0.047287856299717816
0.7560307121863901 0.2700761151306525 -0.04659390453012028
0.6730935621227758 0.1040431974560878 -0.04659390453012028
0.6063453154842013 0.0927615244017735 -0.04659390453012028
0.3295973497687041 0.12307730313647737 -0.04659390453012028
0.2732385524806756 -0.06122637327191978 -0.04659390453012028
-0.2701752510977379 -0.06892923791445245 -0.04659390453012028
-0.3980408214444383 0.09269212922481371 -0.04659390453012028
-0.4220218118823874 0.19668575869735885 -0.04659390453012028
0.7435891483171772 0.2872563782265458 -0.04530513695801054
0.16173041670306001 0.2348431924285147 -0.04530513695801054
-0.3428914829548512 0.2872563782265458 -0.04530513695801054
0.262284028117743 0.0 -0.04530513695801054
-0.4819990719690316 0.09415934153767717 -0.044611185188413005
-0.37146246866885263 0.07155634104221455 -0.044611185188413005
-0.2626904855827931 -0.040209548249822924 -0.044611185188413005
0.2636025364799783 -0.06645083873731839 -0.044611185188413005
0.34757070060128026 0.09264256124127107 -0.044611185188413005
0.6583916982040166 0.18150804213658983 -0.044611185188413005
0.7613444000221655 0.06723401287729268 -0.044611185188413005
0.7684623624588944 0.2657835277558564 -0.044611185188413005
0.669693198451748 0.22710067339914786 -0.0433224176163033
0.34063118290530475 0.1697406028435575 -0.0433224176163033
0.1055996321393278 0.05222482746056887 -0.0433224176163033
-0.42052485877939844 0.06528103432571102 -0.0433224176163033
-0.47123290594356126 0.0893115927472029 -0.042628465846705765
-0.1974689328373333 0.09989931403191958 -0.042628465846705765
-0.25449194110483364 0.06450777378244531 -0.042628465846705765
0.2028718430434854 0.2706312765463306 -0.042628465846705765
0.15238189500691035 -0.0690382874782463 -0.042628465846705765
0.142151063203701 0.07568039727296559 -0.042628465846705765
0.7539191160874719 0.2714640186698477 -0.042628465846705765
0.6903035660087949 -0.07073351251540606 -0.042628465846705765
0.7186068846116658 0.07540281656512651 -0.042628465846705765
0.3667435966355893 0.10445956851784632 -0.04213278601127895
0.30146256230987817 0.1436281891132729 -0.04133969827459606
-0.18164683249050945 0.11751577538298848 -0.04133969827459606
0.12418762596783324 0.09140336165270403 -0.04133969827459606
-0.44870921422176696 0.1431225956811377 -0.040645746504998526
-0.19679480826115286 0.12453460185263225 -0.040645746504998526
-0.33422699943159057 0.0849396965987384 -0.040645746504998526
0.11106202392573128 0.17572841525551322 -0.040645746504998526
0.2024455583850183 0.0667779874287001 -0.040645746504998526
0.3321649713162148 0.12904528835501608 -0.040645746504998526
0.7005145706185872 -0.0928011787886077 -0.040645746504998526
0.8341696814430727 0.059422098670966164 -0.040645746504998526
-0.18465065229319588 0.11317362002464958 -0.04015006666957171
0.20978161994933506 0.0534640270491359 -0.03935697893288882
-0.387145778661757 0.26114396449626154 -0.03935697893288882
0.2826465557570764 -0.08313542199778479 -0.03935697893288882
-0.46534422949869075 0.08146993775075079 -0.038663027163291286
-0.39928002103300536 0.07350931959379621 -0.038663027163291286
-0.26980844801952214 -0.06143455880279905 -0.038663027163291286
0.13245556562275249 0.22961872696311625 -0.038663027163291286
0.17433059811960955 0.06451768737915375 -0.038663027163291286
0.7821431259166743 0.25882418286646397 -0.038663027163291286
0.8176238885365256 -0.04443274044765938 -0.038663027163291286
0.7552277108529984 0.07732605432658257 -0.038663027163291286
0.8969624029949409 0.12333505665089928 -0.03816734732786447
0.19727066090316234 0.2872563782265458 -0.03737425959118159
-0.39056596952620193 0.026112413730284435 -0.03737425959118159
0.15783437319660526 0.013056206865142148 -0.03737425959118159
-0.31120762787436945 0.27359544196218305 -0.036680307821584046
-0.2856999435433057 0.0670753953299562 -0.036680307821584046
0.2516467388494836 0.2636322772701039 -0.036680307821584046
0.1628803939212502 0.07517480384083022 -0.036680307821584046
0.3513081265603983 0.09285074677215034 -0.036680307821584046
0.6155153924395974 0.12117389256843834 -0.036680307821584046
0.7891718659830266 0.06385347639968189 -0.036680307821584046
0.06758098876209141 0.128212546231499 -0.03618462798615723
0.299093212696538 0.22196543030412608 -0.035391540249474315
0.1943263226807271 0.05749886090951011 -0.035391540249474315
-0.1949013112898224 0.1436281891132729 -0.035391540249474315
0.608298294035783 0.09471450295335518 -0.03469758847987677
0.6720129800815455 0.06432932904169164 -0.03469758847987677
0.14977461907256528 -0.06786848306663908 -0.03469758847987677
0.14798025806832024 0.054594177073909074 -0.03469758847987677
0.20866138352127048 0.27172177218426946 -0.03469758847987677
-0.40564455011988554 0.09845192891247329 -0.03469758847987677
-0.20112705002278317 0.08420609044230674 -0.03469758847987677
-0.28371722420159856 0.25456133628179334 -0.033408820907767076
-0.39056596952620193 0.026112413730284435 -0.033408820907767076
0.12804401508745392 -0.09140336165270403 -0.033408820907767076
0.7453934229181306 -0.09140336165270403 -0.033408820907767076
0.8889522168544437 0.1469789848007581 -0.033408820907767076
0.11865583900447009 0.23502163716926835 -0.033408820907767076
0.712400973072122 0.26299780708075765 -0.03271486913816953
0.6743228481146343 0.06528103432571102 -0.03271486913816953
0.21365783626237278 -0.09723255651732342 -0.03271486913816953
0.28655251286023964 0.062227646539481936 -0.03271486913816953
0.23164110069165758 0.27011576951748684 -0.03271486913816953
-0.2612331868666384 0.09192878227825643 -0.03271486913816953
-0.27934532805313406 -0.0707434261121145 -0.03271486913816953
-0.1743999932965695 -0.13057198224813077 -0.032219189302742715
0.45098934146473013 -0.09140336165270403 -0.032219189302742715
0.07165547700929982 0.14104074037234499 -0.032219189302742715
0.8112791866430623 0.048655932645495836 -0.031426101566059836
0.27651995299120097 0.23396088232145498 -0.031426101566059836
-0.4768440016805928 -0.10247684917613906 -0.031426101566059836
0.13316934458576712 -0.12306738953976878 -0.031426101566059836
0.7790599973403195 -0.12306738953976878 -0.031426101566059836
0.40997679188151576 -0.10247684917613906 -0.031426101566059836
-0.2512898493679765 -0.09140336165270403 -0.031426101566059836
-0.3224694737352666 0.2635430548997272 -0.030732149796462296
-0.29625792403789675 0.07113996998045602 -0.030732149796462296
0.12210577065904069 0.2008098149281099 -0.030732149796462296
0.13735288239676938 0.10079153773568787 -0.030732149796462296
0.26393959876806855 -0.06297116629262217 -0.030732149796462296
0.8538481709095169 0.16643937513961465 -0.030732149796462296
0.8224716373269999 -0.04249958908949488 -0.030732149796462296
-0.34869093702934495 -0.10247684917613906 -0.030236469961035475
-0.005234379062107187 -0.12306738953976878 -0.030236469961035475
0.6406562736924454 -0.12306738953976878 -0.030236469961035475
0.5483805155293902 -0.10247684917613906 -0.030236469961035475
0.6539999748621351 0.039168620595426584 -0.029443382224352596
0.8701758646884761 0.1827968097086995 -0.029443382224352596
0.30146256230987817 -0.06528103432571102 -0.029443382224352596
-0.254977707343552 -0.05222482746056887 -0.029443382224352596
0.8777201117836724 0.11135943182698753 -0.028749430454755056
0.8293615870394325 -0.0327346963315867 -0.028749430454755056
0.3244422794802651 0.14857507387083244 -0.028749430454755056
0.28185346802039357 -0.04035825220045098 -0.028749430454755056
-0.3290421883530261 0.2722174520196964 -0.028749430454755056
-0.37477360996950376 0.06433924263840009 -0.028749430454755056
-0.2728420086123342 -0.08540563564403958 -0.028749430454755056
-0.41877015216198754 0.23149239674102953 -0.027460662882645356
-0.23388157354778688 0.07833724119085331 -0.027460662882645356
0.15401763846381875 0.22196543030412608 -0.027460662882645356
0.7584496297832729 -0.053801089337226195 -0.027460662882645356
-0.34052213334151105 -0.07499635910007657 -0.026766711113047816
-0.26885674273550264 0.09113569454157355 -0.026766711113047816
0.24985237784523853 0.26285901672683804 -0.026766711113047816
0.1301456975896635 0.10792932736583395 -0.026766711113047816
0.767490829981458 0.2808918491396656 -0.026766711113047816
0.6899169357371618 -0.07115979717387304 -0.026766711113047816
-0.27096833883442095 -0.10848448878151196 -0.026766711113047816
0.08190613600592621 0.16259289961670284 -0.026271031277621
-0.3242539211428031 0.05222482746056887 -0.025477943540938082
0.29716006133837347 0.05222482746056887 -0.025477943540938082
0.33663600343176475 0.1697406028435575 -0.025477943540938082
0.8384721824145773 0.07123910594754143 -0.025477943540938082
-0.2064010834717244 0.11684165080680803 -0.024783991771340542
-0.45453840908638626 0.15481072620050193 -0.024783991771340542
0.08124192502645435 0.10004801798254763 -0.024783991771340542
0.3183057631176812 0.15287757484233713 -0.024783991771340542
0.8280232514837802 0.20600453960338289 -0.024783991771340542
0.7663904207468103 -0.07648339860635706 -0.024783991771340542
0.6967771446594689 -0.10277425707739515 -0.024783991771340542
-0.3025530579478173 -0.09140336165270403 -0.02428831193591376
0.23617161438745857 0.05524847445667235 -0.02428831193591376
0.3275749760401626 0.20890922343898408 -0.02428831193591376
0.8106843708405503 0.0 -0.02428831193591376
-0.28878307211966053 0.26353314130301864 -0.022801272429633302
-0.3038913935034697 0.06545947906646468 -0.022801272429633302
0.14280536058646429 0.22071631711885076 -0.022801272429633302
0.3358528292917903 0.15322455072713587 -0.022801272429633302
0.8611445780869995 0.16233514610228078 -0.022801272429633302
0.7322975616661542 -0.07109040199691338 -0.022801272429633302
0.20552868696137314 -0.08128157941328853 -0.022801272429633302
0.3382122653084219 0.1827968097086995 -0.022305592594206485
-0.2871770694528776 0.24731449708785339 -0.021512504857523602
0.25258853053679464 -0.09140336165270403 -0.021512504857523602
0.14477816633146312 0.24808775763111923 -0.021512504857523602
0.6963112056141678 0.23502163716926835 -0.021512504857523602
-0.4449023930856891 0.1645359645715759 -0.020818553087926066
-0.21035660855843036 0.16689540058820754 -0.020818553087926066
-0.35999243727707625 -0.07891222979994834 -0.020818553087926066
0.14450058562362403 0.10012732675621587 -0.020818553087926066
0.6823330342551317 0.21097125155435958 -0.020818553087926066
0.8350222507600067 0.06542973827633906 -0.020818553087926066
0.18964710503429805 -0.07385629547859494 -0.020818553087926066
-0.44608211109400486 0.18987511775859434 -0.020322873252499245
0.3382122653084219 0.1827968097086995 -0.020322873252499245
0.697034898173891 0.2517458748165691 -0.019529785515816363
0.22404728561291876 -0.09140336165270403 -0.019529785515816363
0.26132240923701505 0.23502163716926835 -0.019529785515816363
-0.38456824351753754 0.24472704834692546 -0.019529785515816363
-0.38065237281766573 -0.0945459718093101 -0.019529785515816363
0.24043446097212906 -0.07112014278703899 -0.018835833746218826
0.8764313442115624 0.11979590262595184 -0.018835833746218826
0.6926927428155519 0.22287748120131154 -0.018835833746218826
0.291846373502598 0.06557844222696711 -0.018835833746218826
-0.2519044923639057 0.21064410286297774 -0.018835833746218826
-0.4474105330529487 0.17688830607041187 -0.018835833746218826
-0.3635613320921493 -0.07896179778349112 -0.018835833746218826
0.09254342527418566 0.20890922343898408 -0.018340153910792006
0.8559498534117265 0.2061631571507194 -0.017547066174109123
0.7845719571102657 -0.057092403444460156 -0.017547066174109123
-0.26668566505633323 -0.09849158329930748 -0.017547066174109123
0.11865583900447009 0.22196543030412608 -0.017547066174109123
-0.23388157354778688 0.1321383305280795 -0.017547066174109123
-0.27183082174806344 -0.03604583763223769 -0.016853114404511586
-0.30818398087826593 0.07206193447434991 -0.016853114404511586
0.25778325521206746 0.26144137239751764 -0.016853114404511586
0.1308099085691355 0.06708530892666463 -0.016853114404511586
0.6619903338092152 0.18341145270462886 -0.016853114404511586
0.827557312438479 0.2320277309632905 -0.016853114404511586
0.90489328036177 -0.11276716255959963 -0.016853114404511586
-0.2750130862915037 0.23831295127650234 -0.016357434569084766
0.18955788266392123 0.055654931921722446 -0.016357434569084766
0.8270913733931778 0.24576797600132166 -0.01556434683240185
0.6670561817272774 0.07177444016980226 -0.01556434683240185
0.14477816633146312 0.2742001713614035 -0.01556434683240185
-0.44095678159569157 0.2003637030762259 -0.01556434683240185
-0.40439543693461 -0.04099272238979736 -0.014870395062804312
-0.31148520858220846 0.06548921985659029 -0.014870395062804312
0.15401763846381875 0.2542738419772458 -0.014870395062804312
0.2900420989016444 0.10901982300377293 -0.014870395062804312
0.6708332620732298 0.19652714115002237 -0.014870395062804312
-0.2806737500120779 -0.09323737704378326 -0.014870395062804312
0.21828748592525918 -0.1039341478922938 -0.014870395062804312
-0.33843036443600993 0.05874797409478572 -0.014374715227377528
0.8467103812793709 0.22510804046073213 -0.01358162749069461
0.7147604090887536 -0.09140336165270403 -0.01358162749069461
0.13172195946632081 0.25059589759837875 -0.01358162749069461
-0.37750976266105973 0.13308012221539042 -0.01358162749069461
0.9010567184355665 -0.11276716255959963 -0.012887675721097072
0.7312863748018835 0.06678790102540853 -0.012887675721097072
0.6989184815485129 0.25007047697282636 -0.012887675721097072
0.19845037891147813 0.2748643823408755 -0.012887675721097072
0.13208876254453672 0.06340736454779775 -0.012887675721097072
-0.24485592510413648 0.20204901451667692 -0.012887675721097072
-0.3141916204836388 0.06908785546178893 -0.012887675721097072
0.2231154075223163 0.05597216701639557 -0.012391995885670254
0.7688093383436931 0.1163856253582153 -0.011598908148987373
0.30146256230987817 0.011489858585193552 -0.011598908148987373
-0.24881145019084247 0.23345528888931977 -0.011598908148987373
-0.28250776540315714 -0.10897025502023029 -0.010904956379389832
0.6810740074731475 -0.04082419124575215 -0.010904956379389832
0.7977966951194532 0.2503282304872484 -0.010904956379389832
0.1504388300520373 0.23588412008291118 -0.010904956379389832
0.3225983504924775 0.14626520583774347 -0.010904956379389832
0.2649904400191734 -0.07109040199691338 -0.010904956379389832
-0.3575239516966507 0.2616892123152308 -0.010904956379389832
-0.39817961179835776 -0.045166346604091044 -0.010904956379389832
0.656032262187385 0.22196543030412608 -0.010409276543963014
-0.4950156244473397 -0.13057198224813077 -0.009616188807280133
0.1229186855891406 0.23502163716926835 -0.009616188807280133
0.66507346238557 0.06528103432571102 -0.009616188807280133
-0.40439543693461 -0.0754523845486693 -0.008922237037682594
-0.27180108095793787 0.2343970805766307 -0.008922237037682594
0.25059589759837875 -0.0812320114297459 -0.008922237037682594
0.1447087711545033 0.23006483881500026 -0.008922237037682594
0.22634724004929915 0.26297797988734045 -0.008922237037682594
0.7695925124836676 0.26297797988734045 -0.008922237037682594
0.7956950126172435 -0.07921955129791301 -0.008922237037682594
-0.2606780254509602 -0.036878579755754766 -0.008922237037682594
-0.3257508742457921 -0.0814600241540422 -0.007633469465572894
0.1055996321393278 0.053801089337226195 -0.007633469465572894
0.6828088868971415 0.11751577538298848 -0.007633469465572894
-0.30331640489437456 0.27280235422550003 -0.006939517695975355
-0.4045937088687807 -0.041200907920676634 -0.006939517695975355
0.2775013990653461 -0.0754127301618351 -0.006939517695975355
0.12883710282413682 0.21186347525812788 -0.006939517695975355
0.7086635471130037 -0.07926911928145565 -0.006939517695975355
0.6608007022041911 0.19603146131459545 -0.006939517695975355
-0.4204554636024387 0.22741790849382112 -0.006443837860548536
0.6770788279996075 0.2403353250050438 -0.0056507501238656195
0.30146256230987817 0.24808775763111923 -0.0056507501238656195
-0.23388157354778688 -0.05222482746056887 -0.0056507501238656195
0.8404945561431185 0.21633450737367765 -0.00495679835426808
0.8175148389727317 -0.06231686890985876 -0.00495679835426808
0.12391995885670289 0.21699871835314966 -0.00495679835426808
0.27268339106499745 -0.06547930625988184 -0.00495679835426808
-0.25073468795229836 0.21850558505284703 -0.00495679835426808
-0.3962960284237359 0.09482355251714902 -0.00495679835426808
0.6776339894152854 0.24562918564740208 -0.004461118518841297
0.8498529914359769 0.06528103432571102 -0.0036680307821583802
0.5945183946109177 -0.09140336165270403 -0.0036680307821583802
0.35871358330167497 -0.12498071370451626 -0.0036680307821583802
0.6816589096789512 -0.10056352501139158 -0.0036680307821583802
0.49711730694954914 -0.13057198224813077 -0.0036680307821583802
-0.14877334580500326 -0.13057198224813077 -0.0036680307821583802
-0.24693778041292905 -0.08825083789938953 -0.0036680307821583802
-0.317929046442757 -0.09742091485478553 -0.0036680307821583802
0.28182372723026794 0.25143855331860443 -0.0036680307821583802
0.10240745399917925 -0.09742091485478553 -0.0036680307821583802
-0.13338744371335512 -0.12359281016532118 -0.0036680307821583802
0.18955788266392123 -0.10194151495387807 -0.0036680307821583802
0.8173958758122293 0.10299235620498286 -0.002974079012560841
0.6766128889543064 -0.033418734504475585 -0.002974079012560841
0.1366192762403377 0.1009501552830245 -0.002974079012560841
-0.4251445948455763 0.19658662273027358 -0.002974079012560841
-0.263077115854426 0.09974069648458309 -0.002974079012560841
-0.409867742317722 -0.033418734504475585 -0.002974079012560841
0.43047810987476876 -0.09140336165270403 -0.0024783991771340223
-0.1949013112898224 -0.13057198224813077 -0.0024783991771340223
0.6877755988481179 0.2515376892856897 -0.001685311440451141
-0.40583290845734776 0.24808775763111923 -0.001685311440451141
-0.34869093702934495 -0.12306738953976878 -0.001685311440451141
0.29719971572520765 -0.12306738953976878 -0.001685311440451141
0.8918370734966278 -0.09140336165270403 -0.001685311440451141
0.6611575916856981 -0.09140336165270403 -0.001685311440451141
0.09215679500255272 -0.09140336165270403 -0.001685311440451141
-0.38764145849718373 -0.08563364836833602 -0.001685311440451141
-0.41128538664704273 0.06028458158460885 -9.913596708536019E-4
0.11013014583512894 0.18969667301784068 -9.913596708536019E-4
0.1340318274994098 0.0667779874287001 -9.913596708536019E-4
0.6821149351275437 -0.04179572372318869 -9.913596708536019E-4
0.6732521796701126 0.06754133437525736 -9.913596708536019E-4
0.1177933560908274 -0.09140336165270403 -4.956798354267834E-4
-0.45633277009063133 -0.13057198224813077 -4.956798354267834E-4
0.18955788266392123 -0.13057198224813077 -4.956798354267834E-4
0.8354485354184737 -0.13057198224813077 -4.956798354267834E-4
0.3484629243050486 -0.10247684917613906 -4.956798354267834E-4
-0.4191369552402034 0.07327139327279134 2.974079012560982E-4
0.1055996321393278 0.10445956851784632 2.974079012560982E-4
0.7747376691753979 -0.06082982940357827 2.974079012560982E-4
-0.2714541050731391 0.10503455712694136 9.913596708536372E-4
-0.369915947582321 0.26801408701527696 9.913596708536372E-4
0.28176424565001673 0.0695934488939243 9.913596708536372E-4
0.26883691554208544 -0.06568749179076111 9.913596708536372E-4
0.6757900604274979 0.06487457686066106 9.913596708536372E-4
0.7583703210096046 0.28966538222672006 9.913596708536372E-4
0.6710711883942343 -0.048418006324490954 0.0022801272429633372
0.27870094426707903 0.25312386475905546 0.0022801272429633372
-0.39056596952620193 -0.026112413730284435 0.0022801272429633372
-0.3986158100535334 0.11166675332495206 0.0029740790125608765
0.14238898952470588 -0.07568039727296559 0.0029740790125608765
0.1235828965686126 0.20397225227813284 0.0029740790125608765
0.8327916915005861 0.21333068757099122 0.0029740790125608765
0.8334757296734749 0.0678486558732219 0.0029740790125608765
0.704767503606549 -0.08699181111740549 0.0029740790125608765
0.9151340257616881 -0.11751577538298848 0.004262846584670612
0.18564201196404945 -0.08888530808873579 0.004262846584670612
0.668087195784965 0.050063663378107935 0.004262846584670612
-0.25942891226568476 0.10360699920091208 0.0049567983542681505
-0.3986653780370761 0.24736406507139602 0.0049567983542681505
0.2776104486291399 0.09767866836920742 0.0049567983542681505
0.16717298129604646 0.2421891675895402 0.0049567983542681505
0.6801718701726707 0.09488303409740025 0.0049567983542681505
0.7094863756398122 -0.10839526641113513 0.0049567983542681505
0.15879599207733322 0.2663089483814088 0.005452478189694934
-0.38065237281766573 0.2742001713614035 0.006245565926377851
0.6931685954575617 0.27262390948474635 0.006245565926377851
0.17381509109076562 -0.10848448878151196 0.00693951769597539
0.8068676361077637 -0.07963592235967155 0.00693951769597539
0.7139177533685279 0.25622682052882745 0.00693951769597539
0.21844610347259583 0.28433186719752773 0.00693951769597539
0.1357072253431524 -0.044621098785121625 0.00693951769597539
-0.30287029304249047 0.273783800299645 0.00693951769597539
-0.36919225502259784 0.2872563782265458 0.007435197531402209
-0.2991626078734979 0.290607173914031 0.00822828526808509
0.7277967887604787 0.2849266830000399 0.00822828526808509
0.7087329422899635 -0.11269776738263983 0.008922237037682629
0.826268544866369 0.09574551701104293 0.008922237037682629
0.6809550443126451 0.21239880948038886 0.008922237037682629
0.274983345501378 0.0952597507723246 0.008922237037682629
-0.3655936194173992 0.2622245465374918 0.008922237037682629
-0.3986752916337846 0.11219217395050446 0.008922237037682629
-0.3766770205375427 0.09153223840991506 0.010211004609792329
0.262284028117743 0.013056206865142148 0.010211004609792329
0.6642010658752189 0.07150677305867177 0.010211004609792329
0.2140543801307143 -0.08925211116695168 0.010904956379389869
0.8188036065448414 0.11236070509454968 0.010904956379389869
0.7228895583897532 0.2745273200527854 0.010904956379389869
0.29048821075352854 0.06847321246585972 0.010904956379389869
-0.32609785013059084 0.28065392281866075 0.010904956379389869
-0.39988475043222604 0.11179563008216309 0.010904956379389869
-0.3864220861020338 0.12169931319399073 0.012193723951499568
0.13077025418230132 -0.05222482746056887 0.012193723951499568
0.7210951973855084 -0.08888530808873579 0.012193723951499568
0.6929405827332654 -0.10277425707739515 0.012887675721097107
0.7753622257680356 0.2701256831141951 0.012887675721097107
0.1571106806368822 0.2452326417790607 0.012887675721097107
0.28178407284343376 -0.07687994247469843 0.012887675721097107
-0.2721579704394452 0.2444098132522522 0.012887675721097107
-0.37516024024113664 -0.06412114351081238 0.012887675721097107
-0.26668566505633323 -0.09849158329930748 0.014176443293206843
0.6659755996860469 0.09140336165270403 0.014176443293206843
-0.2752113582256744 0.11125038226319353 0.014870395062804381
0.16220626934506976 0.2490791173019728 0.014870395062804381
0.2803565149174045 -0.04368922069451914 0.014870395062804381
0.738334942061653 0.2871770694528774 0.014870395062804381
0.688608340971635 -0.06284228953541116 0.014870395062804381
-0.4637084860417823 -0.09140336165270403 0.01615916263491408
0.17743355388938142 -0.06528103432571102 0.01615916263491408
-0.3861246782007777 -0.07799026530605457 0.01685311440451162
-0.38273422812645835 0.24267493382825853 0.01685311440451162
0.14850567869387263 -0.06922664581570855 0.01685311440451162
0.7074144339277284 0.244925320281096 0.01685311440451162
0.8092667265112297 -0.08041909649964585 0.01685311440451162
0.20146411231087316 -0.10388457990875116 0.01685311440451162
0.30146256230987817 -0.039168620595426584 0.01814188197662132
-0.39962699691780407 -0.041696587756103416 0.01883583374621886
-0.28978434538722264 0.2541053108332007 0.01883583374621886
0.13173187306302941 0.11242018667480089 0.01883583374621886
0.7455817812555928 0.2803763421108218 0.01883583374621886
0.8216884631870254 -0.07993333026092765 0.01883583374621886
0.21828748592525918 -0.1039341478922938 0.01883583374621886
0.3145187691750205 0.039168620595426584 0.0208185530879261
0.9151340257616881 -0.10445956851784632 0.0208185530879261
0.817871728454239 -0.07239899676244006 0.0208185530879261
0.7357474933207248 0.2733079476576352 0.0208185530879261
0.13277280071742562 -0.03403337750040495 0.0208185530879261
-0.3536675625770301 0.27254460071107794 0.0208185530879261
-0.3905461423327849 -0.08029021974243497 0.0208185530879261
0.6894708238852778 0.05912469076971007 0.022801272429633337
0.25547338717897866 -0.06437889702523428 0.022801272429633337
0.1703056778559438 0.2625120408420393 0.022801272429633337
-0.39988475043222604 0.10467766764543404 0.022801272429633337
-0.2787604258473304 0.1221751658360005 0.023425829022271145
0.8498529914359769 0.13057198224813063 0.023425829022271145
-0.3286258172912676 0.27346656520497203 0.02478399177134061
-0.2503084032938314 0.06457716895940496 0.02478399177134061
0.2140543801307143 -0.08925211116695168 0.02478399177134061
0.7594608166475436 0.27275278624195737 0.02478399177134061
0.8192001504131827 0.09519035559536493 0.02478399177134061
-0.3640669255242846 -0.09140336165270403 0.026072759343450314
-0.317929046442757 -0.13057198224813077 0.026072759343450314
0.32796160631179555 -0.13057198224813077 0.026072759343450314
0.8508245239134133 -0.09742091485478553 0.026072759343450314
0.6047690536075442 -0.10194151495387807 0.026072759343450314
0.28182372723026794 -0.12359281016532118 0.026072759343450314
0.7277967887604787 -0.12498071370451626 0.026072759343450314
0.1055996321393278 0.13057198224813063 0.026072759343450314
-0.18465065229319588 -0.09140336165270403 0.026072759343450314
0.010141609432832526 -0.12498071370451626 0.026072759343450314
0.8364795494761614 0.06917707783216577 0.02676671111304785
0.19993741841775864 0.29040890197986047 0.02676671111304785
0.13241591123591842 0.06785856946993049 0.02676671111304785
-0.39001080811052397 -0.06810640938764395 0.02676671111304785
0.8163053801742902 -0.08641682250831031 0.027361526915560014
0.2869490567285811 -0.13057198224813077 0.027361526915560014
0.04089358642271195 -0.13057198224813077 0.027361526915560014
-0.2946618349678225 -0.08825083789938953 0.027361526915560014
0.8262388040762436 -0.06233669610327579 0.02874943045475509
0.2666856650563331 -0.07691959686153262 0.02874943045475509
-0.2683412357066588 0.11618735342404461 0.02874943045475509
0.15879599207733322 -0.10247684917613906 0.02924511029018191
-0.4950156244473397 -0.09140336165270403 0.02924511029018191
0.14854533308070683 -0.12306738953976878 0.02924511029018191
0.7944359858352593 -0.12306738953976878 0.02924511029018191
0.389475473888263 -0.09140336165270403 0.02924511029018191
0.12444537948225529 0.11751577538298848 0.030523964265583063
0.8498529914359769 0.07833724119085331 0.030523964265583063
-0.2742695665383635 -0.03325020336043051 0.03073214979646233
0.26052932150033203 -0.06842364448231708 0.03073214979646233
0.8124688182480867 -0.07232960158548041 0.03073214979646233
0.7011688680013504 -0.10644228785955347 0.03271486913816957
0.8229474899690096 0.10563928652616214 0.03271486913816957
0.287058106292375 -0.045027556250171574 0.03271486913816957
-0.41191985683638904 0.11352059590944831 0.03271486913816957
0.16208730618456732 0.12057907676592615 0.03368640161560615
0.8629091983011192 0.11751577538298848 0.03368640161560615
0.1476035413933959 0.10627375671550839 0.03469758847987684
0.6806080684278464 0.07178435376651085 0.03469758847987684
0.21801981881412869 -0.11269776738263983 0.03469758847987684
0.8412083351061332 0.09140336165270403 0.03668030782158408
0.12288894479901499 0.07833724119085331 0.03668030782158408
-0.39988475043222604 0.10582764486362424 0.03668030782158408
0.272118316052611 -0.06974215284455235 0.03668030782158408
0.8153536748902707 -0.06974215284455235 0.03668030782158408
0.682432170222217 -0.04392714701552401 0.03668030782158408
-0.2664675659287454 0.11014005943183752 0.03866302716329132
0.2872563782265458 0.06912750984862313 0.03866302716329132
-0.28039616930423883 -0.08379963297725679 0.03866302716329132
-0.4950156244473397 -0.10445956851784632 0.04001127631565224
0.262284028117743 0.0015762618766573205 0.04001127631565224
0.7147604090887536 -0.09849158329930748 0.04001127631565224
0.14522427818334713 0.11711923151464697 0.04064574650499856
0.6887966993090973 0.09841227452563923 0.04064574650499856
0.6978279859105737 -0.07387612267201198 0.04064574650499856
-0.395631817444264 0.1068983133081462 0.0426284658467058
0.27645055781424127 -0.04575124880989465 0.0426284658467058
0.8185061986435853 -0.0712985875277925 0.0426284658467058
0.2140543801307143 -0.08925211116695168 0.0426284658467058
0.17564910648184484 -0.09140336165270403 0.04317371366567529
0.8498529914359769 -0.06528103432571102 0.04317371366567529
-0.2562664749156617 0.0708128212890743 0.044611185188413074
0.28745465016071653 0.06819563175802078 0.044611185188413074
-0.2776798438060999 -0.07573987885321681 0.044611185188413074
0.6939517695975361 -0.03197134938502929 0.044611185188413074
0.15783437319660526 0.09241454851697477 0.04632623741898983
0.8373816867766383 0.12004374254366516 0.04632623741898983
0.14548203169776916 0.10691814050156322 0.046593904530120314
0.6908488138277642 0.10720563480611073 0.046593904530120314
-0.26606110846369546 -0.04181555091660586 0.046593904530120314
-0.40580316766722213 -0.04070522808524971 0.048576623871827554
0.1356378301661926 -0.04496807466992036 0.048576623871827554
0.8176338021332342 0.11143874060065577 0.048576623871827554
-0.27628202667019636 -0.10486602598289628 0.048576623871827554
-0.39056596952620193 -0.013056206865142148 0.04948867476901288
0.8498529914359769 0.13057198224813063 0.04948867476901288
-0.40616005714872944 0.06947448573342187 0.050559343213534794
0.275558334110473 -0.06764047034234263 0.050559343213534794
