0.45626944031734235 0.23602878792480322 -0.09621294911071766
0.4475181561163143 0.1699796219023073 -0.09621294911071766
0.5863821008594109 0.21421710765300117 -0.09621294911071766
0.45956524559539036 0.44638714219325754 -0.09621294911071766
0.4352356519745205 0.521801717623871 -0.09621294911071766
0.5360954818188834 0.5019757088549924 -0.09621294911071766
0.41472387005772504 0.4277279713178492 -0.09621294911071766
0.49544039310954624 0.4338794588088642 -0.09621294911071766
0.5202510514759697 0.5563462605226659 -0.09621294911071766
0.5817761618062381 0.16789159619820243 -0.09570117810480959
0.5539153482446025 0.5606246661320574 -0.09488234449535667
0.3971291828746054 0.16603898515681526 -0.09488234449535667
0.6482859217340513 0.2875948344801006 -0.09488234449535667
0.3981629603065397 0.2889561453558162 -0.09488234449535667
0.45069113635294433 0.5382295669135203 -0.09416586508708537
0.5565049095344974 0.4227944988208953 -0.09416586508708537
0.4228200873711907 0.40206777308161845 -0.09416586508708537
0.5474772689902792 0.47554785410989947 -0.09416586508708537
0.47920701680214217 0.4684444725478955 -0.09416586508708537
0.47302482305077265 0.3122724323849879 -0.09416586508708537
0.5429122716175792 0.28671458834993874 -0.09416586508708537
0.5760443265400678 0.2596316667172835 -0.09416586508708537
0.5959010415693009 0.26257946771131413 -0.09416586508708537
0.5953995059835111 0.21406357635122872 -0.09416586508708537
0.35312711178662937 0.31097253402998143 -0.09416586508708537
0.6455940062429748 0.34115678795843957 -0.09416586508708537
0.486422987985446 0.25414548153394895 -0.09416586508708537
0.40925815571462676 0.23929388694249676 -0.09416586508708537
0.5966994043385175 0.24050166651643975 -0.09416586508708537
0.5870678740073276 0.16789159619820243 -0.0936540940811773
0.3806603919044837 0.28010250695360644 -0.09283526047172438
0.6490126365624408 0.3027023145745069 -0.09283526047172438
0.39561434069711754 0.1646469680207452 -0.09283526047172438
0.5014383492987888 0.4375130329508115 -0.09283526047172438
0.476218274127639 0.24723657295419002 -0.09211878106345307
0.3396572989111289 0.31527141047960927 -0.09211878106345307
0.4940279051332399 0.2514126243623999 -0.09211878106345307
0.6420934925625634 0.31454469565121984 -0.09211878106345307
0.486422987985446 0.24795305236246137 -0.09211878106345307
0.41263584435362 0.2429274610844441 -0.09211878106345307
0.3870165877978619 0.20302979346385064 -0.09211878106345307
0.40843932210517386 0.22014341590141673 -0.09211878106345307
0.5272316079965557 0.317666498787259 -0.09211878106345307
0.5281220895468357 0.5214434779197353 -0.09211878106345307
0.5373851447537719 0.5146062172808037 -0.09211878106345307
0.5131169636536111 0.37920184453764566 -0.09211878106345307
0.5466993770612988 0.5193759230558668 -0.09211878106345307
0.46111079403323274 0.46835235376683204 -0.09211878106345307
0.45333187474342995 0.10049135472010916 -0.091607010057545
0.39214453327706084 0.4375130329508115 -0.09078817644809208
0.4169449562233661 0.11397140301572788 -0.09078817644809208
0.5734957069306456 0.27391007778211884 -0.09078817644809208
0.6337413897461437 0.3569602766208808 -0.09007169703982079
0.5233626191918906 0.24007177887147696 -0.09007169703982079
0.3377330399289145 0.306376830396927 -0.09007169703982079
0.5169859524582762 0.252876289439297 -0.09007169703982079
0.6088897896992479 0.2273389162444841 -0.09007169703982079
0.43872593023481365 0.22287627307296579 -0.09007169703982079
0.5897290832380496 0.22864905001960878 -0.09007169703982079
0.493843667571113 0.11159678554831443 -0.09007169703982079
0.528070912446245 0.5121497164524449 -0.09007169703982079
0.4403840682939557 0.4794066074944464 -0.09007169703982079
0.49119269376050917 0.42705243359005046 -0.09007169703982079
0.5589921166232108 0.4590688277196595 -0.09007169703982079
0.5310596551207482 0.4735826534472125 -0.09007169703982079
0.5575796286469045 0.3174924966452503 -0.09007169703982079
0.45476483355997255 0.3296624111657442 -0.08955992603391272
0.36478525530121525 0.3431424594613629 -0.0887410924244598
0.655880603461727 0.3431424594613629 -0.0887410924244598
0.4325949135840349 0.3431424594613629 -0.0887410924244598
0.6150822188707356 0.2640636036284475 -0.0880246130161885
0.5421855567891896 0.12473906498003365 -0.0880246130161885
0.5928304155338525 0.24341876125011588 -0.0880246130161885
0.5679788154869565 0.15849548052973017 -0.0880246130161885
0.4943144968965485 0.23018436303733306 -0.0880246130161885
0.5952459746817387 0.2192938760316092 -0.0880246130161885
0.5283370333693171 0.1499591401511836 -0.0880246130161885
0.46383341578466375 0.20763573251702333 -0.0880246130161885
0.5283472687894354 0.31343927027845836 -0.0880246130161885
0.4348057643295577 0.4469091486192838 -0.0880246130161885
0.48548132933457516 0.4842991383109275 -0.0880246130161885
0.43090606926453817 0.45522030975523087 -0.0880246130161885
0.45590096519308854 0.5663462659781097 -0.0880246130161885
0.5325847327183543 0.4620370995539264 -0.0880246130161885
0.44286103996255083 0.3523133958872356 -0.0880246130161885
0.42560412164333067 0.3644935458278477 -0.0880246130161885
0.35464195396411724 0.3431424594613629 -0.08751284201028042
0.3786644849814421 0.31618236287012563 -0.08669400840082751
0.39125405172678074 0.2603993232261457 -0.08669400840082751
0.6380505016158899 0.2606347378888633 -0.08669400840082751
0.6387976872845155 0.35073714118903876 -0.0859775289925562
0.6050003300543464 0.24275345894243527 -0.0859775289925562
0.38572692486297366 0.18439109342867865 -0.0859775289925562
0.34306569381047664 0.3418732673667109 -0.0859775289925562
0.5479992754163053 0.1583010075474852 -0.0859775289925562
0.4491558233352201 0.20554770681291845 -0.0859775289925562
0.5858396235931481 0.21219049446960525 -0.0859775289925562
0.5042326189910469 0.1117912585305594 -0.0859775289925562
0.42850074553677026 0.4065201808330186 -0.0859775289925562
0.4083164970637559 0.41450380852518454 -0.0859775289925562
0.5579481037711582 0.3178405009292677 -0.0859775289925562
0.4696983115123702 0.31164807175778014 -0.0859775289925562
0.500496690647918 0.47915072199149233 -0.0859775289925562
0.49769218553554173 0.512794547919889 -0.0859775289925562
0.4446727093234655 0.49952944344675176 -0.0859775289925562
0.5808856802559581 0.4914332261332861 -0.0846469243771952
0.4325949135840349 0.09840332901600429 -0.0846469243771952
0.49180681896759887 0.2523235767529163 -0.0846469243771952
0.5943657285515768 0.3431424594613629 -0.0846469243771952
0.6389409831661699 0.3418323256862382 -0.0839304449689239
0.6246523366812166 0.28790189708364544 -0.0839304449689239
0.5846625502795596 0.1785466685412085 -0.0839304449689239
0.3596880160823708 0.22846481245748188 -0.0839304449689239
0.4436901089921219 0.13702156912182742 -0.0839304449689239
0.3988384980343384 0.22210861656410366 -0.0839304449689239
0.5188385634996634 0.2103992959489269 -0.0839304449689239
0.5030350748372221 0.3226818546451582 -0.0839304449689239
0.4281117995722801 0.45574231618125716 -0.0839304449689239
0.4544884772167822 0.43586513031178753 -0.0839304449689239
0.47502072997381406 0.3610339738279092 -0.0839304449689239
0.5092991519495369 0.5202152275055563 -0.0839304449689239
0.3505784921772071 0.22182202480079508 -0.08259984035356292
0.4759316823643304 0.24861835467014187 -0.08259984035356292
0.540435299948984 0.4089971525016137 -0.08259984035356292
0.5714588583271315 0.42403298465519285 -0.08259984035356292
0.41339326544236393 0.1412180913702736 -0.08188336094529163
0.4392172304004854 0.22277391887178413 -0.08188336094529163
0.5222264875587748 0.22087013072980616 -0.08188336094529163
0.6053892760188366 0.22318333567651064 -0.08188336094529163
0.530291998611886 0.13486189547689537 -0.08188336094529163
0.3965150576675157 0.20375650829224023 -0.08188336094529163
0.547282796008034 0.19817820432784222 -0.08188336094529163
0.4963104038195899 0.32134101460967907 -0.08188336094529163
0.49746700629294216 0.38820901424162774 -0.08188336094529163
0.47347518153597173 0.44669420479680244 -0.08188336094529163
0.5042019127306924 0.5716686844395538 -0.08188336094529163
0.4524516286132681 0.24718539585359925 -0.08055275632993064
0.4563615590984058 0.4709009733762542 -0.08055275632993064
0.3247442917989676 0.2622621696876511 -0.08055275632993064
0.48937078897947645 0.25465725253985716 -0.08055275632993064
0.545573480848301 0.5631630503213617 -0.08055275632993064
0.48162257595002833 0.20679642806733417 -0.07983627692165933
0.3361260789703632 0.30635635955669055 -0.07983627692165933
0.41753861059021935 0.2160594832742703 -0.07983627692165933
0.6222572483735667 0.322037023177714 -0.07983627692165933
0.5276717310616367 0.18732865900259105 -0.07983627692165933
0.45964712895633564 0.441095429992168 -0.07983627692165933
0.4273134368030635 0.36913019114137485 -0.07983627692165933
0.40679141946614983 0.4168374843121254 -0.07983627692165933
0.5402408269667389 0.2744934967288539 -0.07983627692165933
0.4639869470864362 0.5221394864877704 -0.07983627692165933
0.4730350584708909 0.33471870870411596 -0.07850567230629836
0.4904045664114108 0.235445368978068 -0.07850567230629836
0.3347647680946478 0.27632563693000484 -0.07850567230629836
0.44247209399806076 0.5541661160374975 -0.07850567230629836
0.5808856802559581 0.4779531778376674 -0.07850567230629836
0.5620115655580684 0.14612085760687307 -0.07778919289802705
0.4448262406252379 0.2083522119252947 -0.07778919289802705
0.42129500977358464 0.20883327667084828 -0.07778919289802705
0.3255221837279479 0.3336439895917091 -0.07778919289802705
0.5666584462917137 0.19954975062367586 -0.07778919289802705
0.42997464603378555 0.44388969968442615 -0.07778919289802705
0.4212745389333484 0.4187617432943398 -0.07778919289802705
0.5216225977718033 0.4644424232816943 -0.07778919289802705
0.4216430140576022 0.3143502226689747 -0.07778919289802705
0.5104148127424164 0.5673493371496896 -0.07778919289802705
0.4388794615365861 0.2353020730964138 -0.07645858828266604
0.36518443668582357 0.19790184798465185 -0.07645858828266604
0.5315509552864199 0.4858037450682973 -0.07645858828266604
0.6430044449530798 0.3338486979940723 -0.07574210887439473
0.6135776121133658 0.25054261365235625 -0.07574210887439473
0.6100463921726001 0.21427852017371013 -0.07574210887439473
0.6211722938410417 0.2389151763981247 -0.07574210887439473
0.4704250263407596 0.17774830577199185 -0.07574210887439473
0.4299234689331948 0.4440227601459622 -0.07574210887439473
0.4727177604472278 0.4375130329508115 -0.07574210887439473
0.44868499400978473 0.422395317436287 -0.07574210887439473
0.5679685800668383 0.3184546261363574 -0.07574210887439473
0.5127177822690028 0.5656400219899567 -0.07574210887439473
0.6078457768471953 0.16789159619820243 -0.07441150425903376
0.526361597286512 0.4406041298264962 -0.07441150425903376
0.539810939321776 0.11973394454225281 -0.07369502485076244
0.4116737148625129 0.19471863232790357 -0.07369502485076244
0.367057518567447 0.25209839751031676 -0.07369502485076244
0.4286133351580701 0.15831124296760324 -0.07369502485076244
0.5380811533218068 0.1679939503993841 -0.07369502485076244
0.5521957976647516 0.4260595978385889 -0.07369502485076244
0.4147545763180795 0.4280043276610395 -0.07369502485076244
0.4124516067914931 0.2876664824209278 -0.07369502485076244
0.5683677614514466 0.29058357715460376 -0.07369502485076244
0.495491570210137 0.565660492830193 -0.07369502485076244
0.35650480042562266 0.22064495148720656 -0.07236442023540147
0.5213052997481402 0.3701127914727184 -0.07236442023540147
0.5797597840429604 0.188659263617952 -0.07164794082713016
0.4302407669568577 0.1874310132037726 -0.07164794082713016
0.4489920566133296 0.1900819870143764 -0.07164794082713016
0.630066873923724 0.3217401959942872 -0.07164794082713016
0.49893067136983926 0.15146374690855327 -0.07164794082713016
0.4793196064234419 0.45522030975523087 -0.07164794082713016
0.42482622971435036 0.3744219033424643 -0.07164794082713016
0.4336696326964419 0.28178111585298493 -0.07164794082713016
0.5231169691090548 0.32440140522500927 -0.07164794082713016
0.4979890127189684 0.5656195511497203 -0.07164794082713016
0.5757986764572318 0.14093149960696516 -0.07031733621176918
0.4025437201171129 0.41055293635957424 -0.07031733621176918
0.34477500897020963 0.2944320951190325 -0.06960085680349788
0.6270678958291026 0.2896726247640874 -0.06960085680349788
0.6010187516283817 0.2064893654637893 -0.06960085680349788
0.3753686797033942 0.20020481751123811 -0.06960085680349788
0.4237003335013526 0.17028668450585216 -0.06960085680349788
0.5364230152626648 0.16157634198529677 -0.06960085680349788
0.5528201582919593 0.4315150767615689 -0.06960085680349788
0.5661159690254511 0.4162540653653902 -0.06960085680349788
0.5583472851557666 0.3162335399707164 -0.06960085680349788
0.5466686708009443 0.30476986943837564 -0.06960085680349788
0.4349285893709756 0.5486492245938087 -0.0682702521881369
0.32414040201199606 0.2994576863970498 -0.0682702521881369
0.6617659700296701 0.3010851181958374 -0.0682702521881369
0.34130520155015287 0.30951910437320257 -0.0675537727798656
0.6268324811663849 0.2876562470008096 -0.0675537727798656
0.6269655416279211 0.26936555124965517 -0.0675537727798656
0.6263411810007131 0.25786093903684154 -0.0675537727798656
0.4822059948967634 0.14533273025777452 -0.0675537727798656
0.41611588719379494 0.31358256616011254 -0.0675537727798656
0.4612950315953596 0.32001040999431796 -0.0675537727798656
0.5513564932150622 0.4508497853647759 -0.0675537727798656
0.41547105572635074 0.41504628579144703 -0.0675537727798656
0.47019984709816015 0.5247597540380198 -0.0675537727798656
0.5188487989197815 0.3935621389634263 -0.06622316816450458
0.36518443668582357 0.19163777087233697 -0.06622316816450458
0.5008344595118174 0.4375949163117568 -0.06622316816450458
0.5645090080668999 0.1685773693461192 -0.06550668875623328
0.390128155513783 0.19561934929830185 -0.06550668875623328
0.35171462381032303 0.29861838194736046 -0.06550668875623328
0.5281527958071902 0.11203690861339528 -0.06550668875623328
0.5218477770144028 0.14900724608019456 -0.06550668875623328
0.4257781237853394 0.3116378363376619 -0.06550668875623328
0.4925949463166973 0.36869006807629384 -0.06550668875623328
0.5399644706235486 0.4513717917908021 -0.06550668875623328
0.48023055881395826 0.5280350884758314 -0.06550668875623328
0.573659473652536 0.2083419765051765 -0.0641760841408723
0.42943216876752305 0.33224173703552096 -0.0641760841408723
0.6482859217340513 0.27574221798326964 -0.0641760841408723
0.3460953781654525 0.3202765309173901 -0.063459604732601
0.3950616280107368 0.18187318007961098 -0.063459604732601
0.37016908628336814 0.20196530977156188 -0.063459604732601
0.3670882248278015 0.2046060481620476 -0.063459604732601
0.5425540319134434 0.14786087902696038 -0.063459604732601
0.5254097032155229 0.3152304687991366 -0.063459604732601
0.5500156531795831 0.3290278151184182 -0.063459604732601
0.5515816724576619 0.4472878591636557 -0.063459604732601
0.4731578835123087 0.34193467988741993 -0.063459604732601
0.523065792008464 0.5385263940969469 -0.063459604732601
0.49180681896759887 0.3431424594613629 -0.06294783372669291
0.6078457768471953 0.3061721219945638 -0.06212900011724001
0.3247442917989676 0.2606347378888633 -0.06212900011724001
0.4460749618796536 0.570031017220648 -0.06212900011724001
0.39232877083918777 0.17749242026903791 -0.06141252070896871
0.5155120519612608 0.09522011335925601 -0.06141252070896871
0.57441689474128 0.153224239168877 -0.06141252070896871
0.45479553982032705 0.13516895808044024 -0.06141252070896871
0.5333421538070982 0.45584467038243864 -0.06141252070896871
0.5409368355347739 0.46418653777874025 -0.06141252070896871
0.41558364534765047 0.3135723307399945 -0.06141252070896871
0.5691661242206633 0.28340854765177265 -0.06141252070896871
0.5166481835943768 0.5685264104632783 -0.06141252070896871
0.5182653799730463 0.38116704520033273 -0.06090074970306063
0.588306359841625 0.1637974281509378 -0.060081916093607725
0.4319705529568271 0.26538397282369025 -0.060081916093607725
0.35689374639011273 0.2507370866346012 -0.05936543668533642
0.6272623688113477 0.28593669642095854 -0.05936543668533642
0.6210085271191509 0.30550681968688315 -0.05936543668533642
0.46314764263674685 0.10040947135916392 -0.05936543668533642
0.6325847872727914 0.3377688638993281 -0.05936543668533642
0.5484905755819771 0.45987742590899433 -0.05936543668533642
0.4433113984477499 0.43333698154260164 -0.05936543668533642
0.5653585479367071 0.2766326995335497 -0.05936543668533642
0.33596231224847256 0.32901757969830014 -0.05936543668533642
0.5288590397953434 0.5707884383093917 -0.05885366567942834
0.31126424350334897 0.3296624111657442 -0.058034832069975444
0.6078457768471953 0.306448478337754 -0.058034832069975444
0.5673953965402213 0.2083419765051765 -0.058034832069975444
0.4011209967206884 0.1631935383639663 -0.05731835266170414
0.4913359896421635 0.09077794102797396 -0.05731835266170414
0.48202175733463665 0.08676565634165471 -0.05731835266170414
0.502717776813559 0.11252820877906705 -0.05731835266170414
0.4224618476670551 0.27611069310752345 -0.05731835266170414
0.48805041978423375 0.30848532694126823 -0.05731835266170414
0.5009675199733535 0.4214229525250617 -0.05731835266170414
0.45297363503929433 0.361596921934408 -0.05731835266170414
0.518623619677182 0.5381067418721024 -0.05731835266170414
0.5539153482446025 0.5688539439070592 -0.05598774804634312
0.6455837708228567 0.2770523517583943 -0.05598774804634312
0.44110054770222706 0.15647910276645247 -0.05598774804634312
0.6069143536164427 0.22942694194858912 -0.055271268638071816
0.3462284386269885 0.28282512870503745 -0.055271268638071816
0.3855222164606103 0.1717708204229857 -0.055271268638071816
0.5610596714870794 0.1557728587782993 -0.055271268638071816
0.40898179937143636 0.3145344602311016 -0.055271268638071816
0.5538129940434211 0.30537375922534715 -0.055271268638071816
0.423413741738044 0.41944751644225653 -0.055271268638071816
0.5159112333458692 0.3927842470344459 -0.055271268638071816
0.5342531061976145 0.5525284488185918 -0.055271268638071816
0.34633079282817014 0.2282703394752369 -0.05394066402271084
0.5722265148359934 0.41055293635957424 -0.05394066402271084
0.5382653908839338 0.5656297865698384 -0.053224184614439535
0.5349184085052949 0.45588561206291134 -0.053224184614439535
0.43963688262533 0.42344956570845776 -0.053224184614439535
0.4350514144123936 0.37842395260866546 -0.053224184614439535
0.5262490076652123 0.3164484837931978 -0.053224184614439535
0.6347956380183144 0.32657131429005953 -0.053224184614439535
0.6153278689535715 0.24837270458730598 -0.053224184614439535
0.6185008491902015 0.24050166651643975 -0.053224184614439535
0.6198928663262715 0.30623353451527263 -0.053224184614439535
0.5676205757828209 0.16101339387879798 -0.053224184614439535
0.575368788812269 0.3348415337455339 -0.05189357999907855
0.3786644849814421 0.15441154790258374 -0.05189357999907855
0.6344271628940606 0.3265815497101777 -0.05117710059080725
0.5893606081137958 0.19473910316814 -0.05117710059080725
0.5337310997715883 0.10414539970229279 -0.05117710059080725
0.5944680827527583 0.18770736954696296 -0.05117710059080725
0.443065748364914 0.31093159234950873 -0.05117710059080725
0.49712923742904297 0.3199797037339635 -0.05117710059080725
0.5005785740088633 0.4598569550687579 -0.05117710059080725
0.4278763849095625 0.3684239471532217 -0.05117710059080725
0.4582039347196748 0.5448723545702071 -0.05117710059080725
0.3579787009226378 0.2060185361383538 -0.04984649597544627
0.45476483355997255 0.14299905447083375 -0.04984649597544627
0.4730350584708909 0.5976564161195655 -0.04984649597544627
0.33531748078102835 0.2995600405982315 -0.049130016567174965
0.6146318603855364 0.2574208159717607 -0.049130016567174965
0.5198416346712431 0.1316991506603835 -0.049130016567174965
0.5591661187652195 0.3124464345269968 -0.049130016567174965
0.5298825818071595 0.32154572301204226 -0.049130016567174965
0.5492991737713119 0.4510033166665483 -0.049130016567174965
0.5056758132277077 0.40871056073830514 -0.049130016567174965
0.5194117470262803 0.5556604873747493 -0.049130016567174965
0.511080115050097 0.5529992781440272 -0.049130016567174965
0.32774326989358893 0.2789561399003724 -0.04779941195181399
0.3786644849814421 0.41055293635957424 -0.04779941195181399
0.592359586208417 0.19834197104973272 -0.047082932543542684
0.35253345741977593 0.29814755262192516 -0.047082932543542684
0.35010766285177175 0.2329479264692366 -0.047082932543542684
0.4107525270518783 0.27944744006604416 -0.047082932543542684
0.5696369535460986 0.2907371084563762 -0.047082932543542684
0.45728274690904036 0.45606984962503827 -0.047082932543542684
0.501509997239616 0.41388968331809484 -0.047082932543542684
0.5144578036890902 0.5619143290669458 -0.047082932543542684
0.6505786558405194 0.3296624111657442 -0.0465711615376346
0.6482859217340513 0.24878212139203235 -0.045752327928181666
0.4233011521167443 0.36197563247878 -0.045752327928181666
0.5777434062796825 0.1770113555234842 -0.04503584851991036
0.37118239287506616 0.21566030188966198 -0.04503584851991036
0.372635822531845 0.18410450166537023 -0.04503584851991036
0.4338231639982143 0.27936555670509877 -0.04503584851991036
0.5499542406588741 0.3259367182427335 -0.04503584851991036
0.49273824219835166 0.2914126461841749 -0.04503584851991036
0.42756932230601763 0.4548006575303862 -0.04503584851991036
0.5408037750732378 0.4476768051281458 -0.04503584851991036
0.4329736241284069 0.5677996956348889 -0.04503584851991036
0.5808856802559581 0.4375130329508115 -0.043705243904549385
0.5673953965402213 0.2083419765051765 -0.043705243904549385
0.34093672642589906 0.2491403610961681 -0.043705243904549385
0.6390023956868788 0.2970011855686911 -0.04298876449627808
0.6365254240182838 0.30636659497680874 -0.04298876449627808
0.3928098355847413 0.19385885703797798 -0.04298876449627808
0.45068090093282615 0.564964484262158 -0.04298876449627808
0.43168396119351854 0.3705733853780355 -0.04298876449627808
0.42426328160785154 0.4602561364533662 -0.04298876449627808
0.46522543292073365 0.27940649838557147 -0.04298876449627808
0.4959214578550998 0.3239817530001647 -0.04298876449627808
0.4927280067782335 0.2948108056634044 -0.04298876449627808
0.40519469392771673 0.4509930812464301 -0.041658159880917096
0.5134752033577468 0.13931430322829563 -0.041658159880917096
0.6433729200773337 0.3181987406334035 -0.04094168047264579
0.6416226632371281 0.29415573877584217 -0.04094168047264579
0.3899132116913016 0.19870021075386848 -0.04094168047264579
0.5370883175703453 0.3061414157342093 -0.04094168047264579
0.49922749855326604 0.31748226122513207 -0.04094168047264579
0.4782141810506804 0.29494386612494056 -0.04094168047264579
0.48740558831678954 0.38269212279793885 -0.04094168047264579
0.5445704096767212 0.4640330064769678 -0.04094168047264579
0.4646727202343529 0.5569910919901102 -0.04094168047264579
0.6413565423140558 0.2622621696876511 -0.039611075857284815
0.48255399918078096 0.4375130329508115 -0.039611075857284815
0.34383335031933876 0.28919156001853386 -0.03889459644901351
0.6219808920303764 0.2786593127169458 -0.03889459644901351
0.35432465594045415 0.2918118275687832 -0.03889459644901351
0.5529532187534955 0.30716495774602537 -0.03889459644901351
0.5476717419725241 0.313797509982594 -0.03889459644901351
0.4814690446482559 0.4235723907498757 -0.03889459644901351
0.5507321325878545 0.4490483514239795 -0.03889459644901351
0.507661484730631 0.5479839222861282 -0.03889459644901351
0.4730350584708909 0.060051209833253315 -0.03756399183365253
0.3553993750528612 0.2083419765051765 -0.03756399183365253
0.34167367667440673 0.2884750806102625 -0.03684751242538122
0.628234733722573 0.2886286119120349 -0.03684751242538122
0.592861121794207 0.216233485416279 -0.03684751242538122
0.5306400028959035 0.1095497015246821 -0.03684751242538122
0.40568599409338835 0.31826015315411244 -0.03684751242538122
0.4402305369921833 0.3994270346911327 -0.03684751242538122
0.5548877131558281 0.42737996703383174 -0.03684751242538122
0.5059521695708981 0.5641558860728232 -0.03684751242538122
0.5808856802559581 0.46447312954204883 -0.03551690781002021
0.40563481699279763 0.2083419765051765 -0.03551690781002021
0.3315917878580177 0.29058357715460376 -0.034800428401748906
0.5937311325042507 0.20033787797277428 -0.034800428401748906
0.6424824385270538 0.282610184882556 -0.034800428401748906
0.6284701483852907 0.3027534916750978 -0.034800428401748906
0.5552459528599637 0.30885380206552193 -0.034800428401748906
0.47599309488503944 0.41722643027661555 -0.034800428401748906
0.4228917353120179 0.45095213956595753 -0.034800428401748906
0.5439358136293952 0.44340863493887245 -0.034800428401748906
0.5440484032506949 0.3296624111657442 -0.03346982378638792
0.5730146421850919 0.19485169278943973 -0.03346982378638792
0.32859280976339633 0.3020881893674173 -0.03275334437811662
0.6335264459236625 0.29686812510715493 -0.03275334437811662
0.6494527596275218 0.2944935076397415 -0.03275334437811662
0.3409162555856628 0.28902779329664324 -0.03275334437811662
0.40258466179758545 0.27324477547443826 -0.03275334437811662
0.46800946719287345 0.4204301167736001 -0.03275334437811662
0.42043523448365905 0.44950894532929675 -0.03275334437811662
0.4070677758093402 0.4255375914125626 -0.03275334437811662
0.4303635919982757 0.3647084896503291 -0.03142273976275564
0.5134752033577468 0.13931430322829563 -0.03142273976275564
0.6241200948350719 0.22230308954634878 -0.03142273976275564
0.47729299324004604 0.0996213440100655 -0.030706260354484337
0.492574475476461 0.08524057874404864 -0.030706260354484337
0.6387362747638068 0.3048926944797936 -0.030706260354484337
0.48520497299138476 0.2790687295216721 -0.030706260354484337
0.5178047860677291 0.3190482805032108 -0.030706260354484337
0.45796852005695715 0.39211894472676545 -0.030706260354484337
0.49340354450603213 0.46133085556577325 -0.030706260354484337
0.6151231605512082 0.2083419765051765 -0.030194489348576256
0.6001896825988106 0.16789159619820243 -0.029375655739123357
0.46534825796215157 0.4779531778376674 -0.029375655739123357
0.3658292681532677 0.22301956895462 -0.028659176330852052
0.3441506483430017 0.2506347324334197 -0.028659176330852052
0.3269346717042542 0.27988756313112506 -0.028659176330852052
0.4159725913121407 0.2818425283736939 -0.028659176330852052
0.521100591345777 0.3139510412843664 -0.028659176330852052
0.47346494611585355 0.4070217164188086 -0.028659176330852052
0.5526461561499506 0.437103616146085 -0.028659176330852052
0.5042121481508106 0.5497751208068062 -0.028659176330852052
0.5943657285515768 0.31618236287012563 -0.027328571715491072
0.40563481699279763 0.18571146262392155 -0.027328571715491072
0.3489101186979468 0.2502355510488114 -0.026612092307219767
0.624232684456372 0.24839317542754225 -0.026612092307219767
0.35044543171567105 0.22844434161724558 -0.026612092307219767
0.6260545892374046 0.2563563322794719 -0.026612092307219767
0.4460647264595354 0.31915063470439237 -0.026612092307219767
0.4812029237251836 0.3871650013895754 -0.026612092307219767
0.5142223890263724 0.4564280893291739 -0.026612092307219767
0.48833701154754217 0.5932040083681656 -0.026612092307219767
0.5269552516533653 0.1527943515239142 -0.025281487691858753
0.5237106234759082 0.32958052780479896 -0.025281487691858753
0.34008718655609166 0.26918131368752823 -0.024565008283587448
0.47965737528734126 0.10183219475558832 -0.024565008283587448
0.4996062090976379 0.08165818170269219 -0.024565008283587448
0.6295243966574614 0.2660185688710164 -0.024565008283587448
0.4029531369218393 0.28532257121386884 -0.024565008283587448
0.4655324955242785 0.39644852743674774 -0.024565008283587448
0.5139767389435367 0.4519756815777736 -0.024565008283587448
0.5008139886715811 0.32414551972205513 -0.024053237277679402
0.6078457768471953 0.181371644493821 -0.023234403668226468
0.5943657285515768 0.3431424594613629 -0.023234403668226468
0.479002308399779 0.09726719738288833 -0.022517924259955163
0.6278355523379646 0.29100322937944834 -0.022517924259955163
0.3718169889223921 0.23148426139233952 -0.022517924259955163
0.5646625393686723 0.26982614515497244 -0.022517924259955163
0.45211385974936874 0.3946573289160695 -0.022517924259955163
0.4309265401047746 0.452313450441673 -0.022517924259955163
0.3594935431001258 0.19485169278943973 -0.022006153254047083
0.6082449582318037 0.28922226627888836 -0.021187319644594183
0.5134752033577468 0.3278916834853024 -0.021187319644594183
0.6501590036156748 0.27879237317848177 -0.02047084023632288
0.6078150705868409 0.22544536352262437 -0.02047084023632288
0.3385518735383674 0.27162757909576885 -0.02047084023632288
0.5603124858184535 0.30990805033769264 -0.02047084023632288
0.5280913832864813 0.3231731548108298 -0.02047084023632288
0.5525335665286509 0.4475437446666098 -0.02047084023632288
0.5078968993933487 0.5696932483567485 -0.02047084023632288
0.3713359241768386 0.24878212139203235 -0.0191402356209619
0.34299404586964943 0.22182202480079508 -0.0191402356209619
0.5808856802559581 0.4779531778376674 -0.0191402356209619
0.5520627372032154 0.45656114979071005 -0.018423756212690594
0.48944243692030365 0.31465728527251957 -0.018423756212690594
0.5550105381972459 0.3218323147753507 -0.018423756212690594
0.41634106643639457 0.14014337225786674 -0.018423756212690594
0.6163309401251511 0.25597762173509986 -0.018423756212690594
0.6349082276396142 0.26536350198345393 -0.018423756212690594
0.36518443668582357 0.181371644493821 -0.017093151597329614
0.4764946304708294 0.3251588263137532 -0.017093151597329614
0.6208345249771422 0.27300936081172056 -0.01637667218905831
0.41553246824705975 0.14196527703889947 -0.01637667218905831
0.4874670008374985 0.10261008668456867 -0.01637667218905831
0.4105989957501059 0.3152202333790184 -0.01637667218905831
0.4230452666137903 0.286028815202022 -0.01637667218905831
0.43262561984438935 0.45652020811023736 -0.01637667218905831
0.47566556144125827 0.5627638689367532 -0.01637667218905831
0.5726564024809563 0.42403298465519285 -0.015046067573697294
0.39214453327706084 0.22182202480079508 -0.015046067573697294
0.6271702500302841 0.2735927797584558 -0.01432958816542599
0.374273489750751 0.20728772823300592 -0.01432958816542599
0.3670165768869745 0.19568076181901084 -0.01432958816542599
0.6100566275927182 0.22238497290729403 -0.01432958816542599
0.404836454223581 0.3166122505150884 -0.01432958816542599
0.4211005367913395 0.45005142259555925 -0.01432958816542599
0.4122878400696026 0.4572059812581541 -0.01432958816542599
0.5536901690020031 0.2622621696876511 -0.013817817159517945
0.3489101186979468 0.2932038447048531 -0.01299898355006501
0.4325949135840349 0.09729790364324281 -0.01299898355006501
0.3655119701296047 0.22294792101379296 -0.012282504141793705
0.3820217027801991 0.179089145807471 -0.012282504141793705
0.47554273639984035 0.09351079819952317 -0.012282504141793705
0.5646830102089085 0.31254878872817826 -0.012282504141793705
0.519769986730416 0.32277397342622166 -0.012282504141793705
0.4139971552293356 0.43211896654854043 -0.012282504141793705
0.48698593609194496 0.5751077855992561 -0.012282504141793705
0.34100837436672626 0.22422734852856316 -0.010951899526432725
0.3806603919044837 0.15441154790258374 -0.010951899526432725
0.4219500766611469 0.13645862101532863 -0.01023542011816142
0.41860309428250814 0.13403282644732428 -0.01023542011816142
0.46157138793855 0.09911980842427552 -0.01023542011816142
0.5565049095344974 0.27961120678793466 -0.01023542011816142
0.4487361711103755 0.2649233789183731 -0.01023542011816142
0.531561190706538 0.45716503957768156 -0.01023542011816142
0.4904966851924742 0.5815970419541704 -0.01023542011816142
0.3786644849814421 0.24715468959324477 -0.008904815502800442
0.5497802385168654 0.33146384510654064 -0.008904815502800442
0.6077331872258956 0.21743102957010393 -0.008188336094529137
0.5396983497004764 0.11646884552455927 -0.008188336094529137
0.6029941877111867 0.18385885158253434 -0.008188336094529137
0.41212407334771195 0.2843399708825253 -0.008188336094529137
0.47048643886146857 0.3120677239826247 -0.008188336094529137
0.562492630303622 0.43191425814617723 -0.008188336094529137
0.39214453327706084 0.14093149960696516 -0.0076765650886210565
0.5731784089069825 0.4150053441109745 -0.006857731479168157
0.39654576392787017 0.1286182892048169 -0.006857731479168157
0.3371803272425338 0.2613819235574892 -0.0061412520708968524
0.43433493500412235 0.123234458222664 -0.0061412520708968524
0.4006706382354893 0.15150468858902597 -0.0061412520708968524
0.4120114837264122 0.3106347651660821 -0.0061412520708968524
0.5091660914880007 0.30745154950933395 -0.0061412520708968524
0.4427075086607784 0.45710362705697255 -0.0061412520708968524
0.35170438839020485 0.2824771244210199 -0.005629481064988773
0.4721752831809653 0.4611159117432918 -0.004810647455535837
0.3786644849814421 0.3701127914727184 -0.004810647455535837
0.5837004207884525 0.17283530411527448 -0.004094168047264532
0.36842906486328064 0.19954975062367586 -0.004094168047264532
0.48797877184340654 0.10157630925263438 -0.004094168047264532
0.5603738983391625 0.27658152243295897 -0.004094168047264532
0.5398825872626033 0.2653737374035722 -0.004094168047264532
0.5378252678188529 0.4658037341574098 -0.004094168047264532
0.5673953965402213 0.13145350057754762 -0.0035823970413564883
0.4325949135840349 0.41055293635957424 -0.0027635634319035525
0.38126428169145515 0.15441154790258374 -0.0027635634319035525
0.3980298998450037 0.1619857587900233 -0.002047084023632248
0.4245601087912782 0.1454453198790744 -0.002047084023632248
0.6173442467168493 0.20685784058804313 -0.002047084023632248
0.4110288833950687 0.282733009923974 -0.002047084023632248
0.4809879799027022 0.31154571755659843 -0.002047084023632248
0.5464741978186993 0.45595726000373843 -0.002047084023632248
0.5618068571557051 0.12745145131134644 -0.0015353130177241676
0.5943657285515768 0.3027023145745069 -7.164794082712686E-4
0.3414587328519253 0.27464702803062635 3.6363517062062046E-17
0.5314076594047655 0.12185267650671217 3.6363517062062046E-17
0.389872270010829 0.16021503110958135 3.6363517062062046E-17
0.3646317239994428 0.1963767703870458 3.6363517062062046E-17
0.5944783181728766 0.21939623023279087 3.6363517062062046E-17
0.47765123294418166 0.2644218433325831 3.6363517062062046E-17
0.43115171934737406 0.4491814118855156 3.6363517062062046E-17
0.4191148652884163 0.11917099643575385 5.117710059081165E-4
0.5485417526825679 0.3304198322544883 0.0013306046153610156
0.5539153482446025 0.10049135472010916 0.0013306046153610156
0.3897085032889384 0.16662240410355048 0.0020470840236323207
0.3854403330996651 0.16882301942895508 0.0020470840236323207
0.5895857873563952 0.19517922623322084 0.0020470840236323207
0.4107422916317601 0.28432973546240725 0.0020470840236323207
0.40090605289820697 0.31308103057432274 0.0020470840236323207
0.5540586441262569 0.4309316578148337 0.0020470840236323207
0.5937004262438962 0.15581380045877186 0.0033776886389933
0.4658804998082959 0.4551588972345219 0.0033776886389933
0.5423800297714346 0.46573208621658274 0.004094168047264605
0.5544271192505108 0.2762335181489414 0.004094168047264605
0.5031783707188763 0.2638588952260843 0.004094168047264605
0.3900360367327195 0.16607992683728778 0.004094168047264605
0.5307423570970851 0.11611060582042365 0.004094168047264605
0.3633932381651453 0.2249233570965981 0.004094168047264605
0.39580881367936266 0.3027023145745069 0.005424772662625621
0.40563481699279763 0.2083419765051765 0.005424772662625621
0.5448774722802661 0.44618243379089423 0.006141252070896925
0.3957166948982992 0.18705230265940068 0.006141252070896925
0.5552868945404362 0.27659175785307716 0.006141252070896925
0.5973851774864343 0.20013316957041094 0.006141252070896925
0.5146625120914534 0.11441152608080873 0.006141252070896925
0.3786644849814421 0.15441154790258374 0.0074718566862579045
0.3786644849814421 0.27574221798326964 0.0074718566862579045
0.5314895427657109 0.46003095721076676 0.00818833609452921
0.3691250734313158 0.2056500610141 0.00818833609452921
0.40090605289820697 0.2802867445157333 0.00818833609452921
0.5995550865514846 0.1990072733574132 0.00818833609452921
0.4136082092648453 0.1499386693109472 0.00818833609452921
0.529278692020188 0.10552718141824464 0.00818833609452921
0.39675047233023353 0.20706254899040633 0.009518940709890188
0.39214453327706084 0.4131424976494691 0.009518940709890188
0.5462490185760998 0.456622562311419 0.010235420118161493
0.4280708578918076 0.4472980945837739 0.010235420118161493
0.3667402205437841 0.19539417005570225 0.010235420118161493
0.5505683658659638 0.13203691952428284 0.010235420118161493
0.39161229143091636 0.15850571594984836 0.010235420118161493
0.56161238417346 0.3003379325272117 0.010235420118161493
0.37375148332472474 0.22387934424454561 0.011566024733522473
0.5506707200671455 0.1650461494053535 0.011566024733522473
0.4204557053238955 0.416683953010353 0.012282504141793778
0.5800259049660325 0.1904811683989847 0.012282504141793778
0.5677331654041207 0.28278418702456476 0.012282504141793778
0.3963615263657433 0.19238495654096283 0.012282504141793778
0.505634871547235 0.09830097481482263 0.012282504141793778
0.40119264466151555 0.1456193220210831 0.012282504141793778
0.4332192742112428 0.15441154790258374 0.013613108757154758
0.5337925122922972 0.2665610461372789 0.013613108757154758
0.5643964184456 0.4328559167970481 0.014329588165426062
0.5979583610130514 0.19122835406761057 0.014329588165426062
0.409401451596281 0.13683733155970051 0.014329588165426062
0.39046592437768235 0.1704913929082155 0.014329588165426062
0.5383882159253517 0.15441154790258374 0.015660192780787077
0.5943657285515768 0.3431424594613629 0.015660192780787077
0.40582928997504275 0.276079986847169 0.016376672189058382
0.4068733028270951 0.16015361858887237 0.016376672189058382
0.4348569414301486 0.1372979254650178 0.016376672189058382
0.6013667559123992 0.17692947216253896 0.016376672189058382
0.5565356157948519 0.4299285866432539 0.016376672189058382
0.58215487235061 0.1919141272155273 0.017707276804419362
0.4212233618327575 0.45223156708072776 0.018423756212690667
0.5598416564930181 0.27496432605428944 0.018423756212690667
0.5772828123743652 0.16124880854151566 0.018423756212690667
0.41532775984469655 0.1263767321989396 0.018423756212690667
0.3696368444372238 0.1755886321270598 0.018423756212690667
0.4493195900571107 0.14093149960696516 0.019754360828051647
0.3977023664012224 0.2622621696876511 0.019754360828051647
0.5598518919131363 0.4653636110923289 0.02047084023632295
0.5607730797237708 0.1623542339142771 0.02047084023632295
0.5404045936886295 0.11755380005708432 0.02047084023632295
0.5042223835709289 0.0973797870041882 0.02047084023632295
0.41928886743042504 0.2848415064683153 0.02047084023632295
0.5943657285515768 0.41055293635957424 0.02180144485168393
0.4215508952765387 0.2831014850482278 0.022517924259955236
0.45597261313391574 0.10078818190353596 0.022517924259955236
0.4360544855839734 0.11007170795070836 0.022517924259955236
0.5509880180908086 0.273797488160819 0.022517924259955236
0.5625028657237402 0.4173390198979153 0.022517924259955236
0.4863922817250915 0.10606965868450717 0.023848528875316213
0.545000297321684 0.2559878571552181 0.023848528875316213
0.42754885146578137 0.4633165270686966 0.024565008283587517
0.3940687922592752 0.14735934344117055 0.024565008283587517
0.5175693714050114 0.10349033281473054 0.024565008283587517
0.5213974185292037 0.1198977112641433 0.024565008283587517
0.5679890509070746 0.29276372163977227 0.024565008283587517
0.5943657285515768 0.3431424594613629 0.025895612898948536
0.5582449309545849 0.4593963611634408 0.02661209230721984
0.4111619438566049 0.309232512609894 0.02661209230721984
0.5330657974639078 0.12228256415167496 0.02661209230721984
0.4762489803879935 0.07387926241288943 0.02661209230721984
0.47285082090876396 0.09141253707529995 0.02661209230721984
0.499995155062128 0.11670426018727695 0.027123863313127883
0.3786644849814421 0.3701127914727184 0.02794269692258082
0.5670883339366765 0.13373599926389762 0.028659176330852125
0.4794731377252143 0.08770731499252556 0.028659176330852125
0.4383983967910325 0.12474930040015186 0.028659176330852125
0.41643318521745804 0.3182703885742305 0.028659176330852125
0.5620627426586592 0.4278507963592671 0.028659176330852125
0.5733933527294639 0.4131424976494691 0.0299897809462131
0.4027279576792397 0.28916085375817935 0.030706260354484406
0.4245294025309237 0.12204714948895728 0.030706260354484406
0.48230834909794507 0.08050157922933995 0.030706260354484406
0.5581118704930489 0.2766838766341406 0.030706260354484406
0.42624895311077476 0.4579019898261892 0.030706260354484406
0.5634240535343746 0.47247722807445103 0.03203686496984539
0.40880779722942767 0.43258979587397595 0.032753344378116694
0.5680606988479018 0.31291726385243207 0.032753344378116694
0.532574497298236 0.11940641109847153 0.032753344378116694
0.4424823294181788 0.12045042395052404 0.032753344378116694
0.41618753513462214 0.31793261971033115 0.032753344378116694
0.39214453327706084 0.4131424976494691 0.03408394899347767
0.41154065440097676 0.4488436430216163 0.034800428401748976
0.554509002611456 0.28957027056290574 0.034800428401748976
0.4873134695357261 0.08987722405757581 0.034800428401748976
0.461131264873469 0.1261617883764582 0.034800428401748976
0.4791148980210787 0.11397140301572788 0.036131033017109994
0.550005417759465 0.4416276718383125 0.0368475124253813
0.5190944490026175 0.10879228043593818 0.0368475124253813
0.47778429340571776 0.10586495028214399 0.0368475124253813
0.5943657285515768 0.35662250775698145 0.038178117040742275
0.49661746642313476 0.09081888270844665 0.03889459644901358
0.4104249936080972 0.28033792161632426 0.03889459644901358
0.5533012230375131 0.45423770942388736 0.03889459644901358
0.40828579080340144 0.44283545141225544 0.03889459644901358
0.5195243366475801 0.09373597744212264 0.04094168047264587
0.4877024155002162 0.10903793051877406 0.04094168047264587
0.4196675779747969 0.3128763221719594 0.04094168047264587
0.5639767662207553 0.42098282945998083 0.04094168047264587
0.40188865322955053 0.25861836012558564 0.042272285088006845
0.42914557700421446 0.4499797746547322 0.04298876449627815
0.5731784089069825 0.32444234690548196 0.04298876449627815
0.5943657285515768 0.3970728880639555 0.044319369111639126
0.4990227901509027 0.07117711150169485 0.04503584851991043
0.41111076675601393 0.30676577636141705 0.04503584851991043
0.5462387831559815 0.4585058796131607 0.04503584851991043
0.39410973393974774 0.3296624111657442 0.04636645313527145
0.46909442172539867 0.09349032735928675 0.04708293254354275
0.5463001956766904 0.27720588306016675 0.04708293254354275
0.4189818048268802 0.44812716361334504 0.04708293254354275
0.3786644849814421 0.31618236287012563 0.04841353715890373
0.5456451287891282 0.45860823381434224 0.049130016567175035
0.4107832333122328 0.3124464345269968 0.049130016567175035
0.4039562080934191 0.41429910012282134 0.049130016567175035
0.40328067036562043 0.4554147827374759 0.05046062118253602
0.44284056912231456 0.47019472938810103 0.05117710059080732
0.5519706184221519 0.28096228224353204 0.05117710059080732
0.5943657285515768 0.35662250775698145 0.0525077052061683
0.41779449609317343 0.4274311441344225 0.053224184614439604
0.401540648945533 0.2854658670955231 0.053224184614439604
0.5633728764337839 0.4243502826788559 0.053224184614439604
0.4042120935963732 0.40333696517627043 0.05455478922980059
0.5276819664817549 0.4704915565715277 0.05527126863807189
0.4107422916317601 0.30764602249157896 0.05527126863807189
0.454856952341036 0.46447312954204883 0.056601873253432904
0.39214453327706084 0.46447312954204883 0.056601873253432904
0.5636287619367379 0.2878814262434092 0.05731835266170421
0.4012131155017518 0.2846060918055974 0.05731835266170421
0.5764128016643215 0.4201947021108823 0.05864895727706519
0.4996880924585833 0.09041970132383835 0.059365436685336496
0.563761822398274 0.2821291201370025 0.059365436685336496
0.4181322649570728 0.28176064501274867 0.059365436685336496
0.5634752306349655 0.4719552216484248 0.06069604130069747
0.4858805107191835 0.08233371943049073 0.06141252070896878
0.5632807576527203 0.2936234969296977 0.06141252070896878
0.4002407505905265 0.2685057759597295 0.06141252070896878
0.4325949135840349 0.41055293635957424 0.06274312532432975
0.5269552516533653 0.4375130329508115 0.06274312532432975
0.558685054019666 0.27158663741529615 0.06345960473260107
0.4010800550402158 0.33471870870411596 0.06345960473260107
0.5673953965402213 0.3431424594613629 0.06397137573850914
0.40563481699279763 0.39620287735391185 0.06479020934796205
0.5564946741143794 0.42208825483274215 0.06550668875623335
0.5691763596407813 0.28275348076421025 0.06550668875623335
0.4207730033475584 0.45448335950672325 0.06550668875623335
0.5553176008007907 0.3431424594613629 0.06601845976214142
0.5764844496051488 0.3936030806438988 0.06683729337159436
0.41733390218785615 0.4369500848443126 0.06755377277986567
0.399575448282846 0.29566034553321197 0.06755377277986567
0.557866220410213 0.41959081232391077 0.06755377277986567
0.5764844496051488 0.35662250775698145 0.06806554378577372
0.540435299948984 0.38359283976833697 0.06888437739522665
0.555716782185399 0.4415457884773672 0.06960085680349795
0.5729020525637921 0.2950871620065948 0.06960085680349795
0.4293809916669323 0.4590790631397777 0.06960085680349795
0.540435299948984 0.3970728880639555 0.07011262780940604
0.5770371622915293 0.4005324600638942 0.07093146141885893
0.41615682887426764 0.4159470027618454 0.07164794082713023
0.41068087911105117 0.31193466352108856 0.07164794082713023
0.5423800297714346 0.2790994357820266 0.07164794082713023
0.5661262044455693 0.4197443436256832 0.07164794082713023
0.3786644849814421 0.3027023145745069 0.07297854544249122
0.4649183703171888 0.28922226627888836 0.07297854544249122
0.42501046727647723 0.46762563893844245 0.07369502485076251
0.5628508700077576 0.316530367154143 0.07369502485076251
0.5554916029427995 0.4329378001579933 0.07369502485076251
0.49180681896759887 0.4375130329508115 0.0742067958566706
0.3970575349337784 0.41055293635957424 0.0750256294661235
0.4122468983891299 0.4202254083712368 0.07574210887439481
0.3996778024840277 0.32775862302376624 0.07574210887439481
0.5497188259961564 0.45979554254804894 0.07574210887439481
0.540435299948984 0.35662250775698145 0.07625387988030288
0.4325949135840349 0.38359283976833697 0.07707271348975582
0.41208313166723926 0.3409009024554855 0.07778919289802713
0.44799922086186783 0.4607167303586835 0.07778919289802713
0.45980066025810806 0.47102379841767217 0.07778919289802713
0.43471364554849423 0.2534290021256777 0.0791197975133881
0.5644987726467816 0.28696023843277463 0.07983627692165941
0.5593810625877008 0.36917113282184744 0.07983627692165941
0.5547341818540557 0.2797442672494708 0.07983627692165941
0.5598211856527818 0.47449360583772887 0.08116688153702038
0.5644373601260726 0.27228264598333113 0.0818833609452917
0.5570166805404057 0.417318549057679 0.0818833609452917
0.5600770711557358 0.4419552052820936 0.0818833609452917
0.45215480142984144 0.4689971852342761 0.0818833609452917
0.39914556063788326 0.4203482334126547 0.0832139655606527
0.4607730251693334 0.46283546232314304 0.08393044496892402
0.40489786674428996 0.29424785755690563 0.08393044496892402
0.40022027975029023 0.30540446548570166 0.08393044496892402
0.5943657285515768 0.3701127914727184 0.08526104958428496
0.5644578309663089 0.35748228304690705 0.08597752899255626
0.41207289624712123 0.4020473022413821 0.08597752899255626
0.5646625393686723 0.40133082283311083 0.08597752899255626
0.5039972043283292 0.47092144421649046 0.08597752899255626
0.5043452086123468 0.45944753826403156 0.08802461301618858
0.4132397341405915 0.36175045323618044 0.08802461301618858
0.5638027640787466 0.26450372669352834 0.08802461301618858
0.5718068626111489 0.36191421995807105 0.08802461301618858
0.5759010306584135 0.40012304325916764 0.08935521763154952
0.5582039892741123 0.2711260435099789 0.09007169703982083
0.40669930068508636 0.28114651980565897 0.09007169703982083
0.42507187979718625 0.43708314530584874 0.09007169703982083
