0.4424182687050352 0.13597197650900308 -0.14122749135108464
0.714373797746923 -0.03681175594233198 -0.14122749135108464
0.5348528193967083 0.08000190104322494 -0.14122749135108464
0.7559780275760867 -0.0017942837015916624 -0.13972260824652388
0.5015254466426284 0.07150509951439744 -0.13972260824652388
0.6035102170363216 -0.20293927466195621 -0.13972260824652388
0.3027882686495612 0.012629442054428893 -0.13891228657483734
0.20890671497273364 -0.08558154455398105 -0.13891228657483734
0.20201898076339797 0.026208118067119267 -0.13891228657483734
0.4858630863313156 0.04457926796664154 -0.13891228657483734
0.42270430003528947 0.1283896808667932 -0.13891228657483734
0.44796318414414743 -0.19264818943153705 -0.13891228657483734
0.47044382252150874 0.056433116421027676 -0.13891228657483734
0.40774807718073197 0.13427030099846143 -0.13891228657483734
0.5365197668356062 0.07833495360432699 -0.13891228657483734
0.5026135928874648 -0.1419567808556026 -0.1374074034702766
0.7712236510276752 -0.004734593767425776 -0.1374074034702766
0.5032386981770516 0.06209379209895218 -0.1374074034702766
0.32697058253746414 0.023267808001285153 -0.13659708179859006
0.335779936711085 0.03456600730937191 -0.13659708179859006
0.3433275042816512 0.02645121456862524 -0.13659708179859006
0.512661581616378 -0.18726533832676207 -0.13659708179859006
0.4665542784974131 0.1320014003177391 -0.13659708179859006
0.599516488797295 -0.15605637794294863 -0.13659708179859006
0.4888612765165558 -0.1832253059922105 -0.13659708179859006
0.47170560912456344 0.036256106796032445 -0.13659708179859006
0.6828291326705537 -0.001169178412005035 -0.13659708179859006
0.320163880495297 0.04882766873105521 -0.1350921986940293
0.6797499103181449 -0.1572024043071911 -0.1350921986940293
0.3027651166017986 0.012652594102191312 -0.13428187702234276
0.3098149151454717 -0.08886913533625228 -0.13428187702234276
0.21202066539678613 -0.09770164155763575 -0.13428187702234276
0.7069304143912879 -0.029565164992677907 -0.13428187702234276
0.44072816921837465 -0.19950119556922902 -0.13428187702234276
0.5192714912525639 -0.12199971568435093 -0.13428187702234276
0.4859672705462467 0.04944119799676071 -0.13428187702234276
0.47976252174590395 0.13451339749996757 -0.13428187702234276
0.4998932272753742 -0.0987434837069469 -0.13428187702234276
0.7254867806729101 0.04100227658733935 -0.13277699391778203
0.2985861719806724 -0.126699581380133 -0.13277699391778203
-0.02512575983422359 -0.040041466605196904 -0.13196667224609548
0.20795748101447215 -0.08484067902558201 -0.13196667224609548
0.3030429411749483 0.0225269424728861 -0.13196667224609548
0.3281050328778253 -0.11571393471683963 -0.13196667224609548
0.497485414308077 0.045540077948784154 -0.13196667224609548
0.48044550715489687 0.0526709086596258 -0.13196667224609548
0.4849138523730543 0.11942983838271651 -0.13196667224609548
0.5588846449741551 0.11279677669876793 -0.13196667224609548
0.5343087462742901 0.05835473638531289 -0.13196667224609548
0.4665658545212944 0.06371443544232529 -0.13046178914153472
0.43579678304496794 -0.1572024043071911 -0.13046178914153472
0.6949955337697331 0.021658740681793336 -0.13046178914153472
0.2118933291340926 0.019030983260752615 -0.12965146746984818
0.3402251298814798 -0.10662675597006906 -0.12965146746984818
0.3399588813322114 0.02987771763747114 -0.12965146746984818
0.6759761265328617 0.01810490135025372 -0.12965146746984818
0.5183801374137087 0.11727669794080645 -0.12965146746984818
0.5569861770576322 0.10937027362992187 -0.12965146746984818
0.687737366796198 0.01761870834724177 -0.12965146746984818
0.5005067565410797 -0.051999499274514166 -0.12965146746984818
0.5503762674214462 0.09150846878117395 -0.12965146746984818
-0.03684069600203488 -0.0504714641221909 -0.12814658436528745
0.3593950254288074 -0.126699581380133 -0.12814658436528745
0.7102411572213215 0.05624790003892783 -0.12814658436528745
0.212009089372905 0.018776310735365516 -0.1273362626936009
0.3319714248541583 -0.09785212986809172 -0.1273362626936009
0.32912372297937403 -0.11140765383301968 -0.1273362626936009
0.593300163973071 -0.15770017333408418 -0.1273362626936009
0.4742754864261978 0.1322676488670075 -0.1273362626936009
0.6326007650498688 0.0665737133409907 -0.1273362626936009
0.7217708770070331 -0.035850945960189375 -0.1273362626936009
0.526865362918655 -0.11483415690186558 -0.1273362626936009
0.562704732854963 -0.03451970321384708 -0.1273362626936009
0.47984355391307265 -0.06571708757377938 -0.12583137958904017
0.3900599126902028 -0.11145395792854451 -0.12583137958904017
0.30222104347938056 0.017838652800985327 -0.1250210579173536
0.33341842783931286 0.027354144431361718 -0.1250210579173536
0.3287880182868182 0.03225080253312459 -0.1250210579173536
0.32062692145054655 -0.08240971401052226 -0.1250210579173536
0.4951586335079484 0.03996043443802819 -0.1250210579173536
0.5321093017368552 -0.1688594603555961 -0.1250210579173536
0.4840688026297239 -0.12804240015035642 -0.1250210579173536
0.5006225167798921 0.027562512861223982 -0.1250210579173536
0.565830259302897 -0.02850017079560417 -0.1250210579173536
0.4720297377932379 -0.004734593767425776 -0.12444225672329177
0.4662880299481447 -0.037066428467719244 -0.12351617481279287
0.7407324041244986 -0.06277677750794528 -0.12351617481279287
0.21951035284794618 -0.08844082245264646 -0.12270585314110631
0.3334415798870753 -0.09638197483517474 -0.12270585314110631
0.36892209308306495 0.04567899023535899 -0.12270585314110631
0.3234977753730932 -0.08987624941391989 -0.12270585314110631
0.49726546985433345 -0.10421894300277174 -0.12270585314110631
0.4868586243851019 -0.12029804017380927 -0.12270585314110631
0.4881782911075629 -0.02679849528506251 -0.12270585314110631
0.5338225532712781 0.0589566896271371 -0.12270585314110631
0.526865362918655 -0.07824234541327714 -0.12270585314110631
0.5781471487125325 0.03670757172740068 -0.12270585314110631
0.6797499103181449 0.08675072296598593 -0.12120097003654558
0.3351432553976171 0.07150509951439744 -0.12120097003654558
0.5196535000406447 -0.1339230202820245 -0.12120097003654558
0.21828329431653518 -0.08357889242252729 -0.12039064836485902
0.33220294533178296 0.027828761410492377 -0.12039064836485902
0.32868383407188706 0.03227395458088717 -0.12039064836485902
0.3284986176897874 0.020616898532482015 -0.12039064836485902
0.5340540737489029 0.11504252533172767 -0.12039064836485902
0.48223979085648855 0.04549377385325915 -0.12039064836485902
0.5465909076122819 0.11599175928998898 -0.12039064836485902
0.5837962483665758 -0.1752725775858011 -0.12039064836485902
0.4984230722424571 -0.11281992874653052 -0.12039064836485902
0.5585489402815994 0.05894511360325597 -0.12039064836485902
0.5764338971781096 -0.07999032501934397 -0.12039064836485902
-0.08280908683442485 -0.03522584067060258 -0.1198118471707972
0.5159839004702929 -0.13378410799544962 -0.11888576526029827
0.38194511994945596 0.05931554636745549 -0.11888576526029827
0.6797499103181449 0.08675072296598593 -0.11888576526029827
0.21383810114614038 -0.08528056793306896 -0.11807544358861174
0.3352937437080731 -0.10552703370135144 -0.11807544358861174
0.3745133126177022 -0.1048208962445961 -0.11807544358861174
0.4967213967319154 -0.015662360311313014 -0.11807544358861174
0.5320629976413302 0.056919309424039465 -0.11807544358861174
0.5488713843168855 -0.18040075616518883 -0.11807544358861174
0.5880214970832273 -0.16831538723317802 -0.11807544358861174
0.7257993333177033 -0.029345220538934517 -0.11807544358861174
0.5936127166178645 0.07876326648793264 -0.11807544358861174
-0.11872948893790147 -0.01998021721901426 -0.11749664239454992
-0.03966524582905657 -0.0362098027005076 -0.116570560484051
0.4662880299481447 -0.02389291329087211 -0.116570560484051
0.7407324041244986 -0.06277677750794528 -0.116570560484051
0.21951035284794618 -0.08844082245264646 -0.11576023881236444
0.301063441091257 -0.09310596007678482 -0.11576023881236444
0.32210865250734483 0.027273112264193006 -0.11576023881236444
0.3156376551577337 -0.0790410910610825 -0.11576023881236444
0.49129224153161544 -0.058412616504719184 -0.11576023881236444
0.4834900014356621 0.1316656956251833 -0.11576023881236444
0.5499826826094842 0.1097407063941214 -0.11576023881236444
0.5200702369003692 0.1151930136421838 -0.11576023881236444
0.5457805859405954 -0.17056113586613791 -0.11576023881236444
0.4757109133874713 -0.06996548833819322 -0.11518143761830263
-0.11688890114078498 -0.01998021721901426 -0.11425535570780372
0.6797499103181449 0.08675072296598593 -0.11425535570780372
0.47266641910670604 -0.01998021721901426 -0.11425535570780372
0.7254867806729101 -0.11145395792854451 -0.11425535570780372
0.3421120217741213 -0.1077264782387865 -0.11344503403611716
0.4881088349642755 -0.11584127097953317 -0.11344503403611716
0.49283185270782 -0.05132808988940254 -0.11344503403611716
0.5640012475296614 -0.17578192263657547 -0.11344503403611716
0.6883740481096658 0.020061249386182645 -0.11344503403611716
0.5111335464640546 0.13219819272372008 -0.11344503403611716
-0.12606868807860538 -0.03913853674246043 -0.11286623284205534
0.7102411572213215 0.04394258665317346 -0.11194015093155642
0.3351432553976171 0.07150509951439744 -0.11194015093155642
0.7254867806729101 -0.11145395792854451 -0.11194015093155642
0.33340685181543156 0.02814131405528577 -0.11112982925986986
0.4949271130303237 -0.008010608525815706 -0.11112982925986986
0.5359988457609507 -0.12561143513529682 -0.11112982925986986
0.6942662442652153 -0.07728153543113454 -0.11112982925986986
0.5212741433840179 0.11582969495565189 -0.11112982925986986
0.5607136567473904 -0.16589599824199955 -0.11112982925986986
0.6086846997112343 0.07900636298943861 -0.11112982925986986
-0.13374359191186527 -0.03976364203204722 -0.10962494615530914
0.3122458801605313 -0.10539969743865789 -0.10962494615530914
0.47303685187090555 -0.01998021721901426 -0.10962494615530914
0.7407324041244986 -0.06277677750794528 -0.10962494615530914
0.5890980673041821 0.0786243542013578 -0.10881462448362259
0.5221076171034669 -0.19644512526458266 -0.10881462448362259
0.5898968129519876 -0.1752725775858011 -0.10881462448362259
0.5966919389702733 0.08174988064929176 -0.10881462448362259
0.48890758061208084 0.03537632898105855 -0.10881462448362259
0.33325636350497545 -0.09672925555161185 -0.10881462448362259
-0.003108162412111857 -0.03277172360778042 -0.10881462448362259
-0.10150436540262166 -0.01998021721901426 -0.10730974137906185
0.35838791135113984 -0.126699581380133 -0.10730974137906185
0.465223035751071 0.061283470427265715 -0.10730974137906185
0.6644927108426751 0.06466366940058678 -0.10730974137906185
0.34389472945183186 0.03759892556625587 -0.1064994197073753
0.36323826535737785 0.04784370670115018 -0.1064994197073753
0.4741597261873856 -0.10617529103870081 -0.1064994197073753
0.6022021263377418 -0.15869571138787048 -0.1064994197073753
0.49873562488725043 0.1263870287353396 -0.1064994197073753
0.4960268352990412 0.14066026618090385 -0.1064994197073753
0.49658248444534053 0.13847239766735026 -0.1064994197073753
-0.13668390197769922 -0.026138661923832008 -0.10592061851331347
-0.11274468459130228 -0.0504714641221909 -0.10499453660281458
0.3900599126902028 -0.11145395792854451 -0.10499453660281458
0.5598223029085352 -0.15455149483838795 -0.10499453660281458
0.7559780275760867 -0.0017942837015916624 -0.10499453660281458
0.6230736973956111 0.07604290087584208 -0.10418421493112802
0.5999448016809008 -0.14206096507053373 -0.10418421493112802
0.5816315319007849 -0.15825582248038353 -0.10418421493112802
0.6324387007155313 -0.13521953495672306 -0.10418421493112802
0.4778872058771436 0.05326128587756888 -0.10418421493112802
0.47426391040231675 0.03724006882593763 -0.10418421493112802
0.3687484527248464 0.0472070253876821 -0.10418421493112802
-0.08879389118102404 -0.01998021721901426 -0.1036054137370662
-0.09415359023803661 -0.0504714641221909 -0.10267933182656726
0.36024007517213763 -0.12903793820414272 -0.10267933182656726
0.5720465841271211 -0.15258357077857773 -0.10267933182656726
0.6949955337697331 0.07150509951439744 -0.10267933182656726
0.6113819132755625 0.07194498842188439 -0.1018690101548807
0.5015717507381534 -0.2022215611813196 -0.1018690101548807
0.597548564737485 -0.1724943318543044 -0.1018690101548807
0.6378678559158312 0.0517448267491269 -0.1018690101548807
0.49431358376461826 -0.1048672003401211 -0.1018690101548807
0.3437789692130194 0.037714685805068295 -0.1018690101548807
0.36480102858134483 0.04922125354301732 -0.1018690101548807
-0.09783476583226978 -0.01998021721901426 -0.1012902089608189
0.3166216171876387 -0.0504714641221909 -0.10036412705031997
0.3900599126902028 0.02575665313575103 -0.10036412705031997
0.9236914615674403 -0.03522584067060258 -0.10036412705031997
0.7254983566967913 -0.03564257753032711 -0.09955380537863341
0.5182412251271339 0.11821435587518647 -0.09955380537863341
0.5937516289044393 0.08320845965832745 -0.09955380537863341
0.6232241857060673 -0.14340378384075717 -0.09955380537863341
0.48896546073148695 0.04578317445029013 -0.09955380537863341
0.47354619692167993 0.05763702290467626 -0.09955380537863341
0.3630530489752782 0.04800577103548744 -0.09955380537863341
-0.04909970529226425 -0.027655121052273985 -0.09804892227407269
0.35793644641977157 -0.126699581380133 -0.09804892227407269
0.47618553036660194 -0.04682501659960145 -0.09804892227407269
0.6644927108426751 0.08967945700793875 -0.09804892227407269
0.621788758744794 -0.14340378384075717 -0.09723860060238614
0.5864355818114979 -0.17446225591411463 -0.09723860060238614
0.6702807227832934 -0.12294894964261241 -0.09723860060238614
0.6532523916539945 0.04041189936939643 -0.09723860060238614
0.49277397258841366 -0.07860120215359555 -0.09723860060238614
0.336266129714097 0.034114542378003675 -0.09723860060238614
0.3646852683425324 0.04933701378182974 -0.09723860060238614
0.49063240817038506 0.0659601840752852 -0.0957337174978254
0.573018970133145 -0.03522584067060258 -0.0957337174978254
0.6797499103181449 -0.1254146427293157 -0.0957337174978254
-0.09711705235163315 -0.031915097840568944 -0.09492339582613886
0.3376552525798454 0.027724577195561245 -0.09492339582613886
0.4948576568870363 0.034577583333253205 -0.09492339582613886
0.5250595031931822 0.0031255264479337947 -0.09492339582613886
0.634429776823104 0.05884092938832484 -0.09492339582613886
0.4893243174718052 -0.20731501168906358 -0.09492339582613886
0.5398652377372837 -0.19801946451243074 -0.09492339582613886
0.6379951921785251 -0.12987141192359178 -0.09492339582613886
0.316436400805539 0.010511029684162544 -0.09341851272157813
0.46795497738704284 0.031174232312169724 -0.09341851272157813
0.6942546682413341 0.04100227658733935 -0.09341851272157813
-0.08889807539595518 -0.036070890413932764 -0.09260819104989157
0.3236945677790742 0.042622919930712454 -0.09260819104989157
0.48633770331044623 -0.07067162579494855 -0.09260819104989157
0.5095244791445629 -0.08911223183775825 -0.09260819104989157
0.6356336833067527 -0.1410306989451037 -0.09260819104989157
0.6860241152617751 -0.10248253942058635 -0.09260819104989157
0.7242365700937364 -0.06107510199740361 -0.09260819104989157
0.6558801490750352 0.037332677016987476 -0.09260819104989157
0.7084931776152551 -0.09652088712174958 -0.09110330794533081
0.5454101531763957 -0.0504714641221909 -0.09110330794533081
0.573018970133145 0.05624790003892783 -0.09110330794533081
-0.10569488604762935 -0.03185721772116281 -0.09029298627364425
0.37378402311318426 -0.10551545767747031 -0.09029298627364425
0.4952165136273545 0.03471649561982805 -0.09029298627364425
0.5254299359573819 0.002755093683734269 -0.09029298627364425
0.6436327158086872 0.06423535651698095 -0.09029298627364425
0.5149420583209815 -0.1908886338015891 -0.09029298627364425
0.4933527737824756 -0.21177178088333967 -0.09029298627364425
0.6525925582927642 -0.12173346713508253 -0.09029298627364425
-0.1137402226450886 -0.023453024383385163 -0.08878810316908352
0.46668161476010683 0.06185069559744621 -0.08878810316908352
0.5455837935346145 -0.01998021721901426 -0.08878810316908352
0.7559780275760867 0.010511029684162544 -0.08878810316908352
0.6340014639394985 -0.18769365121036788 -0.08878810316908352
0.3434085364488199 -0.1085599519582354 -0.08797778149739696
0.49011148709572944 -0.11662844060345723 -0.08797778149739696
0.49053979997933506 -0.10651099573125664 -0.08797778149739696
0.6439221164057182 -0.13472176592982982 -0.08797778149739696
0.49422097557356826 0.12458116900986664 -0.08797778149739696
0.489752630355411 0.14075287437195386 -0.08797778149739696
0.489752630355411 0.14075287437195386 -0.08797778149739696
0.7080185606361241 0.027631969004511404 -0.08739898030333514
-0.06341924683335383 -0.041754718139619854 -0.08647289839283624
0.2985861719806724 -0.11145395792854451 -0.08647289839283624
0.6340014639394985 0.10492508045952707 -0.08647289839283624
0.7220718536279451 -0.0809627110253677 -0.08647289839283624
-0.07218229691144971 -0.0333505248018422 -0.08566257672114969
0.3626941922349598 0.04835305175192455 -0.08566257672114969
0.4887802443493871 -0.07639018159227935 -0.08566257672114969
0.5037248911800635 -0.09491181980225777 -0.08566257672114969
0.6602095820066176 -0.11758925058559984 -0.08566257672114969
0.6057906937409252 -0.1663590391972491 -0.08566257672114969
0.5676708471000135 -0.18941847876867196 -0.08566257672114969
0.6879110071544164 -0.07493160258324368 -0.08566257672114969
0.6911754458889252 0.05624790003892783 -0.08508377552708786
0.2985861719806724 -0.01998021721901426 -0.08415769361658897
0.3900599126902028 0.02575665313575103 -0.08415769361658897
0.7407324041244986 -0.00656360554066115 -0.08415769361658897
-0.090553446810972 -0.03567730560197082 -0.08334737194490241
0.37304315758478523 -0.11563290254967092 -0.08334737194490241
0.4957605867497728 0.034924864049690314 -0.08334737194490241
0.5038985315382819 0.024274922078952762 -0.08334737194490241
0.6898210510948204 0.028210770198573192 -0.08334737194490241
0.6600475176722805 -0.11448687618542847 -0.08334737194490241
0.663311956406789 0.028940059703091117 -0.08334737194490241
0.7094424115735164 -0.007906424310884574 -0.08334737194490241
0.7177771487680066 0.01911201542792133 -0.08276857075084057
-0.08376989681656746 -0.023453024383385163 -0.08184248884034168
0.5461394426809139 -0.11145395792854451 -0.08184248884034168
0.7130657070483433 0.029680925231490168 -0.08184248884034168
0.8322061448340288 -0.0504714641221909 -0.08184248884034168
0.33338369976766913 0.037946206282692976 -0.08103216716865512
0.32824394516440014 0.04655876805033289 -0.08103216716865512
0.48754160979409483 0.05889880950773097 -0.08103216716865512
0.6169962848579619 -0.15539654458171814 -0.08103216716865512
0.6722949509386286 -0.10908087303289106 -0.08103216716865512
0.5124416371626346 -0.20346019573661187 -0.08103216716865512
0.5675203587895573 -0.1701675510541758 -0.08103216716865512
0.694740861244346 0.017792348705460325 -0.08103216716865512
0.5629131012848253 -0.1999989645961221 -0.07952728406409436
0.6035102170363216 0.13248759332075105 -0.07952728406409436
0.2985861719806724 -0.11145395792854451 -0.07952728406409436
-0.09657297922921507 -0.024703234962558582 -0.07952728406409436
0.335779936711085 0.03456600730937191 -0.0787169623924078
0.36419907533952045 0.04980005473707911 -0.0787169623924078
0.4949849931497299 -0.10930081748663462 -0.0787169623924078
0.5042689643024816 -0.10575855417897628 -0.0787169623924078
0.694057875835353 0.026590126855200083 -0.0787169623924078
0.6837783666288151 -0.08574360888831849 -0.0787169623924078
0.5963562342777174 0.0865886586316485 -0.0787169623924078
0.5437200536897354 0.127972944007069 -0.0787169623924078
-0.11688890114078498 -0.01998021721901426 -0.07813816119834602
-0.06733194290521169 -0.023453024383385163 -0.07721207928784708
0.2985861719806724 -0.11145395792854451 -0.07721207928784708
0.6340014639394985 -0.17537676180073222 -0.07721207928784708
0.6644927108426751 0.10199634641757424 -0.07721207928784708
0.3629604407842282 0.03945108938725366 -0.07640175761616053
0.49897872138875643 0.04144216549482646 -0.07640175761616053
0.4831195686714626 -0.04133798127989549 -0.07640175761616053
0.5564073758635706 -0.18490382945498993 -0.07640175761616053
0.6844960801094518 0.030780647500207616 -0.07640175761616053
0.562704732854963 -0.18769365121036788 -0.07640175761616053
0.6784765476912088 0.02258482259229223 -0.07640175761616053
0.6372543266501257 0.08350943627923971 -0.07640175761616053
-0.0648546737946271 -0.023453024383385163 -0.07582295642209869
-0.058869869448027905 -0.024471714484933897 -0.07489687451159979
0.2985861719806724 -0.09620833447695619 -0.07489687451159979
0.4815336533997332 -0.004734593767425776 -0.07489687451159979
0.6668079156189223 -0.1419567808556026 -0.07489687451159979
0.34304967970850153 -0.1089072326746725 -0.07408655283991324
0.5009234934008042 -0.09013092193930698 -0.07408655283991324
0.4833047850535623 0.019470872168239565 -0.07408655283991324
0.6294057824586474 -0.14846250627685745 -0.07408655283991324
0.6837667906049337 -0.11843430032893018 -0.07408655283991324
0.6924488085158611 -0.0759618687086737 -0.07408655283991324
0.5499479545378404 0.11194015093155629 -0.07408655283991324
-0.11274468459130228 -0.01998021721901426 -0.07350775164585141
-0.11274468459130228 -0.024703234962558582 -0.07258166973535252
0.2985861719806724 -0.0809627110253677 -0.07258166973535252
0.4815336533997332 -0.016773658603911754 -0.07258166973535252
0.7407324041244986 -0.004734593767425776 -0.07258166973535252
0.332006152925802 0.03814299868867395 -0.07177134806366596
0.3643148355783329 0.05228889987154498 -0.07177134806366596
0.49368847847503144 -0.08692436332420449 -0.07177134806366596
0.5022547361471463 -0.11431323582720991 -0.07177134806366596
0.5020116396456403 -0.19026352851200232 -0.07177134806366596
0.7294342048164117 -0.007038222519791807 -0.07177134806366596
0.5548446126396035 0.11042369180311432 -0.07177134806366596
-0.10077507589810389 -0.02625442216264427 -0.07119254686960413
-0.07682428248782565 -0.02749305671793656 -0.07026646495910524
0.2985861719806724 -0.03522584067060258 -0.07026646495910524
0.3900599126902028 0.02575665313575103 -0.07026646495910524
0.7407324041244986 -0.06571708757377938 -0.07026646495910524
-0.0251604879058673 -0.03414927044964755 -0.06945614328741868
0.3642569554589268 -0.12284476542768127 -0.06945614328741868
0.49176685851074625 -0.04309753690984344 -0.06945614328741868
0.5090845902370759 0.019100439404040038 -0.06945614328741868
0.6546993946391491 -0.12425704034119212 -0.06945614328741868
0.7314600089956279 -0.025953445541732165 -0.06945614328741868
0.7164459060216644 -0.08456285445243232 -0.06945614328741868
0.6202028434730646 0.07905266708496361 -0.06945614328741868
-0.09264870713347577 -0.027516208765699143 -0.06887734209335684
0.2985861719806724 -0.12487056960689762 -0.06795126018285791
0.5120364763267912 -0.2181848981135447 -0.06795126018285791
0.738162526822864 -0.06571708757377938 -0.06795126018285791
0.6035102170363216 0.12017070391111555 -0.06795126018285791
0.3318788166631083 0.036290834867676154 -0.06714093851117135
0.5016412068814409 0.02194814127882415 -0.06714093851117135
0.48838665953742516 -0.12247433266348175 -0.06714093851117135
0.52700427520523 -0.011726512191692582 -0.06714093851117135
0.6035217930602028 -0.17031803936463194 -0.06714093851117135
0.7210300114786341 -0.012386345552923084 -0.06714093851117135
0.7069998705345754 -0.06217482426612106 -0.06714093851117135
0.6149704806787457 0.09330275248276562 -0.06714093851117135
0.5425277232299679 -0.2181848981135447 -0.06656213731710957
0.573018970133145 -0.06571708757377938 -0.06563605540661063
0.6949955337697331 0.07150509951439744 -0.06563605540661063
0.7559780275760867 -0.0809627110253677 -0.06563605540661063
0.6644927108426751 -0.10013260657269533 -0.06563605540661063
0.3321913693079017 0.029287340419528057 -0.06482573373492408
0.4919289228450835 -0.11733457806021273 -0.06482573373492408
0.48984523854646084 0.005324970985368693 -0.06482573373492408
0.5082626925415081 0.014493181899307978 -0.06482573373492408
0.608372147066441 -0.1625968314358472 -0.06482573373492408
0.728137690141713 -0.049255981614661194 -0.06482573373492408
0.7447492844112874 -0.030051357995689858 -0.06482573373492408
0.5279998132590162 0.12965146746984807 -0.06482573373492408
0.6670510121204285 0.028430714652316582 -0.06332085063036334
0.7102411572213215 -0.126699581380133 -0.06332085063036334
0.4815336533997332 -0.00656360554066115 -0.06332085063036334
0.5371911762207181 0.06586757588423535 -0.06332085063036334
-0.08084116277461463 -0.032980092037642676 -0.0625105289586768
0.36407173907682694 -0.12301840578589983 -0.0625105289586768
0.4924266918719766 -0.02633545432981298 -0.0625105289586768
0.47753992516070665 0.03853658350063605 -0.0625105289586768
0.5097559996221875 -0.03887228819319204 -0.0625105289586768
0.6756751499119497 -0.12094629751115848 -0.0625105289586768
0.7289711638611621 -0.034172422497410135 -0.0625105289586768
0.6517475085494339 0.0640732921826437 -0.0625105289586768
0.5378162815103046 0.13189721610280813 -0.0625105289586768
0.6644927108426751 -0.10141754522351262 -0.06100564585411607
0.6340014639394985 0.10492508045952707 -0.06100564585411607
0.5477716620481681 -0.0809627110253677 -0.06100564585411607
0.2985745959567911 -0.11145395792854451 -0.06100564585411607
0.3650093970112071 -0.11075939649567046 -0.06019532418242951
0.5003446922067424 -0.08626452996297414 -0.06019532418242951
0.4927623965645325 0.020894723105631702 -0.06019532418242951
0.5232073393721843 0.04070129996642724 -0.06019532418242951
0.518634809939096 -0.19642197321682006 -0.06019532418242951
0.7247806432161545 -0.0577759351912511 -0.06019532418242951
0.5249784710260136 0.1294662510877484 -0.06019532418242951
0.5480379105974365 0.12819288846081223 -0.06019532418242951
0.6656966173263239 0.027990825744829636 -0.058690441077868784
0.7712236510276752 -0.01998021721901426 -0.058690441077868784
0.38037078070160785 -0.13129526286098392 -0.058690441077868784
0.31552189491892124 -0.004734593767425776 -0.058690441077868784
0.3319366967825146 -0.09799104215466656 -0.057880119406182234
0.4936537504033877 -0.033443132992892206 -0.057880119406182234
0.4878310103911258 0.053145525638756456 -0.057880119406182234
0.5282081816888785 -0.017792348705460488 -0.057880119406182234
0.6074807932275855 -0.16368497768068335 -0.057880119406182234
0.7351643366376236 -0.02948413282550936 -0.057880119406182234
0.6693199128011508 0.050309399787853475 -0.057880119406182234
0.5264602020828119 0.13844924561958766 -0.057880119406182234
0.4738008694470672 0.029680925231490168 -0.056375236301621466
0.5425277232299679 -0.21236215810128276 -0.056375236301621466
0.6949955337697331 0.07150509951439744 -0.056375236301621466
0.7407324041244986 -0.08390302109120182 -0.056375236301621466
0.34059556264567936 -0.10916190520005976 -0.05556491462993491
0.49306337318544463 -0.040724452014189824 -0.05556491462993491
0.531611532709962 -0.10858310400599798 -0.05556491462993491
0.6747259159536884 -0.12282161337991869 -0.05556491462993491
0.7300593101059986 -0.04197466259336341 -0.05556491462993491
0.5482115509556552 0.12842440893843707 -0.05556491462993491
0.5696271951359425 0.13248759332075105 -0.05498611343587312
0.573018970133145 -0.03522584067060258 -0.05406003152537418
0.6937221711427972 0.05624790003892783 -0.05406003152537418
0.5875931841996215 -0.19203466016583157 -0.05406003152537418
0.3318903926869896 0.029576741016559036 -0.05324970985368763
0.49189419477343976 -0.03566572957808953 -0.05324970985368763
0.5316925648771307 0.039439513363372536 -0.05324970985368763
0.6695167052071318 -0.11483415690186558 -0.05324970985368763
0.7394127374020375 -0.046269367453302075 -0.05324970985368763
0.5273631319455482 0.13327476294467527 -0.05324970985368763
0.5756119994825417 0.13248759332075105 -0.0526709086596258
0.573018970133145 -0.0809627110253677 -0.0517448267491269
0.315359830584584 -0.11145395792854451 -0.0517448267491269
0.7559780275760867 0.010511029684162544 -0.0517448267491269
0.33146207980338394 0.03865234373944848 -0.05093450507744035
0.4893590455434489 -0.07949255599245073 -0.05093450507744035
0.48726378522094516 0.054129487668661484 -0.05093450507744035
0.6038227696811151 -0.16064048339991827 -0.05093450507744035
0.7176961166008379 -0.0787285384162891 -0.05093450507744035
0.5757393357452353 0.11398910715853505 -0.05093450507744035
0.5816083798530223 -0.1991191867811482 -0.05035570388337852
0.3900599126902028 -0.11145395792854451 -0.049429621972879624
0.31529037444129654 0.04100227658733935 -0.049429621972879624
0.6949955337697331 -0.126699581380133 -0.049429621972879624
0.6949955337697331 -0.06571708757377938 -0.049429621972879624
0.6541205934450874 0.05805375976440079 -0.04861930030119307
0.7442167873127505 -0.036082466437814056 -0.04861930030119307
0.5754846632198483 -0.18912907817164115 -0.04861930030119307
0.5320629976413302 0.039578425649947374 -0.04861930030119307
0.491025992982347 -0.07288264635626474 -0.04861930030119307
0.37269587686834815 0.03604773836617018 -0.04861930030119307
0.9236914615674403 -0.0504714641221909 -0.04711441719663234
0.7559780275760867 -0.06571708757377938 -0.04711441719663234
0.48375624998493055 -0.04564426216371545 -0.04711441719663234
0.31522091829800913 -0.010696246066262552 -0.04711441719663234
0.6272873700883812 0.0825023222015721 -0.046304095524945785
0.7388686642796195 -0.03282960372718671 -0.046304095524945785
0.5699628998284983 -0.1864434406311943 -0.046304095524945785
0.6656966173263239 -0.11323666560625505 -0.046304095524945785
0.4902735514300667 0.05996380370480471 -0.046304095524945785
0.3278156322807943 -0.03710115653936295 -0.046304095524945785
0.3237987519940053 0.04650088793092676 -0.046304095524945785
0.6035102170363216 0.13248759332075105 -0.044799212420385016
0.7167700346903388 -0.09951907730698983 -0.044799212420385016
0.38000034793740833 -0.13164254357742086 -0.044799212420385016
0.30990752333652155 -0.06571708757377938 -0.044799212420385016
0.5592550777383545 0.12417600817402341 -0.04398889074869847
0.7145937422006665 -0.06682838586637813 -0.04398889074869847
0.6792058371957268 -0.12152509870522027 -0.04398889074869847
0.5326765269070357 -0.12028646414992798 -0.04398889074869847
0.4911880573166843 -5.78801194062941E-5 -0.04398889074869847
0.33146207980338394 -0.0530760694954692 -0.04398889074869847
0.2985745959567911 0.04284286438445601 -0.043410089554636676
0.573018970133145 -0.0504714641221909 -0.043410089554636676
0.6376710635098503 0.09832674684722237 -0.043410089554636676
0.7272231842550956 -0.09620833447695619 -0.043410089554636676
0.5695114348971303 0.11557502243026446 -0.041673685972451184
0.7400146906438617 -0.03634871498708245 -0.041673685972451184
0.5548793407112473 -0.18689490556256255 -0.041673685972451184
0.5226632662497662 0.04915179739972989 -0.041673685972451184
0.47809557430700583 0.05940815455850534 -0.041673685972451184
0.3287301381674121 -0.015129863212776061 -0.041673685972451184
0.3223401729849695 -0.061503414881009265 -0.041673685972451184
0.6955974870115577 -0.07729311145501583 -0.04109488477838935
0.7272231842550956 0.02208705356539899 -0.04109488477838935
0.3560842825987738 -0.12689637378611396 -0.04109488477838935
0.2985745959567911 0.02575665313575103 -0.04109488477838935
0.5875353040802153 0.1137112825853857 -0.0393584811962039
0.7263781345117652 -0.05270563673126968 -0.0393584811962039
0.6556486285974104 -0.1337030758282811 -0.0393584811962039
0.5209037106198183 -0.11967293488422248 -0.0393584811962039
0.49391999895265615 -0.0010534181731926115 -0.0393584811962039
0.33143892775562134 -0.06646952912605973 -0.0393584811962039
0.7252552601952852 0.02575665313575103 -0.03877968000214207
0.3138317954322607 -0.0809627110253677 -0.03877968000214207
0.3900599126902028 0.02575665313575103 -0.037853598091643174
0.48448553948944845 -0.013520795893284244 -0.037853598091643174
0.6644927108426751 -0.10498296057893336 -0.037853598091643174
0.7252552601952852 0.04100227658733935 -0.037853598091643174
0.6166142760698813 0.09598839002321247 -0.03704327641995662
0.7345160793002745 -0.03984467419921593 -0.03704327641995662
0.6567483508661278 -0.1329969383715256 -0.03704327641995662
0.5330585356951165 -0.10915032917617848 -0.03704327641995662
0.4926119082540764 -0.005799587964499515 -0.03704327641995662
0.3266001497732646 -0.0695603275023498 -0.03704327641995662
0.6954585747249827 -0.126699581380133 -0.03646447522589479
0.6474412276656141 0.09906761237562142 -0.03646447522589479
0.6833616297690905 -0.0809627110253677 -0.03553839331539589
0.7626805454033226 -0.01998021721901426 -0.03553839331539589
0.47207604188876295 -0.11145395792854451 -0.03553839331539589
0.314919941677097 0.04100227658733935 -0.03553839331539589
0.5665016686880086 0.10799272678805473 -0.03472807164370934
0.7404082754558237 -0.049626414378860714 -0.03472807164370934
0.6657081933502048 -0.12588925970844636 -0.03472807164370934
0.5332321760533351 0.03802723844986169 -0.03472807164370934
0.4928087006600574 -0.009029298627364441 -0.03472807164370934
0.32664645386878943 -0.07417916103096317 -0.03472807164370934
0.6893464341156897 0.010511029684162544 -0.03414927044964751
0.6644927108426751 -0.1479763132738455 -0.03414927044964751
0.7102411572213215 0.05624790003892783 -0.033223188539148574
0.6833616297690905 -0.09074445120501265 -0.033223188539148574
0.5499595305617216 -0.0504714641221909 -0.033223188539148574
0.2985745959567911 -0.11145395792854451 -0.033223188539148574
0.693027609709923 0.04874663656388666 -0.03241286686746202
0.7460805271576296 -0.05032097581173493 -0.03241286686746202
0.6787891003360024 -0.10269090785044863 -0.03241286686746202
0.492299355609283 0.057613870856913676 -0.03241286686746202
0.3618028383961046 0.040539235632089984 -0.03241286686746202
0.3221318045551072 -0.11413959546899136 -0.03241286686746202
0.6594224123826937 -0.15202792163227838 -0.031834065673400226
0.6797383342942637 -0.1572024043071911 -0.03090798376290129
0.4815336533997332 -0.04617675926225224 -0.03090798376290129
0.3827554416211426 0.05866728903010628 -0.03090798376290129
0.33721536367235844 -0.1080390308835799 -0.030097662091214738
0.3220739244357011 -0.11386177089584183 -0.030097662091214738
0.4894400777106176 0.05438416019404875 -0.030097662091214738
0.6646895032486562 0.05678039713746462 -0.030097662091214738
0.7162722656634459 -0.06737245898879621 -0.030097662091214738
0.6926919050173672 -0.11351449017940472 -0.030097662091214738
0.729167956267143 -0.041511621638114046 -0.030097662091214738
0.6654072167292929 0.08675072296598593 -0.02859277898665401
0.6773768254224913 -0.1419567808556026 -0.02859277898665401
0.46003697705227714 0.08675072296598593 -0.02859277898665401
0.33084855053767825 0.03923114493351027 -0.027782457314967455
0.3363471618812657 -0.1098448906090527 -0.027782457314967455
0.49247299596750155 -0.019748696741389415 -0.027782457314967455
0.48390673829538666 -0.12609762813830863 -0.027782457314967455
0.7045689055195156 -0.09202938985582979 -0.027782457314967455
0.7014318030477007 0.022191237780330123 -0.027782457314967455
0.7005172971610829 -0.1060479547760071 -0.027782457314967455
0.7150104790603911 -0.0971228403635738 -0.027782457314967455
0.6654072167292929 -0.1572024043071911 -0.026277574210406728
0.6850170011841074 0.061503414881009105 -0.026277574210406728
0.5505036036841398 0.04611887914284594 -0.026277574210406728
0.6173088375027554 -0.16376600984785208 -0.025467252538720175
0.6901914838590201 0.03615192258110131 -0.025467252538720175
0.679553117912164 0.037795717972237006 -0.025467252538720175
0.6921825599665927 0.019274079762258593 -0.025467252538720175
0.4847749400864794 -0.11337557789282988 -0.025467252538720175
0.4935148381168129 -0.02948413282550936 -0.025467252538720175
0.33138104763621523 0.005869044107786772 -0.025467252538720175
0.6773768254224913 0.08675072296598593 -0.024888451344658342
0.7427466322798334 -0.06872685378290092 -0.02396236943415945
0.5577733466815564 -0.0796893483984317 -0.02396236943415945
0.3138317954322607 0.02575665313575103 -0.02396236943415945
0.684646568419908 -0.11025005144489593 -0.023152047762472892
0.7367965560048781 -0.05697718954344592 -0.023152047762472892
0.7644748291049144 -0.050239943644566215 -0.023152047762472892
0.5338109772473969 -0.08797778149739709 -0.023152047762472892
0.4795541533160417 0.059975379728685996 -0.023152047762472892
0.34169528491439694 0.0399488584141469 -0.023152047762472892
0.6907008289097946 -0.1270121340249264 -0.022573246568411063
0.3138317954322607 -0.11145395792854451 -0.021647164657912124
0.573018970133145 -0.11145395792854451 -0.021647164657912124
0.7267485672759649 -0.09620833447695619 -0.021647164657912124
0.7428392404708835 -0.03552681729151468 -0.02083684298622557
0.7481063313368461 -0.03609404246169535 -0.02083684298622557
0.673105272610315 0.06395753194383128 -0.02083684298622557
0.5275599243515293 0.04327117726806183 -0.02083684298622557
0.33125371137352166 -0.07457274584292527 -0.02083684298622557
0.3309527347526094 0.028419138628435456 -0.02083684298622557
0.38260495331068645 0.05624790003892783 -0.019331959881664845
0.33020029320032906 -0.0480173470593689 -0.019331959881664845
0.5545436360186915 -0.0809627110253677 -0.019331959881664845
0.7559780275760867 -0.0809627110253677 -0.019331959881664845
0.6253078700046899 -0.1546325270055565 -0.018521638209978288
0.7376531817720894 -0.03549208921987097 -0.018521638209978288
0.6747606440253319 -0.137222187088177 -0.018521638209978288
0.5343203222981713 0.04156950175752001 -0.018521638209978288
0.4919173468212022 -0.00880935417362105 -0.018521638209978288
0.32315049465665613 -0.11755452251395612 -0.018521638209978288
0.7073008471554876 0.05624790003892783 -0.01794283701591646
0.34432304233543753 -0.05275194082679451 -0.01701675510541756
0.43579678304496794 0.08675072296598593 -0.01701675510541756
0.7254867806729101 0.027388872503005427 -0.01701675510541756
0.6834658139840218 -0.11196330297931904 -0.01620643343373101
0.735870474094379 -0.02801397779259222 -0.01620643343373101
0.6924488085158611 -0.11592230314670189 -0.01620643343373101
0.5348180913250645 0.036973820276669074 -0.01620643343373101
0.5460468344898638 0.040458203464921266 -0.01620643343373101
0.32166876359985785 -0.09208726997523607 -0.01620643343373101
0.7102411572213215 0.04732278562649452 -0.01562763223966918
0.33020029320032906 -0.00936500331992042 -0.014701550329170282
0.5549024927590099 -0.09620833447695619 -0.014701550329170282
0.7132856515020868 -0.10515660093715191 -0.014701550329170282
0.6402409408114849 0.07854332203418925 -0.013891228657483727
0.631524194828914 0.09310596007678465 -0.013891228657483727
0.5005993647321295 -0.05359699057012486 -0.013891228657483727
0.4954480341049794 0.05312237359099404 -0.013891228657483727
0.34058398662179823 -0.10557333779687644 -0.013891228657483727
0.37527733019386383 0.05441888826569246 -0.013891228657483727
0.2985745959567911 -0.0504714641221909 -0.012386345552923
0.3824313129524679 -0.126699581380133 -0.012386345552923
0.6913375102232624 -0.10397584650126575 -0.011576023881236446
0.7097433881944283 0.014678398281407823 -0.011576023881236446
0.7369933484108591 -0.06585599986035423 -0.011576023881236446
0.49586477096470394 -0.1190362535707544 -0.011576023881236446
0.48163783761466433 0.03858288759616106 -0.011576023881236446
0.32256011743871305 -0.08988782543780101 -0.011576023881236446
0.32271060574916915 0.04718387333991968 -0.011576023881236446
0.3900599126902028 0.03917326481410414 -0.01007114077667568
0.54413679054946 0.06712936248729007 -0.01007114077667568
0.6683938308906517 -0.12386345552923 -0.009260819104989125
0.7367155238377094 -0.0422409111426318 -0.009260819104989125
0.751637018620623 -0.050019999190822825 -0.009260819104989125
0.5330238076234728 0.0507840167669843 -0.009260819104989125
0.330640182107816 -0.09921810068607773 -0.009260819104989125
0.32922790719430517 0.02301313547589805 -0.009260819104989125
0.2985745959567911 -0.09620833447695619 -0.0077559360004283975
0.5420068021553125 -0.13805566080762588 -0.0077559360004283975
0.7444020036948502 -0.06915516666650658 -0.0077559360004283975
0.49430200774073696 0.058401040480837725 -0.006945614328741843
0.6917773991307494 0.038976472408123 -0.006945614328741843
0.7104726776989464 -0.10463567986249625 -0.006945614328741843
0.5452712408898209 -0.11155814214347565 -0.006945614328741843
0.33661341043053405 -0.11946456645436021 -0.006945614328741843
0.7390654566856004 0.02575665313575103 -0.006366813134680013
0.551487565714045 -0.13115635057440908 -0.005440731224181117
0.7432212492589644 -0.0809627110253677 -0.005440731224181117
0.6807454483719311 -0.11684838505720078 -0.0046304095524945625
0.6771568809687477 0.04712599322051355 -0.0046304095524945625
0.7308812078015663 -0.02714577600149962 -0.0046304095524945625
0.5437895098330228 -0.10218156279967426 -0.0046304095524945625
0.3754509705520824 -0.11783234708710581 -0.0046304095524945625
0.7551908579521628 -0.0809627110253677 -0.004051608358432731
0.5008887653291605 0.06547399107227325 -0.0031255264479338354
0.573018970133145 -0.03522584067060258 -0.0031255264479338354
0.7100906689108655 -0.08451655035690732 -0.0023152047762472813
0.6933980424741227 -0.1042073669788906 -0.0023152047762472813
0.7510234893549176 -0.02351090450279129 -0.0023152047762472813
0.5484430714332797 0.040458203464921266 -0.0023152047762472813
0.3392064397799311 -0.11048157192252077 -0.0023152047762472813
0.32478271402391035 0.025745077111869737 -0.0023152047762472813
0.7521579396952789 -0.004734593767425776 -8.103216716865546E-4
0.5577733466815564 -0.0504714641221909 -8.103216716865546E-4
0.3139938597665981 -0.11145395792854451 -8.103216716865546E-4
0.7047193938299717 0.02018858564887636 0.0
0.7328375558374951 -0.04049293153656514 0.0
0.5312642519935249 0.039092232646935426 0.0
0.49391999895265615 -0.1318740640550457 0.0
0.3659123268739436 0.04217145499934438 0.0
0.49159321815252766 0.06856478944856333 0.0015048831045607676
0.43579678304496794 0.08675072296598593 0.0015048831045607676
0.7405819158140424 -0.0507840167669843 0.002315204776247322
0.7502131676832311 -0.03303797215704898 0.002315204776247322
0.6889181212320842 -0.09415937824997726 0.002315204776247322
0.49386211883325 -0.12459274503374794 0.002315204776247322
0.3245859216179294 -0.11904782959463568 0.002315204776247322
0.9236914615674403 -0.03522584067060258 0.0038200878808080487
0.5566967764606012 0.02575665313575103 0.0038200878808080487
0.7183212218904247 0.010175324991606729 0.004630409552494603
0.7501321355160624 -0.022144933684805447 0.004630409552494603
0.49119963334056554 0.05686142930463333 0.004630409552494603
0.5489987205795791 -0.09845408310991609 0.004630409552494603
0.3299919247704668 0.0380619665215054 0.004630409552494603
0.7223612542249761 -0.07082211410540469 0.0069456143287418845
0.7128804906662436 -0.09822256263229125 0.0069456143287418845
0.4944640720750742 0.061584447048177816 0.0069456143287418845
0.33190196871087085 -0.11070151637626417 0.0069456143287418845
0.3367060186215839 0.03367465347051673 0.0069456143287418845
0.573018970133145 -0.0504714641221909 0.007454959379516294
0.312373216423225 -0.10743707764175553 0.007454959379516294
0.7163648738544957 -0.07105363458302937 0.009260819104989165
0.53655449490725 0.04199781464112583 0.009260819104989165
0.49557537036767296 -0.12938521892057983 0.009260819104989165
0.32102050626250866 -0.11515828557054025 0.009260819104989165
0.573018970133145 -0.1572024043071911 0.011101406902105789
0.2985745959567911 0.04100227658733935 0.011101406902105789
0.7365881875750159 -0.054442040313455044 0.011576023881236446
0.7164922101171891 -0.0045841054569696425 0.011576023881236446
0.5415784892717066 -0.12679218957118282 0.011576023881236446
0.3601474669810878 -0.12125885015595188 0.011576023881236446
0.7444367317664942 -0.027631969004511404 0.013891228657483769
0.7386371438019946 -0.002847701874784274 0.013891228657483769
0.5372259042923617 -0.11065521228073932 0.013891228657483769
0.32188870805360126 -0.09836147491886608 0.013891228657483769
0.3205343132594967 0.03244759493910573 0.013891228657483769
0.4815336533997332 0.02575665313575103 0.014736278400813993
0.7520884835519914 -0.03690436413338182 0.01620643343373105
0.5425508752777305 0.03986782624697819 0.01620643343373105
0.33872024677691914 -0.11094461287777015 0.01620643343373105
0.3294015475525237 0.028442290676197874 0.01620643343373105
0.5501447469438216 -0.13642344144037163 0.01852163820997833
0.2985745959567911 -0.06571708757377938 0.01852163820997833
0.5352116761370265 0.05164064253419577 0.01852163820997833
0.5256961845066502 -0.11680208096167578 0.01852163820997833
0.3390675274933562 -0.09988951007118935 0.01852163820997833
0.7528409251042718 -0.049973695095297824 0.020836842986225613
0.5261244973902559 0.041905206450075824 0.020836842986225613
0.33789834908135136 -0.11106037311658257 0.020836842986225613
0.37057746449808177 0.042981776671030855 0.020836842986225613
0.573018970133145 -0.06571708757377938 0.022006021398230484
0.2985745959567911 -0.11145395792854451 0.022006021398230484
0.533081687742879 0.039798370103690764 0.023152047762472892
0.5263097137723557 -0.11247264803009341 0.023152047762472892
0.3299224686271794 0.033362100825723336 0.023152047762472892
0.2985745959567911 0.02575665313575103 0.025467252538720214
0.2985745959567911 -0.06571708757377938 0.025467252538720214
0.49526281772287956 0.062116944146714766 0.025467252538720214
0.32966779610179225 -0.10875674436421653 0.025467252538720214
0.32158773143268915 0.022851071141560625 0.025467252538720214
0.4883982355613063 0.04448665977559154 0.027782457314967497
0.5508161563289333 -0.09845408310991609 0.027782457314967497
0.3293899715286426 0.040608691775377403 0.027782457314967497
0.3553434170703746 -0.13007978035345405 0.029287340419528223
0.3900599126902028 0.02575665313575103 0.029287340419528223
0.49801791140661383 0.05441888826569246 0.030097662091214776
0.33564102442451016 -0.10953233796425929 0.030097662091214776
0.34031773807252963 0.04099070056345822 0.030097662091214776
0.4963972680632407 0.049927390999772656 0.03241286686746206
0.54619732280032 -0.13130683888486505 0.03241286686746206
0.3237987519940053 -0.1197886951230349 0.03241286686746206
0.43579678304496794 -0.1572024043071911 0.032922211918236466
0.4815336533997332 0.03242444289134314 0.032922211918236466
0.5433959250210608 0.04264607197847504 0.03472807164370934
0.5315420765666746 -0.13136471900427135 0.03472807164370934
0.36301832090363445 0.042622919930712454 0.03472807164370934
0.5605284403652907 -0.09620833447695619 0.03656865944082596
0.2985745959567911 -0.0504714641221909 0.03656865944082596
0.529701488769558 0.027956097673185926 0.03704327641995666
0.34013252169042996 -0.11166232635840677 0.03704327641995666
0.33422874951099935 0.031162656288288435 0.03704327641995666
0.5472507409735126 0.03711273256324392 0.03935848119620394
0.4950544492930173 -0.13010293240121648 0.03935848119620394
0.36502097303508824 0.04303965679043698 0.03935848119620394
0.2985745959567911 0.07150509951439744 0.04020353093953421
0.34432304233543753 -0.01998021721901426 0.04020353093953421
0.5300603455098764 0.04036559527387143 0.041673685972451226
0.36263631211555364 -0.11302829717639278 0.041673685972451226
0.3211594185490835 0.019922337099607803 0.041673685972451226
0.573018970133145 -0.11145395792854451 0.0439888907486985
0.3093750262379848 -0.0809627110253677 0.0439888907486985
0.49361902233174404 0.0596628270838926 0.0439888907486985
0.3226758776775255 -0.09638197483517474 0.0439888907486985
0.335536840209579 0.03412611840188497 0.0439888907486985
0.5487903521497168 0.042622919930712454 0.046304095524945785
0.32919317912266144 -0.10058407150406357 0.046304095524945785
0.32451646547464197 0.030086086067333404 0.046304095524945785
0.5498784983945529 0.08675072296598593 0.0474732739369507
0.8322061448340288 -0.0504714641221909 0.0474732739369507
0.5400157260477398 -0.11065521228073932 0.04861930030119311
0.33380043662739367 -0.1006419516234697 0.04861930030119311
0.31927252665644185 0.02713419997761816 0.04861930030119311
0.3871659067198937 -0.13453654954772998 0.05093450507744039
