0.03576782632404781 0.25736517852658536 -0.1362848747961385
0.543711752877166 0.27384915862097536 -0.1362848747961385
0.4785082478131358 0.22912546909603854 -0.13582132080023324
0.49648487177434064 0.23819258525594483 -0.13507963440678486
0.4375578878148675 0.4939075115571076 -0.13443065881251753
0.4593541967023315 0.25930283422946915 -0.13443065881251753
0.48174385470455416 0.25053239262694216 -0.13443065881251753
0.6692885303678935 0.25205284973351133 -0.13443065881251753
0.40167880853180254 0.49705040764934505 -0.13443065881251753
-0.09043938460111091 0.3747370502897903 -0.13443065881251753
0.6685561150543631 0.24847421288512297 -0.13443065881251753
0.02411407886699021 0.2414560053871177 -0.13443065881251753
-0.0909029385970161 0.46549165160811684 -0.13443065881251753
-0.06604717333657754 0.48827069496689995 -0.13443065881251753
0.48607344902630917 0.4775996819811615 -0.13443065881251753
0.4758381767967218 0.5193195416126324 -0.1339671048166123
0.5093902150203425 0.22894931857759449 -0.13322541842316393
0.18114763051984695 0.5342088959611087 -0.13322541842316393
0.5745010092851915 0.2592564788298787 -0.1325764428288966
0.6838812101589903 0.47848043457338146 -0.1325764428288966
0.6363205701791131 0.24946621843636016 -0.1325764428288966
0.6855592756241671 0.2555851311823092 -0.1325764428288966
0.4029767597203372 0.4995999546268239 -0.1325764428288966
0.09055990864004632 0.5008144660960956 -0.1325764428288966
0.3723821959905917 0.24868744772323936 -0.1325764428288966
-0.09050428216053769 0.45244724216334364 -0.1325764428288966
0.5699952644449925 0.5097796003769027 -0.1325764428288966
0.4014006761342594 0.24279104089532483 -0.1325764428288966
0.14886573024500652 0.25220118701220107 -0.1325764428288966
0.6833713007634945 0.2597385749856202 -0.1325764428288966
0.4891050921595294 0.47715467014509244 -0.1325764428288966
0.18114763051984695 0.21673003524553255 -0.13211288883299138
0.5141833633380026 0.5219988837089647 -0.13211288883299138
0.5765962733466832 0.49470482443006475 -0.13072222684527568
0.47501305068401023 0.2504489529076792 -0.13072222684527568
0.6595168121342111 0.2516356511371966 -0.13072222684527568
0.4804180902762655 0.5053851084957212 -0.13072222684527568
0.38000302368327377 0.4973192689669701 -0.13072222684527568
0.3858808883513521 0.25168200653678724 -0.13072222684527568
-0.08833484945970112 0.4574907096387925 -0.13072222684527568
0.5696615055679407 0.5145727486945627 -0.13072222684527568
0.48381130552629165 0.24606373210641572 -0.13072222684527568
0.6787357608044422 0.259553153387258 -0.13072222684527568
0.4909129527435597 0.4908944105837236 -0.13072222684527568
0.2169988965631577 0.2534805960408994 -0.13072222684527568
0.049720801600795284 0.4997482919055135 -0.13072222684527568
0.49501077006736205 0.22894004749767646 -0.13025867284937045
0.4594932629011032 0.25590961897944287 -0.12886801086165475
0.6412435136156268 0.25906178615159847 -0.12886801086165475
0.6379337380848634 0.2509774044630112 -0.12886801086165475
0.6746842988802303 0.2526925542478606 -0.12886801086165475
0.4401537901919368 0.4975417748850046 -0.12886801086165475
-0.08621177215845516 0.4082890885134111 -0.12886801086165475
0.6753054612347433 0.24904901984004546 -0.12886801086165475
-0.017726304803416033 0.24801065888921778 -0.12886801086165475
0.07188795368498357 0.5089822875039458 -0.12886801086165475
0.4884561165652621 0.2562341067765766 -0.12886801086165475
0.6832322345647228 0.25749497364543883 -0.12886801086165475
0.56125263608222 0.49616038397720696 -0.12886801086165475
-0.06244072324843487 0.2760742178013206 -0.12886801086165475
-0.10422548043933248 0.38040168011975234 -0.1284044568657495
0.533365227688561 0.5219988837089647 -0.1284044568657495
0.5635982193015003 0.4676054578294447 -0.12701379487803383
0.6372384070910057 0.25128335010030867 -0.12701379487803383
0.6503384430152874 0.4982649191186168 -0.12701379487803383
0.6142646710539423 0.49759740136451325 -0.12701379487803383
0.06221821733040035 0.2486503634035669 -0.12701379487803383
0.5756877075147088 0.2543984329527918 -0.12701379487803383
0.550813400094434 0.504300392145303 -0.12701379487803383
0.4140186159027997 0.2426612457764714 -0.12701379487803383
-0.0932763350560509 0.4085023233515275 -0.12701379487803383
0.5571548187584177 0.25011519403062743 -0.12701379487803383
0.5298700305594355 0.2550010531474686 -0.12701379487803383
0.4963458055755692 0.5040871573071867 -0.12701379487803383
-0.06219040409064604 0.28770015201862376 -0.12701379487803383
-0.06355325283860734 0.27095658168652675 -0.12701379487803383
-0.043370111856893566 0.4837649501267012 -0.12701379487803383
0.37978051776523924 0.30632575157409603 -0.1251595788944129
0.48312524561235176 0.24568361782977347 -0.1251595788944129
0.4268219772697024 0.24911391739947222 -0.1251595788944129
0.6367470398553462 0.49944234626821615 -0.1251595788944129
0.6379430091647816 0.49888608147312985 -0.1251595788944129
0.37420859873445833 0.49622528153663376 -0.1251595788944129
0.3761926098369327 0.48804818904886543 -0.1251595788944129
-0.08285564122810131 0.4613660210445602 -0.1251595788944129
0.5188652586966455 0.5147118148933345 -0.1251595788944129
0.49462138471080164 0.25510303502656784 -0.1251595788944129
0.5505167255370546 0.25586326357985234 -0.1251595788944129
0.5113556839629806 0.4969855100899183 -0.1251595788944129
0.19451652776175393 0.2535084092806537 -0.1251595788944129
-0.08478402585106706 0.43317266701360396 -0.1251595788944129
0.046095809352816444 0.25714267260855084 -0.1251595788944129
0.01334108400215267 0.2526925542478606 -0.1251595788944129
0.6408819414988208 0.4901990795898657 -0.12330536291079194
0.5605758472481982 0.2693434137807766 -0.12330536291079194
0.6846043543926023 0.2617596704077669 -0.12330536291079194
0.46427714013884513 0.49773646756328493 -0.12330536291079194
-0.07930481761946727 0.2937263539653918 -0.12330536291079194
0.5932842171992714 0.2559930586987058 -0.12330536291079194
0.5508968398136969 0.5113464128830625 -0.12330536291079194
0.5752241535188037 0.5111146358851097 -0.12330536291079194
0.5563204215657882 0.25460239671099016 -0.12330536291079194
0.5521020802030507 0.49356448160013766 -0.12330536291079194
-0.03597179008224603 0.2740902066988461 -0.12330536291079194
0.03235606891418535 0.25254421696917084 -0.12330536291079194
0.25348986712081756 0.4946491979505561 -0.12330536291079194
0.5931358799205818 0.4898375074730596 -0.12145114692717102
0.5616049371191077 0.25214556053269244 -0.12145114692717102
0.6883591417594346 0.2705764674098845 -0.12145114692717102
0.47596797191557505 0.49854305151615996 -0.12145114692717102
-0.08591509760107584 0.3028954520043974 -0.12145114692717102
0.6736088536097303 0.26537539157582773 -0.12145114692717102
0.6754723406732692 0.5003045567005998 -0.12145114692717102
0.6823514819725028 0.24733387005519605 -0.12145114692717102
-0.07952732353750179 0.4091883832654672 -0.12145114692717102
-0.004654082118888496 0.25963659310652093 -0.12145114692717102
-0.07508647625672966 0.296312985262543 -0.12145114692717102
-0.025078271178473086 0.48860445384395174 -0.12145114692717102
0.5258185686352239 0.4922665304116032 -0.12145114692717102
0.18114763051984695 0.5342088959611087 -0.11978235254191218
0.4263676943537152 0.25030061562898964 -0.11959693094355009
0.4268868748291292 0.25006883863103696 -0.11959693094355009
0.6383138523615057 0.4983854431575522 -0.11959693094355009
0.6383138523615057 0.4983854431575522 -0.11959693094355009
0.3685995953840051 0.4966888355325391 -0.11959693094355009
0.42066598020408075 0.49349958404071087 -0.11959693094355009
-0.0894195658101194 0.3053244749429408 -0.11959693094355009
-0.05725818957421439 0.48200344494226116 -0.11959693094355009
0.5262357672315385 0.2651992410573838 -0.11959693094355009
0.04750501350036836 0.25855187675610275 -0.11959693094355009
-0.07397394666655707 0.44683823881289025 -0.11959693094355009
-0.07685725252108755 0.30449007775031134 -0.11959693094355009
-0.01835673823784713 0.47908305476805824 -0.11959693094355009
0.5762161590700409 0.2583664551577406 -0.11774271495992916
0.6366543290561649 0.2514131452191621 -0.11774271495992916
0.6691031087695313 0.2528501626064683 -0.11774271495992916
0.42410555085369767 0.4969855100899183 -0.11774271495992916
-0.08972551144741686 0.3747370502897903 -0.11774271495992916
0.6876267264459045 0.26964935941807394 -0.11774271495992916
0.5613082625617286 0.5072485955592602 -0.11774271495992916
0.6938847053906251 0.34326173396782506 -0.11774271495992916
0.5129595807888128 0.252553488049089 -0.11774271495992916
-0.08195634647604522 0.43626920770625094 -0.11774271495992916
0.06214404869105555 0.25286870476630463 -0.11774271495992916
-0.07249984495957837 0.31997278121354616 -0.11774271495992916
-0.01843090687719206 0.48344973340948555 -0.11774271495992916
0.18114763051984695 0.5219988837089647 -0.11690831776729975
0.588815556678745 0.24759346029290305 -0.11588849897630824
0.6704474153576565 0.25336934308188214 -0.11588849897630824
0.43816050800954426 0.4967908174116382 -0.11588849897630824
0.28685648374607625 0.25289651800605895 -0.11588849897630824
0.473483322497523 0.2553162698646842 -0.11588849897630824
-0.09127378179374035 0.3747370502897903 -0.11588849897630824
-0.09084731211750748 0.4264696762328143 -0.11588849897630824
-0.06176393441441316 0.41870051126144264 -0.11588849897630824
0.05017508451678247 0.4911818140611849 -0.11588849897630824
-0.07028405685915144 0.3191847394205072 -0.11588849897630824
-0.026598728285042263 0.4773030074237822 -0.11588849897630824
0.012812632446820686 0.264151609026638 -0.11588849897630824
0.4327461973373711 0.25030061562898964 -0.11403428299268728
0.6677680732613244 0.2525164037294165 -0.11403428299268728
0.42885234377176723 0.49920129819034537 -0.11403428299268728
-0.08101996740431652 0.32573012184268907 -0.11403428299268728
0.6862360644581887 0.2678414988340436 -0.11403428299268728
0.03224481595516809 0.4988304549936212 -0.11403428299268728
0.07599504208870392 0.5057652227723635 -0.11403428299268728
0.08535883280598967 0.25373091519868823 -0.11403428299268728
0.06265395808655137 0.4947326376698189 -0.11403428299268728
-0.05583044326682617 0.4513810679727615 -0.11403428299268728
0.007769164971371779 0.48114123450987756 -0.11403428299268728
0.38090231843533 0.26050807461882286 -0.11218006700906635
0.6374052865295315 0.2514038741392441 -0.11218006700906635
0.48686149081934815 0.5017230319280698 -0.11218006700906635
-0.06253343404761584 0.45655433056706396 -0.11218006700906635
0.6887392560360771 0.2665064633258365 -0.11218006700906635
0.36930419745778104 0.4996926654260049 -0.11218006700906635
0.09192275738800774 0.5049586388194884 -0.11218006700906635
0.3702034922098371 0.44736669036822224 -0.11218006700906635
0.04817253125447179 0.49175662101610734 -0.11218006700906635
0.04937777164382549 0.2647171449016423 -0.11218006700906635
-0.06654781165215522 0.38322935949477416 -0.11218006700906635
0.029259528221538357 0.4843212149217873 -0.11218006700906635
0.380383137959916 0.4604110998129955 -0.11032585102544543
0.6671839952264836 0.25260911452859763 -0.11032585102544543
0.43213430606277614 0.4978848048419745 -0.11032585102544543
0.0935637385335122 0.2534156984814728 -0.11032585102544543
0.5040686151473504 0.25487125802861516 -0.11032585102544543
-0.07796978211126016 0.40050138138220315 -0.11032585102544543
-0.06347908419926254 0.28639292975017105 -0.11032585102544543
0.007138731536940683 0.2706784492889836 -0.11032585102544543
-0.04758845321963117 0.4146954047368214 -0.11032585102544543
-0.06181956089392179 0.4289543256508664 -0.11032585102544543
0.22566735628658557 0.4942598125939957 -0.11032585102544543
0.6833434875237401 0.30403579483432414 -0.1084716350418245
0.46630750664091 0.2524515061699899 -0.1084716350418245
0.43331173321237554 0.4978106362026296 -0.1084716350418245
0.6762603824663083 0.25413884271508497 -0.1084716350418245
0.3758681220397991 0.2510979285019466 -0.1084716350418245
0.6736366668494845 0.4845251786799857 -0.1084716350418245
0.6403813031832432 0.24342147432975592 -0.1084716350418245
0.25644734161469296 0.2592472077499605 -0.1084716350418245
-0.010893518903772948 0.47103575739914344 -0.1084716350418245
-0.03091905152687898 0.42565382120002115 -0.1084716350418245
-0.048255970973734734 0.3177013666336105 -0.1084716350418245
0.02856419722768048 0.26760972183609094 -0.1084716350418245
0.44014451911201863 0.2508383382642396 -0.10661741905820357
0.5041335127067771 0.4978755337620564 -0.10661741905820357
0.6383787499209325 0.4978755337620564 -0.10661741905820357
0.3741158879352774 0.4942319993542412 -0.10661741905820357
0.3865947615050462 0.25621556461674033 -0.10661741905820357
-0.06641801653330179 0.3507156822219811 -0.10661741905820357
0.2865412670288607 0.24660145474166587 -0.10661741905820357
0.10117529514627611 0.258755840514301 -0.10661741905820357
-0.059900447350874186 0.4019013144498369 -0.10661741905820357
0.026607999364960413 0.47736790498320886 -0.10661741905820357
0.021397652450985617 0.2779284337849414 -0.10661741905820357
0.58199204185902 0.4901619952701934 -0.10476320307458262
0.41593772944584745 0.4969947811698364 -0.10476320307458262
0.6343087458368846 0.2500224832314465 -0.10476320307458262
0.09143139015234823 0.49146921753864603 -0.10476320307458262
0.39284346936984876 0.25608576949788686 -0.10476320307458262
-0.06319168072180138 0.3748019478492171 -0.10476320307458262
0.2178981913152138 0.24658291258182957 -0.10476320307458262
0.024308771545270415 0.44361190300138986 -0.10476320307458262
-0.018060063680467812 0.44806202136208 -0.10476320307458262
0.06213477761113741 0.26722033647953053 -0.10476320307458262
-0.02689540284242158 0.30363713839784573 -0.10476320307458262
-0.030455497530973773 0.44395493295835964 -0.10476320307458262
0.5929411872423017 0.48919780295871046 -0.10290898709096169
0.42627498355453425 0.49705040764934505 -0.10290898709096169
0.6263078038675602 0.25108865742202846 -0.10290898709096169
-0.03809486738349199 0.4383366585279883 -0.10290898709096169
0.40131723641499645 0.49321218056324984 -0.10290898709096169
0.39976896606867296 0.25043041074784306 -0.10290898709096169
0.3705743354065614 0.3733742015418289 -0.10290898709096169
0.047634808619221786 0.27352467082384174 -0.10290898709096169
0.11668581184926523 0.26176894148768504 -0.10290898709096169
0.00480241939757822 0.4153351092511707 -0.10290898709096169
0.11656528781032995 0.48781641205091286 -0.10290898709096169
-0.05066645175244199 0.3681174992282636 -0.10290898709096169
0.6395005505910233 0.4892997848378096 -0.10105477110734076
0.4270444831877369 0.4968000884915564 -0.10105477110734076
0.6122899310313861 0.2523217110511363 -0.10105477110734076
-0.013146391323872334 0.2840102622112181 -0.10105477110734076
0.3779263017816184 0.25917303911061573 -0.10105477110734076
-0.03262493023181021 0.4342017568845136 -0.10105477110734076
0.42667363999101254 0.245118081954769 -0.10105477110734076
-0.021397652450985485 0.2965633044203318 -0.10105477110734076
-0.002651528856577945 0.46801338534584125 -0.10105477110734076
-0.013415252641497467 0.39671878077561645 -0.10105477110734076
0.03103030448589637 0.2848261172440113 -0.10105477110734076
0.055116570113132264 0.3452921004698899 -0.10105477110734076
0.13241883447028885 0.2411593308297384 -0.09984953071798718
0.5568766863608745 0.49839471423747034 -0.09920055512371985
0.36767248739219455 0.49366646347923676 -0.09920055512371985
0.618844584533486 0.24860400800397642 -0.09920055512371985
0.6600452636895432 0.4933697889218576 -0.09920055512371985
-0.03510957964986227 0.39631085325921983 -0.09920055512371985
0.060428898906206174 0.32596189884064175 -0.09920055512371985
-0.007351966375056922 0.35088256166050696 -0.09920055512371985
0.0903837581216024 0.30180146457406093 -0.09920055512371985
0.05928855607627939 0.4802790240774938 -0.09920055512371985
-0.0035693657684702095 0.4259412246774823 -0.09920055512371985
0.1487173929663168 0.5074432882375405 -0.09799531473436625
0.4665300125589445 0.49622528153663376 -0.09734633914009892
-0.01734619052677377 0.34875021327934297 -0.09734633914009892
0.6844189327942403 0.25290578908597694 -0.09734633914009892
0.6844745592737489 0.4965034139341769 -0.09734633914009892
0.28192426922964464 0.2495682003154593 -0.09734633914009892
0.015056233787002054 0.2896192655616715 -0.09734633914009892
0.028499299668253705 0.46723461463272054 -0.09734633914009892
0.12165511068536933 0.4848496664771193 -0.09734633914009892
0.030446226451055755 0.28091372151857114 -0.09734633914009892
0.3665692288819401 0.2597014906659477 -0.09734633914009892
0.6820548074151237 0.4925446628091463 -0.09549212315647795
-0.004264696762328085 0.3239778877381672 -0.09549212315647795
0.37764816938407525 0.2603968216598056 -0.09549212315647795
0.688906135474603 0.49662393797311233 -0.09549212315647795
0.2682772395901945 0.48844684548534395 -0.09549212315647795
-0.003940208965194454 0.3640382240642976 -0.09549212315647795
0.11482232478572625 0.2638178501495862 -0.09549212315647795
0.08557206764410603 0.35088256166050696 -0.09549212315647795
0.0989409648860129 0.47347405141760485 -0.09549212315647795
0.37130675072009156 0.26518069889754753 -0.09549212315647795
0.6824349216917659 0.48102071047094214 -0.09363790717285704
0.6838719390790722 0.2536382043995073 -0.09363790717285704
0.6541303147017924 0.4929804035652972 -0.09363790717285704
0.057953520568072264 0.276732464475506 -0.09363790717285704
0.10747962949058734 0.49206256665340464 -0.09363790717285704
0.12936864917723248 0.26559789749386226 -0.09363790717285704
0.04320323241836768 0.3471277742936746 -0.09363790717285704
0.08693491639206748 0.4759216165159846 -0.09363790717285704
0.1293501070173962 0.4839596428049812 -0.09363790717285704
0.13546901976334536 0.24732459897527806 -0.0931743531769518
0.6759451657490925 0.26074912269669354 -0.09178369118923611
0.6861155404192534 0.484812582157447 -0.09178369118923611
0.3669493431585824 0.2591915812704519 -0.09178369118923611
0.6903616950217453 0.2815441549530022 -0.09178369118923611
0.12895145058091775 0.4788327356102694 -0.09178369118923611
0.1373695911465568 0.26550518669468126 -0.09178369118923611
0.06308969884270227 0.4236419968577923 -0.09178369118923611
0.055524497629528845 0.3457556544657951 -0.09178369118923611
0.18114763051984695 0.2411593308297384 -0.09057845079988251
0.38207974558492924 0.4882057974074733 -0.08992947520561519
0.5299812835184528 0.253081939604421 -0.08992947520561519
0.463637435624496 0.4921552774525859 -0.08992947520561519
0.15183247581880008 0.4901712663501114 -0.08992947520561519
0.15175830717945515 0.49375917427841803 -0.08992947520561519
0.3666155842815306 0.48621251522508074 -0.08992947520561519
0.09161681175071029 0.42150964847662836 -0.08992947520561519
0.1546508841139038 0.5076287098359024 -0.08946592120970995
0.1580626415237664 0.2376455915407767 -0.08872423481626159
0.6673230614252553 0.49599350453868113 -0.08807525922199426
0.4848682086369556 0.2553069987847661 -0.08807525922199426
0.3788163254537564 0.4888733151615767 -0.08807525922199426
0.4759772429954932 0.4981165818399272 -0.08807525922199426
0.3660315062466901 0.26750773995699184 -0.08807525922199426
0.10575520862581982 0.46055016601176707 -0.08807525922199426
0.1450553163986655 0.22894004749767646 -0.08761170522608902
0.14812404385155817 0.26330794075409036 -0.0862210432383733
0.13927943360968625 0.2574486182458483 -0.0862210432383733
0.11347801819760112 0.28507643640180014 -0.0862210432383733
0.36264756207658183 0.2648932954200863 -0.0862210432383733
0.5372312680144107 0.4929340481657067 -0.0862210432383733
0.667128368746975 0.2610272550942367 -0.0862210432383733
0.16423718074922405 0.49914567171083674 -0.0857574892424681
0.638508545039786 0.25750424472535693 -0.08436682725475238
0.6839275655585808 0.31457701270120914 -0.08436682725475238
0.36700496963809104 0.263892018788931 -0.08436682725475238
0.2859201046743477 0.2549546977478781 -0.08436682725475238
0.11100263985946707 0.4646850676552417 -0.08436682725475238
0.10927821899469967 0.3203250822504341 -0.08436682725475238
0.16423718074922405 0.24932715223758858 -0.08390327325884714
0.16261474176355578 0.5136363696228342 -0.08251261127113145
0.36753342119342297 0.4897355255939605 -0.08251261127113145
0.15972216482910714 0.2384243622538975 -0.08251261127113145
0.11850294351321372 0.46437912201794423 -0.08251261127113145
0.6834454694028391 0.4553861744973827 -0.08251261127113145
0.6796535977163344 0.25753205796511125 -0.08065839528751052
0.16141877245412023 0.233770280135009 -0.08065839528751052
0.16156710973280997 0.4871859786164818 -0.08065839528751052
0.11812282923657146 0.46052235277201276 -0.08065839528751052
0.13505182116703063 0.2766861090759154 -0.08065839528751052
0.17334138122880283 0.22118015360622284 -0.0788041793038896
0.12708796351737864 0.26646010792624597 -0.0788041793038896
0.1505252535503473 0.47787781437870464 -0.0788041793038896
0.2409646381514582 0.26780441451437115 -0.0788041793038896
0.13774970542319906 0.2648932954200863 -0.07694996332026864
0.13922380713017776 0.27142013568243195 -0.07694996332026864
0.3616370143655085 0.38651132178578324 -0.07694996332026864
0.13869535557484577 0.4802697529975756 -0.07509574733664771
0.12417684442309385 0.4800843313992136 -0.07509574733664771
0.12147896016692543 0.3045735174695743 -0.07509574733664771
0.3452550161502176 0.26564425289345284 -0.07324153135302679
0.369832649013113 0.2607583937766117 -0.07324153135302679
0.13634050127564715 0.27400676697958326 -0.07324153135302679
0.15311188484749844 0.23925875944652694 -0.07138731536940587
0.13454191177153482 0.2683421371496213 -0.07138731536940587
0.17048588861402666 0.4778500011389503 -0.07138731536940587
0.16332861491724981 0.5294435608832028 -0.06953309938578495
0.11650039025090317 0.4630811708294096 -0.06953309938578495
0.14620493030851056 0.27338560462507017 -0.06953309938578495
0.16332861491724981 0.22150464140335646 -0.06953309938578495
0.2485761947642221 0.26560716857378036 -0.06767888340216398
0.3382646218919666 0.47930556068609276 -0.06767888340216398
0.15339928832495975 0.4769970617864847 -0.06767888340216398
0.15272249949093802 0.2701129134139793 -0.06582466741854306
0.15090536782698954 0.27408093561892805 -0.06582466741854306
0.3370964658222854 0.4787307537311703 -0.06582466741854306
0.2684441190287204 0.2647913135409872 -0.06397045143492214
0.1916703062268958 0.4721390159093979 -0.06397045143492214
0.1615578386528918 0.5256887735163703 -0.06211623545130121
0.34498615483259243 0.2618060258073575 -0.06211623545130121
0.1395575660072294 0.4567768364850985 -0.06211623545130121
0.16076052577993483 0.5148786943318604 -0.06026201946768028
0.36644870484300474 0.26340065155327147 -0.06026201946768028
0.14552814147448886 0.4538193619912231 -0.06026201946768028
0.16617483645210795 0.23383517769443565 -0.05840780348405932
0.12290670647431351 0.42326188258115005 -0.05840780348405932
0.19455361208142627 0.275935151602549 -0.05840780348405932
0.15150798802166632 0.27217109315579846 -0.0565535875004384
0.3596715454228703 0.27459084501442377 -0.0565535875004384
0.1488379170052522 0.29277143273382694 -0.0565535875004384
0.28382484061285607 0.2642814041454914 -0.054699371516817474
0.16216045884756858 0.4656029045671341 -0.054699371516817474
0.3549062103449645 0.46266397223309486 -0.054699371516817474
0.16384779539266364 0.4774884290221442 -0.05284515553319655
0.20895159919424278 0.28116404067635997 -0.05284515553319655
0.1461400327490838 0.42342876201967594 -0.05284515553319655
0.36129398440853855 0.2741180199386004 -0.05099093954957563
0.35942122626508144 0.2928085170534994 -0.05099093954957563
0.17727231911407926 0.2785217828997002 -0.05099093954957563
0.37571051368119135 0.3144194043426014 -0.050712807152032476
0.2834447263362138 0.2703168771721775 -0.049136723565954665
0.27447032097548846 0.47244496154669535 -0.049136723565954665
0.19581447895028858 0.2789389814960149 -0.049136723565954665
0.16634171589063385 0.27913367417429513 -0.04728250758233374
0.16178034457092633 0.27265318931154 -0.04728250758233374
0.15233311413437764 0.3939745411198575 -0.04728250758233374
0.15022857899296796 0.3271300549103229 -0.04542829159871282
0.17645646408128599 0.27019635313324225 -0.04542829159871282
0.23533709264116867 0.279829005168153 -0.04542829159871282
0.1969362796203792 0.28035745672348483 -0.04542829159871282
0.22675207263700373 0.2785495961394545 -0.04357407561509189
0.22685405451610297 0.2712810694836604 -0.04357407561509189
0.16801051027589262 0.4523638024440807 -0.04357407561509189
0.3765170976340665 0.3388394288468891 -0.0423688352257383
0.17148716524518187 0.27807677106363116 -0.041719859631470964
0.1740552543824969 0.4352586599951775 -0.041719859631470964
0.2392402172866908 0.46856965014092755 -0.041719859631470964
0.23533709264116867 0.27886481285667 -0.03986564364785001
0.36703278287784535 0.27857740937920883 -0.03986564364785001
0.17029119593574646 0.42257582266721033 -0.03986564364785001
0.15863744847868885 0.4700622940077424 -0.03866040325849641
0.35940268410524523 0.46930206545445785 -0.03801142766422908
0.3572796068039993 0.3908687293472924 -0.03801142766422908
0.18285350922477817 0.28823787465387385 -0.03801142766422908
0.1548641189520203 0.2906112711129087 -0.03680618727487549
0.15679250357498606 0.3747370502897903 -0.036157211680608155
0.17964571557311407 0.32763996430581865 -0.036157211680608155
0.1968157555814438 0.2856605144366407 -0.036157211680608155
0.15928642407295612 0.27778936758616984 -0.03495197129125456
0.3411479277464971 0.2766582958361611 -0.034302995696987235
0.3566769866093225 0.4288894280914396 -0.034302995696987235
0.21313285623730804 0.2851691472009812 -0.034302995696987235
0.16800123919597462 0.2802925591640582 -0.03309775530763363
0.36290715231428883 0.4627195987126035 -0.03244877971336631
0.2098787071860533 0.46411026070031924 -0.03244877971336631
0.18608911611619675 0.4521969230055548 -0.03244877971336631
0.3765170976340665 0.4609488224482455 -0.031243539324012675
0.20327769828436276 0.2797084811292176 -0.03059456372974535
0.24169705346498851 0.2869028391456668 -0.03059456372974535
0.30793891947984625 0.2858922914345934 -0.03059456372974535
0.3560929085744819 0.35889277470974945 -0.03059456372974535
0.15741366592949899 0.42424461705246924 -0.02938932334039175
0.20884034623522552 0.4690424752167509 -0.028740347746124422
0.33473234044316874 0.28809880845510233 -0.028740347746124422
0.3071230644470531 0.46397119450154767 -0.028740347746124422
0.35164279021379163 0.4627659541121941 -0.028740347746124422
0.15672760601555927 0.310664616975769 -0.027535107356770828
0.3245990500926803 0.469580197852001 -0.0268861317625035
0.35551810161955943 0.358317967754827 -0.0268861317625035
0.28120112499603245 0.28645782730959773 -0.0268861317625035
0.2133460910754244 0.2948388835555644 -0.0268861317625035
0.21834320315128283 0.4574814385588744 -0.0268861317625035
0.15672760601555927 0.4258392427983832 -0.0256808913731499
0.18204692527190316 0.3271856813898315 -0.02503191577888257
0.3091070755495275 0.28770015201862376 -0.02503191577888257
0.25427790891385654 0.4613011234851336 -0.02503191577888257
0.19086372227402065 0.4002510622244143 -0.02503191577888257
0.3713809193594365 0.4289543256508664 -0.023826675389528977
0.15672760601555927 0.4609488224482455 -0.023826675389528977
0.36146086384706444 0.4288894280914396 -0.023177699795261648
0.3411201145067428 0.46020713605479713 -0.023177699795261648
0.18995515644204639 0.350613700342882 -0.023177699795261648
0.2219496532394255 0.31023814729953614 -0.023177699795261648
0.2200583529361322 0.45047250214078727 -0.023177699795261648
0.1786166257022044 0.4550246023805766 -0.02197245940590802
0.19299607065518476 0.27720528955132934 -0.02197245940590802
0.3601165572589393 0.4644625617372072 -0.02132348381164069
0.2170730652025025 0.29759239429124146 -0.02132348381164069
0.20092284398516413 0.4418040424173594 -0.02132348381164069
0.2533971563216366 0.2982506409654269 -0.02132348381164069
0.3765170976340665 0.3998987611875264 -0.02011824342228709
0.15672760601555927 0.36325945335117676 -0.02011824342228709
0.19948582659785805 0.309162702029036 -0.019469267828019762
0.18836980177605045 0.30284909660480674 -0.019469267828019762
0.35065078466255445 0.29712884029533626 -0.019469267828019762
0.3550452765437361 0.4008722245789274 -0.019469267828019762
0.1974461890158749 0.3991014483145694 -0.019469267828019762
0.2920853728198874 0.45586827065312424 -0.019469267828019762
0.18820292233752456 0.29582161802688345 -0.018264027438666168
0.15672760601555927 0.3998987611875264 -0.018264027438666168
0.3765170976340665 0.3022093920904575 -0.018264027438666168
0.3575762813613786 0.4644903749769615 -0.01761505184439884
0.2339835149731254 0.3021723077707852 -0.01761505184439884
0.22083712364925304 0.3986193521588279 -0.01761505184439884
0.24645311746297613 0.45110293557521836 -0.01761505184439884
0.3229580689471759 0.4477468046448645 -0.01761505184439884
0.3296796018878017 0.30977459330363094 -0.01761505184439884
0.181592642355916 0.3478138342076144 -0.01640981145504524
0.1860056763969338 0.27778936758616984 -0.01640981145504524
0.2242210678193612 0.4405060912288247 -0.015760835860777915
0.33633623726900086 0.46107861756709906 -0.015760835860777915
0.2225244601943481 0.4351381359562422 -0.015760835860777915
0.21771276971685175 0.31939797425862354 -0.015760835860777915
0.30547281222163036 0.29782417128919403 -0.015760835860777915
0.20258236729050488 0.45989191933758167 -0.014555595471424317
0.21216866392582517 0.28704190534443835 -0.014555595471424317
0.1946092385609349 0.3087455034327214 -0.013906619877156988
0.1892320122084342 0.44942487011004145 -0.013906619877156988
0.23113729343826722 0.3966167988965173 -0.013906619877156988
0.2831573228587525 0.30360005407817325 -0.013906619877156988
0.35518434274250765 0.3021074102113584 -0.013906619877156988
0.3712603953205011 0.3998987611875264 -0.012701379487803359
0.24572997322936407 0.2814607152337393 -0.012701379487803359
0.22655737995872352 0.4563503668088656 -0.012701379487803359
0.22194038215950748 0.40578589693552286 -0.01205240389353603
0.2393700124055442 0.3259711699205598 -0.01205240389353603
0.26011868926226245 0.3748390321688894 -0.01205240389353603
0.35542539082037833 0.34710923213383843 -0.01205240389353603
0.2597385749856202 0.3687015772631042 -0.01205240389353603
0.2649025665000045 0.28609625519279164 -0.010847163504182434
0.18212109391124798 0.45103803801579173 -0.010847163504182434
0.32390371909882243 0.46282158059170275 -0.010847163504182434
0.21998418429678743 0.35440557202938683 -0.010198187909915104
0.22756792766979703 0.3025616931273456 -0.010198187909915104
0.2688984019447076 0.41928458929628315 -0.010198187909915104
0.26274240487908607 0.3261102361193314 -0.010198187909915104
0.2817666608710369 0.377370036986532 -0.010198187909915104
0.24572997322936407 0.29965984511297883 -0.008992947520561508
0.37125112424058293 0.38768874893538247 -0.008992947520561508
0.24572997322936407 0.4356758585914922 -0.008992947520561508
0.21751807703857154 0.33529787631817304 -0.00834397192629418
0.1888148136121195 0.44960102062848545 -0.00834397192629418
0.3510679832588692 0.4302059214398105 -0.00834397192629418
0.27165191268038463 0.3803924090398342 -0.00834397192629418
0.3504097365846838 0.3856769245931538 -0.00834397192629418
0.27929128253290286 0.43658442442346646 -0.007138731536940584
0.36795989086965586 0.4482567140403602 -0.007138731536940584
0.27559212164557906 0.2908430481108612 -0.007138731536940584
0.36865522186351374 0.32073300976683067 -0.007138731536940584
0.19402516052609428 0.4423417650526095 -0.006489755942673254
0.22704874719438317 0.44840505131904995 -0.006489755942673254
0.3440683179207002 0.43396070880664295 -0.006489755942673254
0.3437345590436484 0.39757172012808206 -0.006489755942673254
0.3032570241212035 0.2978705266887846 -0.005284515553319658
0.15672760601555927 0.4624229241552242 -0.005284515553319658
0.36809895706842743 0.3780004704209632 -0.005284515553319658
0.2744888631353246 0.3285021747382024 -0.005284515553319658
0.223757513823456 0.4042376265891994 -0.004635539959052329
0.35102162785927865 0.4266829110709307 -0.004635539959052329
0.35828088343515463 0.3134273987913642 -0.004635539959052329
0.1857460861592268 0.29571963614778435 -0.0034302995696987
0.3689148121012206 0.37951165644761425 -0.0034302995696987
0.21822267911234744 0.33693885746367763 -0.002781323975431371
0.23722839294446207 0.3066595104511478 -0.002781323975431371
0.3513924710560028 0.31857284814591225 -0.002781323975431371
0.18042448628623475 0.424318785691814 -0.001576083586077775
0.3681082281483455 0.36325945335117676 -0.001576083586077775
0.2336219428563193 0.3041006923937509 -9.271079918104461E-4
0.2140970485487909 0.4318005471857245 -9.271079918104461E-4
0.3189436913426365 0.44210998805465684 -9.271079918104461E-4
0.34723902725269196 0.4609488224482455 -9.271079918102814E-5
0.22492566989313723 0.44079349470628604 9.27107991810479E-4
0.18684007358956325 0.44896131611413626 9.27107991810479E-4
0.3508918327404251 0.42730407342544374 9.27107991810479E-4
0.36431635646184074 0.3117864176458596 0.0013906619877157185
0.15672760601555927 0.3022093920904575 0.0013906619877157185
0.22874535481939626 0.4460501970198513 0.002781323975431404
0.22421179673944305 0.43274619733737124 0.002781323975431404
0.32278191842873183 0.3089587382708378 0.002781323975431404
0.36448323590036663 0.3998987611875264 0.0040329197643755475
0.15672760601555927 0.27778936758616984 0.0040329197643755475
0.2210967138869599 0.3161345541274508 0.004635539959052329
0.22421179673944305 0.41921042065693837 0.004635539959052329
0.34753570181007126 0.4262564413946979 0.004635539959052329
0.3645295912999571 0.36325945335117676 0.006489755942673287
0.19323711873305544 0.30813361215812646 0.006489755942673287
0.22700239179479256 0.4122478396384417 0.006489755942673287
0.19583302111012477 0.3374673090190096 0.006489755942673287
0.3424273367751956 0.3238202793795595 0.006489755942673287
0.23276900350385366 0.3061310588958158 0.008343971926294214
0.23044196244440948 0.4091142146261224 0.008343971926294214
0.3428816196911828 0.43448916036197477 0.008343971926294214
0.3646315731790562 0.37546946560332056 0.009317435317695206
0.2422069628604842 0.43505469623697923 0.009317435317695206
0.22212580375786956 0.4085023233515275 0.010198187909915137
0.2201974191349038 0.37449600221191964 0.010198187909915137
0.3437160168838121 0.4266272845914221 0.010198187909915137
0.24225331826007482 0.30367422271751804 0.012052403893536063
0.2188438414668605 0.41127437624704083 0.012052403893536063
0.18588515235799838 0.30192198861299635 0.012052403893536063
0.2153301021778988 0.34300214373011806 0.012052403893536063
0.34634900358055387 0.32176209963774033 0.012052403893536063
0.2150334276205195 0.44177622917760506 0.013906619877156988
0.2230343695898438 0.3296239754082931 0.013906619877156988
0.2139208980303469 0.3347045272034144 0.013906619877156988
0.3437345590436484 0.4307621862348967 0.013906619877156988
0.3647706393778278 0.3144194043426014 0.014601950871014863
0.21793527563488627 0.34300214373011806 0.015760835860777946
0.23230544950794846 0.4473574192883041 0.015760835860777946
0.21405996422911847 0.41632711480240786 0.015760835860777946
0.20293466832739296 0.33991487411738924 0.015760835860777946
0.34386435416250183 0.4267570797102756 0.015760835860777946
0.3032570241212035 0.3266294165947452 0.017244208647674692
0.22072587069023578 0.3715848831176347 0.017615051844398873
0.1881102115383436 0.45058375509980453 0.017615051844398873
0.2112786402536871 0.34310412560921716 0.017615051844398873
0.2025081986511601 0.3802996982406531 0.017615051844398873
0.32763069322590055 0.30803163027902725 0.017615051844398873
0.21963188325989935 0.3321827934656899 0.019469267828019797
0.22290457447099038 0.4332561067328669 0.019469267828019797
0.20642059437660024 0.4141391399417351 0.019469267828019797
0.318897335943046 0.3185821192258304 0.019469267828019797
0.3765170976340665 0.3388394288468891 0.01988646642433452
0.19183718566542166 0.4432039754849933 0.021323483811640755
0.22583423572511147 0.4156595970483043 0.021323483811640755
0.21388381371067455 0.33539058711735414 0.021323483811640755
0.3469608948551488 0.43324683565294875 0.021323483811640755
0.3444669743571786 0.39824850896210373 0.021323483811640755
0.1785239149030233 0.3144194043426014 0.02252872420099432
0.34802706904573083 0.4267199953906031 0.023177699795261648
0.22518526013084408 0.30931103930772574 0.023177699795261648
0.2258898622046201 0.3354462135968628 0.023177699795261648
0.2219496532394255 0.45753706503838304 0.024382940184615277
0.17837557762433373 0.37546946560332056 0.024382940184615277
0.32763069322590055 0.3114341166089717 0.025031915778882606
0.22699312071487454 0.446726985853873 0.025031915778882606
0.22399856190132666 0.3727715813471521 0.025031915778882606
0.3604874004556635 0.3045642463896561 0.02623715616823617
0.34493979943300196 0.43478583491935424 0.0268861317625035
0.34461531163586834 0.42588559819797367 0.0268861317625035
0.22515744689108977 0.29930754407609084 0.0268861317625035
0.239175319727264 0.4565728727269001 0.028091372151857127
0.17808817414687242 0.37546946560332056 0.028091372151857127
0.32550761592465455 0.31072024345527766 0.028740347746124457
0.22474951937469317 0.44181331349727754 0.028740347746124457
0.21877894390743374 0.41703171687618373 0.028740347746124457
0.3032570241212035 0.424318785691814 0.029945588135478086
0.35195800693100726 0.42756366366315063 0.030594563729745415
0.359829153781478 0.3640104108245433 0.030594563729745415
0.22663154859806844 0.44198019293580343 0.030594563729745415
0.21863987770866217 0.4099764250585062 0.030594563729745415
0.2422069628604842 0.4365287979439578 0.03105811772565062
0.3479065450067954 0.4349249011181258 0.03244877971336631
0.3256095978037538 0.31062753265609655 0.03244877971336631
0.22244102047508515 0.44181331349727754 0.03244877971336631
0.22855066214111605 0.4161138799642914 0.03244877971336631
0.3032570241212035 0.424318785691814 0.03291233370927158
0.34730392481211864 0.4335620523701644 0.03430299569698726
0.35587040265644737 0.31275988103726066 0.03430299569698726
0.22229268319639545 0.44186893997678617 0.03430299569698726
0.2232754176677145 0.4011132726567981 0.03430299569698726
0.17765243339072154 0.424318785691814 0.03476654969289247
0.3277141329451635 0.4360559728681346 0.036157211680608155
0.3484442676420455 0.42611737519592635 0.036157211680608155
0.198781224524082 0.30779058220115657 0.036157211680608155
0.2248700434136286 0.41021747313637685 0.036157211680608155
0.21870477526808893 0.2956825518281119 0.03662076567651343
0.3765170976340665 0.38768874893538247 0.03662076567651343
0.35222686824863225 0.32478447169104235 0.03801142766422912
0.358494118273271 0.30979313546346726 0.03801142766422912
0.2236833451841112 0.4497771711469294 0.03801142766422912
0.2293572460939912 0.37400463497625996 0.03847498166013432
0.26662698736477186 0.4731588347003894 0.03847498166013432
0.3522824947281409 0.4081222090748852 0.03986564364785007
0.35925434682655555 0.440348482870217 0.03986564364785007
0.2220423640386066 0.30517613766425106 0.03986564364785007
0.22796658410627543 0.33932152500263046 0.03986564364785007
0.17719815047473433 0.3022093920904575 0.04032919764375528
0.35225468148838657 0.4278417960606938 0.041719859631470964
0.3600331175396764 0.34145387338379457 0.041719859631470964
0.2299413241288318 0.44210071697473885 0.041719859631470964
0.2179260045549681 0.39701545533299576 0.041719859631470964
0.2182597634320199 0.4554325298969732 0.04218341362737624
0.16599868593366393 0.36325945335117676 0.04218341362737624
0.19193916754452078 0.3070488958077082 0.043574075615091926
0.3279088256234437 0.3147068078200626 0.043574075615091926
0.35230103688797704 0.42788815146028436 0.043574075615091926
0.3765170976340665 0.4609488224482455 0.04403762961099713
0.15672760601555927 0.3388394288468891 0.04403762961099713
0.3493528334740198 0.4326905708578626 0.04542829159871282
0.352653337924865 0.315800795250399 0.04542829159871282
0.19179083026583105 0.3069932693281996 0.04542829159871282
0.22086493688900735 0.3468589129760496 0.04542829159871282
0.3765170976340665 0.3144194043426014 0.04663353198806645
0.3136684468692349 0.29787979776870266 0.04663353198806645
0.3575670102814605 0.3954579139067542 0.04728250758233377
0.36039468965648247 0.33587268327309555 0.04728250758233377
0.193645046249452 0.31653321056392925 0.04728250758233377
0.31122088177085533 0.3000955858691297 0.0484877479716874
0.3650580428552891 0.30868060587329466 0.0484877479716874
0.3555644570191499 0.41186772536179944 0.049136723565954735
0.35256062712568403 0.33502901500054805 0.049136723565954735
0.18999224076171886 0.32089988920535656 0.049136723565954735
0.19708461689906892 0.3164775840844206 0.049136723565954735
0.3603854185765643 0.37546946560332056 0.050341963955308294
0.15672760601555927 0.35104944109903286 0.050341963955308294
0.3590967384679478 0.41504770577370936 0.05099093954957563
0.3574001308429346 0.33450056344521606 0.05099093954957563
0.19500789499741344 0.3125559172790623 0.05099093954957563
0.2270858315140555 0.34924158051500254 0.05099093954957563
0.34161148174240247 0.38716956845996864 0.052196179938929256
0.17798619226777332 0.2966096598199223 0.052196179938929256
0.32855780121771105 0.44378805351983375 0.05284515553319658
0.3269631754717971 0.30428611399211297 0.05284515553319658
0.19485955771872374 0.31250029079955366 0.05284515553319658
0.2382482117354536 0.3144194043426014 0.05405039592255015
0.33988706087763493 0.38768874893538247 0.05405039592255015
0.3557035232179215 0.41548344652986025 0.054699371516817474
0.35571279429783964 0.33798648949442345 0.054699371516817474
0.18955650000556784 0.4241982616528786 0.054699371516817474
0.18263100330674364 0.3001604834285565 0.054699371516817474
0.369387637177044 0.35620416153349915 0.0559046119061711
0.33094973983658205 0.2985936709223967 0.0559046119061711
0.31607892764794215 0.4298999758025131 0.05655358750043843
0.22256154451402044 0.442656981769825 0.05655358750043843
0.23193460631122434 0.4345726000812377 0.05655358750043843
0.33988706087763493 0.36325945335117676 0.057758827889792065
0.1762895846427601 0.45215983868588233 0.057758827889792065
0.3628793390745345 0.41727276495405446 0.05840780348405939
0.3561856193736629 0.3085508107544412 0.05840780348405939
0.2251481758111716 0.3020703258916859 0.05840780348405939
0.3559909266953827 0.3488336529986059 0.05961304387341295
0.15672760601555927 0.31589350604958 0.05961304387341295
0.3454867931481701 0.4267199953906031 0.06026201946768028
0.18891679549121873 0.3097560511437948 0.06026201946768028
0.19824350188883202 0.44014451911201863 0.06026201946768028
0.3765170976340665 0.4121087734396701 0.06146725985703391
0.2422069628604842 0.424318785691814 0.06146725985703391
0.1889631508908092 0.3130843688343943 0.06211623545130124
0.35660281796997756 0.32482155601071483 0.06211623545130124
0.36297204987371545 0.4123034661179503 0.06211623545130124
0.15672760601555927 0.3998987611875264 0.0633214758406548
0.18200984095223072 0.43344152833122895 0.06397045143492214
0.19591646082938768 0.3160233011684335 0.06397045143492214
0.35633395665235257 0.3084117445556696 0.06397045143492214
0.2422069628604842 0.3266294165947452 0.06517569182427577
0.3696379563348328 0.4056468307367513 0.06517569182427577
0.19761306845440077 0.43672349062223803 0.06582466741854309
0.3531910605601151 0.31530015693482133 0.06582466741854309
0.3594861238245082 0.4179866381077485 0.06582466741854309
0.15672760601555927 0.3144194043426014 0.06702990780789672
0.18784135022071857 0.43387726908738 0.06767888340216405
0.19369140164904264 0.3120460078835666 0.06767888340216405
0.327843928064017 0.30619595645524256 0.06767888340216405
0.31735833667664065 0.44758919628625676 0.06767888340216405
0.15672760601555927 0.37546946560332056 0.0688841237915176
0.1935430643703529 0.4389485498025832 0.06953309938578495
0.18077678732312283 0.31309363991431244 0.06953309938578495
0.34888000839819644 0.4358427380300181 0.06953309938578495
0.33988706087763493 0.35104944109903286 0.07073833977513858
0.31430815138358414 0.297286448653944 0.07073833977513858
0.22166224976196436 0.4530035069584298 0.0713873153694059
0.3517076877732184 0.31977808853526596 0.0713873153694059
0.3568438660478484 0.42909339184963796 0.0713873153694059
0.15672760601555927 0.3266294165947452 0.07259255575875946
0.3690631493799103 0.3347416115230868 0.07259255575875946
0.18960285540515845 0.3061403299757339 0.07324153135302679
0.3596715454228703 0.3299484632054267 0.07324153135302679
0.36109929173025834 0.42815701277790935 0.07324153135302679
0.19571249707118935 0.3066038839716392 0.07509574733664776
0.32672212739392625 0.30957990062535073 0.07509574733664776
0.34539408234898916 0.4282868078967628 0.07509574733664776
0.16893761826770318 0.38768874893538247 0.07553148809279864
0.18780426590104612 0.43783602021241064 0.07694996332026871
0.1809900221612392 0.32126146132216266 0.07694996332026871
0.36057084017492647 0.3110632734122476 0.07694996332026871
0.345922533904321 0.42712792290699975 0.07694996332026871
0.2290420293767756 0.2923542341375124 0.07846114934691974
0.2191776003439123 0.45054667078013205 0.0788041793038896
0.22107817172712374 0.29771291833017677 0.0788041793038896
0.3537936807547919 0.4263306100340427 0.0788041793038896
0.19266231177813298 0.439291579759553 0.08065839528751056
0.17925633021655366 0.3144472175823557 0.08065839528751056
0.34917668295557575 0.4361115993476432 0.08065839528751056
0.16893761826770318 0.424318785691814 0.08140008168095891
0.3665321445622677 0.43389581124721616 0.08140008168095891
0.1914385292289431 0.45215056760596417 0.08251261127113145
0.3453199137096442 0.3148736872585885 0.08251261127113145
0.3291326081726335 0.4409325609050576 0.08251261127113145
0.18855522337441263 0.2930773783711244 0.0843668272547524
0.18716456138669688 0.43784529129232874 0.0843668272547524
0.19072465607524908 0.3154021388139205 0.0843668272547524
0.3598755091810686 0.30881967207206623 0.0843668272547524
0.3444669743571786 0.4290563075299655 0.0843668272547524
0.18972337944409373 0.30884748531182055 0.08622104323837337
0.354424114189223 0.32846509041853 0.08622104323837337
0.3636117543880647 0.4188024931405418 0.08622104323837337
0.36667121076103926 0.3144194043426014 0.08726867526911919
0.1801185406489373 0.43343225725131096 0.08807525922199426
0.1945628831613444 0.31402074790612283 0.08807525922199426
0.35676042632858546 0.3077998532810747 0.08807525922199426
0.18662683875144687 0.4384108271673331 0.08992947520561521
0.18276079842559723 0.3130843688343943 0.08992947520561521
0.36092314121181446 0.3203250822504341 0.08992947520561521
0.34522720291046327 0.42890797025127586 0.08992947520561521
0.33337876277512546 0.4502963516223432 0.09020760760315837
0.32484936925046914 0.4433337706038467 0.09178369118923611
0.3463119192608814 0.3234494361828354 0.09178369118923611
0.19372848596871495 0.32484936925046914 0.09178369118923611
0.17296126695216058 0.3022093920904575 0.09314653993719754
0.3765170976340665 0.3266294165947452 0.09314653993719754
0.34582982310514004 0.4287689040525043 0.09363790717285707
0.22297874311033516 0.3070952512072987 0.09363790717285707
0.22699312071487454 0.43942137487840655 0.09363790717285707
0.22067951529064517 0.451418152292434 0.09549212315647802
0.34566294366661415 0.3145491994614548 0.09549212315647802
0.3593192443859823 0.42575580307912025 0.09549212315647802
0.16893761826770318 0.4121087734396701 0.09607620119131857
0.23734891698339736 0.4731588347003894 0.09607620119131857
0.18982536132319297 0.3138909527872694 0.09734633914009892
0.3601907258982841 0.3083839313159153 0.09734633914009892
0.3160881987278603 0.44843286455880427 0.09734633914009892
0.3765170976340665 0.44873881019610173 0.09901513352535775
0.19518404551585736 0.441331217341536 0.09920055512371988
0.17993311905057524 0.29824136988550876 0.09920055512371988
0.35118850729780454 0.4337567450484446 0.09920055512371988
0.18188004583337727 0.44957320738873113 0.10105477110734076
0.1935430643703529 0.3136220914696444 0.10105477110734076
0.32747308486729276 0.30583438433843646 0.10105477110734076
