-0.21177671554965652 0.36288800563164764 -0.3009602405361576
0.04805742357512786 0.5627148292776625 -0.3009602405361576
-0.15658014560375413 0.024326978010601682 -0.3009602405361576
0.29887814986953276 0.11536937507100252 -0.3009602405361576
0.3370485292255124 0.36127159513260426 -0.3009602405361576
0.01886966827811737 0.5011218920712602 -0.29995960546532124
-0.15317798636291055 0.3836627291407802 -0.2994208019656402
-0.010241115090367209 0.41231168093810966 -0.2994208019656402
0.5223969331158111 0.06288221700921072 -0.2994208019656402
-0.020770874912706395 0.37926763202195296 -0.2994208019656402
0.298593353733987 0.10189159038612239 -0.2994208019656402
0.2882560237329625 0.02115573455533584 -0.2984201668948039
-0.2224527220361949 0.3360940773117918 -0.2978813633951228
-0.1762310789564091 0.03277849576274237 -0.2978813633951228
0.2979698811129275 0.05787904165502914 -0.2978813633951228
0.3880193402953447 0.06267439280219086 -0.2978813633951228
-0.02494275343880864 0.37214772863330997 -0.2978813633951228
0.4219100804252858 0.22354572342126236 -0.2974965037524934
0.16660189069782252 -0.13946158869960026 -0.2968807283242864
0.3019416326248624 0.07022533899057892 -0.2963419248246053
0.39212964127862615 0.27208422154967693 -0.2963419248246053
0.2959070334284341 0.0702869165333996 -0.2963419248246053
0.42582795158725256 0.19501222951672184 -0.2963419248246053
0.5123443992503323 0.3310678103790522 -0.2963419248246053
0.08549656961011179 -0.11099736953073293 -0.295341289753769
0.1722208414802112 0.5717282421080422 -0.2948024862540879
-0.15602594771836784 0.1463736678812236 -0.2948024862540879
-0.031354515085013725 -0.022271827518960945 -0.2948024862540879
-0.0038524450227198875 0.3757961980454362 -0.2948024862540879
0.5262686211206623 0.34252893053655453 -0.2948024862540879
-0.1172551873198863 0.4263051775441132 -0.2938018511832516
-0.18050302098959503 0.11192872986589604 -0.2932630476835705
0.20213213290536494 5.657436746652317E-4 -0.2932630476835705
0.42715186875789757 0.047341584639837335 -0.2932630476835705
-0.025673986759804413 0.348055515004712 -0.2932630476835705
0.4496815522374203 0.3496103479609346 -0.2932630476835705
-0.09698078134617186 0.5093578884235285 -0.2922624126127341
-0.14628899875984508 0.3615871800395603 -0.29172360911305306
-0.1497835243149197 0.03110050772087845 -0.29172360911305306
0.11199800460156933 -0.005853715164392477 -0.29172360911305306
8.082052495222283E-5 0.3682991322070164 -0.29172360911305306
0.3324994882496334 0.3627417589674484 -0.29172360911305306
0.20715070264525165 -0.0895068070863097 -0.2907229740422167
-0.16062117185136232 0.3340081380487406 -0.2901841705425356
0.44079899168553477 0.17930225890459137 -0.2901841705425356
0.09745031011017961 0.57773205253306 -0.2901841705425356
-0.011896011553673473 0.3472473097551904 -0.2901841705425356
0.026905537616218438 0.12320511739493625 -0.2901841705425356
-0.14704332365939862 0.3955702864837325 -0.2897993108999063
0.19701349965839443 -0.14140897849130482 -0.2891835354716993
0.3025266192816592 0.07196490457526361 -0.2886447319720182
0.404175748092925 0.2365077961850191 -0.2886447319720182
0.2929359169873355 0.4743125693656992 -0.2886447319720182
-0.13838398170023808 0.0400985261655528 -0.2886447319720182
0.4890065105212879 0.32858931428051913 -0.2886447319720182
0.359224141833816 0.37561916260982675 -0.28764409690118187
-0.14883676959405145 0.37744339731588983 -0.28710529340150076
-0.16854928048952708 0.13064830288338802 -0.28710529340150076
0.08093213424852758 0.017799758471607786 -0.28710529340150076
0.3063752157079528 0.08288722123308476 -0.28710529340150076
0.5025843587132517 0.3821309877631155 -0.28710529340150076
0.3404045053092405 0.37561916260982675 -0.2861046583306644
-0.2026093588622253 0.3244251329472695 -0.2855658548309833
-0.008447669155714372 0.34703178835531806 -0.2855658548309833
0.00984855825488525 0.07014836706205302 -0.2855658548309833
-0.15653396244663859 0.13251102355371414 -0.2855658548309833
-0.09986722866589204 0.05724787184111693 -0.2855658548309833
0.3198145144285698 0.4263051775441132 -0.284565219760147
0.4456174344112541 0.39801799381085534 -0.28402641626046593
0.3177054835869609 0.3843400821118078 -0.28402641626046593
-0.18462871635858163 0.11453038105007056 -0.28402641626046593
0.008578521434208432 0.10383898017782693 -0.28402641626046593
-0.20688130089541112 0.3372486562396797 -0.28402641626046593
0.36936134482067334 0.4890834824498138 -0.28302578118962957
0.5143225778134471 0.3596551846335609 -0.28248697768994846
-0.026135818330959657 0.339650180409687 -0.28248697768994846
0.009148113705299865 0.0771143265936444 -0.28248697768994846
-0.06422152856556093 0.0234802867968171 -0.28248697768994846
-0.1840591240874902 0.31608137589506513 -0.28248697768994846
0.23757000879867618 -0.06031135459644659 -0.2814863426191121
-0.14396444651836382 0.3758346840096991 -0.280947539119431
0.25531973551674214 0.04346219944213337 -0.280947539119431
0.3813150853207412 0.2825831926006058 -0.280947539119431
0.14591183631006838 0.5613139401784918 -0.280947539119431
0.4850424562022056 0.32785808095952335 -0.280947539119431
0.31337966120380706 0.4227259828676601 -0.27994690404859474
-0.11648546803462763 0.20715839983810427 -0.27940810054891363
0.3715781363622183 0.048373008482084014 -0.27940810054891363
0.262331878205449 0.5831816650726919 -0.27940810054891363
0.00977158632635934 0.09621106206091307 -0.27940810054891363
0.4554313552983028 0.34962574234663985 -0.27940810054891363
0.31391076751063546 0.40438357229994487 -0.27840746547807727
0.004037177651181986 -0.012588758910406233 -0.27786866197839616
0.39059020270810857 0.25718245618706825 -0.27786866197839616
-0.07538245820181222 0.04164566192892277 -0.27786866197839616
-0.17096619904523952 0.11338349931503508 -0.27786866197839616
-0.1172551873198863 0.03975215248718637 -0.2768680269075598
-0.1581349785599767 0.3984413394177477 -0.27632922340787874
0.2107606860931151 -0.005830623585834714 -0.27632922340787874
0.27072181841476906 0.5793638574178086 -0.27632922340787874
0.27599439551879124 0.5643543313552636 -0.27632922340787874
0.4130583086448106 0.19445033443848292 -0.27632922340787874
0.03481055467582534 0.01065676350440693 -0.2753285883370424
-0.1409933300772651 0.3361710492403176 -0.27478978483736133
0.4307002746629403 0.18055690133956318 -0.27478978483736133
-0.08752862852319476 0.04771104989676153 -0.27478978483736133
0.10505513664853572 -0.005922989900065763 -0.27478978483736133
0.34536919469915905 0.3185983579578611 -0.27478978483736133
0.4400138780145708 0.3795447309646461 -0.27478978483736133
0.2983932267198198 0.5682337165529676 -0.27378914976652496
-0.08162488160526045 0.2575750130225502 -0.27325034626684386
0.4662305168704827 0.04485539134845162 -0.27325034626684386
0.0351261395827815 0.29002637808905757 -0.27325034626684386
0.26200859610564037 0.2969615488492386 -0.27325034626684386
0.43685802894501014 0.16380780969233352 -0.27325034626684386
0.4484192126095959 0.40295959162221623 -0.27325034626684386
0.09563377259696901 -0.08058576057016115 -0.27224971119600755
0.005999961828591674 0.3652972269945073 -0.27171090769632644
0.3799449849929807 0.07138761511131955 -0.27171090769632644
0.007285393034973741 0.08456520927494879 -0.27171090769632644
0.2624088501339748 0.5320415157601028 -0.27171090769632644
0.22718649564053608 0.2962534071068006 -0.27171090769632644
-0.19020148398385475 0.05656282167723669 -0.27171090769632644
0.17673909368467988 -0.12113457251759026 -0.2707102726254901
-0.14894453029398763 0.4079550697835453 -0.270171469125809
0.5074258930175289 0.04813439550365377 -0.270171469125809
-0.09956703814464113 0.05369946593607427 -0.270171469125809
0.12256625038817152 0.5415783377044583 -0.270171469125809
-0.15809649259571382 0.04824215620358995 -0.270171469125809
0.09438682735484996 0.35573731347159415 -0.270171469125809
0.23803953756268392 0.548667452321691 -0.270171469125809
0.010833798940016405 0.47699119247839944 -0.26917083405497266
-0.16193739182915476 0.4101102837822697 -0.2686320305552916
0.061858490359816665 0.5284546238907971 -0.2686320305552916
0.04849616356772534 0.5837820461151935 -0.2686320305552916
0.2767564176111973 0.044154946798866244 -0.2686320305552916
0.08823677026563277 0.35971676217638165 -0.2686320305552916
0.26267055469096273 0.41757656084927924 -0.2686320305552916
0.03862066513785602 0.5013220190854274 -0.2686320305552916
0.5021148299492438 0.3493024602468312 -0.2686320305552916
0.13619028173725076 -0.15155387867101466 -0.26763139548445525
-0.2042334665541212 0.35845442254855725 -0.26709259198477414
0.06856274533442004 0.3720091791619634 -0.26709259198477414
-0.05924914198278963 0.2810283596443832 -0.26709259198477414
0.40886333854015067 0.20168569571991482 -0.26709259198477414
0.34322937508613993 0.3000558203759786 -0.26709259198477414
-0.0030981201231663545 -0.015767699558524702 -0.26709259198477414
0.28811747426161594 0.41546753000767034 -0.26709259198477414
0.419146788191207 0.21270807588481963 -0.26670773234214484
-0.14241731075499373 0.40319050740779383 -0.2655531534142567
0.03746608620996801 0.310731826862517 -0.2655531534142567
0.13234938250380981 0.5629149562918299 -0.2655531534142567
-0.05534666520652791 0.2884099675900143 -0.2655531534142567
0.48304118606053303 0.11260608283692378 -0.2655531534142567
0.26345566836192663 0.0475494088468572 -0.2655531534142567
-0.07435873155241816 0.05035118704519884 -0.2655531534142567
0.43146229675534636 0.366290164872491 -0.2655531534142567
0.41936230959107934 0.3984952197677158 -0.2645525183434204
-0.09698078134617186 0.5175477016186811 -0.2645525183434204
0.08373391244686934 0.3895510816730095 -0.2640137148437393
0.26775070197367046 0.43678105701648423 -0.2640137148437393
-0.16880328785366247 0.1157696290993371 -0.2640137148437393
0.5022148934563275 0.04514788467684991 -0.2640137148437393
-0.020208979834467584 0.29584545588561345 -0.2640137148437393
0.04406258048463519 0.35681492047095625 -0.2640137148437393
0.058748824447371485 0.032816981727005375 -0.2640137148437393
0.46770837789817926 0.4135894149516391 -0.2640137148437393
0.08083976793429654 0.3637346968454321 -0.26301307977290295
0.281982811558104 0.1703350292313274 -0.26247427627322184
0.06499124785081961 0.3944157075558446 -0.26247427627322184
0.07308099753888872 0.5425866699681473 -0.26247427627322184
0.12946293518408963 -0.044085672063192846 -0.26247427627322184
0.32510248591829727 0.3406969986376388 -0.26247427627322184
0.2788885400313638 0.49702698547368385 -0.26247427627322184
0.02244886295457042 0.23204342433051856 -0.26247427627322184
0.4980430149302253 0.3890507641375913 -0.26247427627322184
-0.12430581597285621 0.3960398152477404 -0.26247427627322184
0.4200473597549598 0.35570652470018366 -0.2614736412023855
0.4671464828199406 0.42491968283064746 -0.2609348377027045
0.05473858697117357 0.39703275312572406 -0.2609348377027045
0.07789174307175568 0.5328959041667399 -0.2609348377027045
-0.08775954430877239 0.24412031991622782 -0.2609348377027045
0.4151981282578297 0.06502973381508262 -0.2609348377027045
0.44112997097819584 0.14083168902736087 -0.2609348377027045
0.011780553660884662 0.15269306321319764 -0.2609348377027045
-0.11200570179442196 0.19509689863810026 -0.2609348377027045
-0.0462947664118854 0.4465795835178276 -0.2599342026318681
0.09563377259696901 -0.12113457251759026 -0.2599342026318681
0.2633863936262535 0.27610985341157995 -0.259395399132187
0.09149268284227716 0.550661025270511 -0.259395399132187
0.019547021249145098 0.06473724048668422 -0.259395399132187
0.29342853732990104 0.5762695858910685 -0.259395399132187
-0.10711798433302908 0.1978140077150635 -0.259395399132187
0.08892182042951302 0.3865337820747954 -0.259395399132187
-0.17605404352079962 0.3984413394177477 -0.259395399132187
0.4215637067469193 0.40693134313415114 -0.259395399132187
0.3490792416541061 0.3857563655966841 -0.25839476406135065
0.48164029696136207 0.3331537496421035 -0.25785596056166954
0.014805550451951416 0.15425559336227287 -0.25785596056166954
0.18769989630676404 0.5548098122180556 -0.25785596056166954
-0.011742067696621651 0.3205688393281233 -0.25785596056166954
0.3540285366583196 0.0021590625951507228 -0.25785596056166954
0.0487424737390081 0.5749610631061287 -0.25785596056166954
0.4410914850139329 0.05833317603333176 -0.25785596056166954
0.2665884258529297 0.03172398034193792 -0.25785596056166954
-0.21367792218424556 0.041068372464978825 -0.25747110091904024
0.006015356214296812 0.4972655984521141 -0.25685532549083323
0.2848076813350034 0.2548040235956188 -0.2563165219911522
0.11932573219723229 0.5432332341677644 -0.2563165219911522
0.49559530760310266 0.07128755160423589 -0.2563165219911522
0.05990340337525949 0.009602248083602489 -0.2563165219911522
0.33066755635071765 0.2964073509638523 -0.2563165219911522
0.2959993997426652 0.4783458984204549 -0.2563165219911522
0.023726596968099863 0.3614871165324766 -0.2563165219911522
0.4388823906652404 0.34570017399182046 -0.2563165219911522
0.046071547819160404 0.39728676048985956 -0.2553158869203158
0.47664481880003295 0.41008719220371204 -0.2547770834206347
0.18731503666413457 0.5511998287701922 -0.2547770834206347
0.2699597963223628 0.2973848944561309 -0.2547770834206347
0.48765180457923263 0.056016320984703015 -0.2547770834206347
-0.0012738854171031307 -0.03993688511564836 -0.2547770834206347
0.3066215258792354 0.3615486940752974 -0.2547770834206347
-0.04796505726089681 0.2637943448474406 -0.2547770834206347
0.4796775127839524 0.05924914198278963 -0.2547770834206347
0.05145958281597143 0.3210691568635415 -0.25377644834979834
-0.1580503094385983 0.3337079475274897 -0.2532376448501173
0.013558605209832252 0.15029153904319048 -0.2532376448501173
0.27406240011279187 0.4906998929488572 -0.2532376448501173
0.31205574403316205 -0.03948275073734574 -0.2532376448501173
-0.19153309834735235 0.040814365100843436 -0.2532376448501173
0.03183174104187422 0.4634441330578461 -0.2532376448501173
-0.024758020810346542 0.26186234944144116 -0.2532376448501173
0.2165874610825236 0.3412973796801406 -0.2532376448501173
0.5054938976115297 0.08002386549192234 -0.25223700977928093
0.2519868510115718 0.3242327031259548 -0.25223700977928093
0.2905113012387706 0.24131084452503354 -0.2516982062795999
0.08215598791208899 0.3650124308589615 -0.2516982062795999
0.17335232882954155 0.565485818704594 -0.2516982062795999
0.2581984856436097 0.016298805865353344 -0.2516982062795999
0.0040679664225922625 0.3818000084704542 -0.2516982062795999
0.06857044252727267 0.1539015224910538 -0.2516982062795999
0.28867936933985483 0.1597975722161356 -0.2516982062795999
0.4255046694874439 0.4062462929702709 -0.2516982062795999
0.1868762966715371 0.28437663853525863 -0.25069757120876357
0.27540171166914207 0.38452481474026995 -0.2501587677090824
0.28418420871394395 0.14862124819417907 -0.2501587677090824
0.2868397402480865 0.3823619035486931 -0.2501587677090824
0.41289666759490634 0.1906248295907471 -0.2501587677090824
-0.061073376688852744 0.01494409992329799 -0.2501587677090824
0.344907363128004 0.2650028041252967 -0.2501587677090824
-0.029561069150360997 0.28360691924999987 -0.2501587677090824
0.4847114769095443 0.36563590348002123 -0.2501587677090824
-0.004183424315381074 0.41616797455725585 -0.2491581326382461
-0.17639272000631342 0.3368099162470823 -0.248619329138565
0.2688744921301481 0.5714665375510541 -0.248619329138565
0.27955049861668646 0.2519714566258667 -0.248619329138565
-0.005137876229101954 0.31786712463686534 -0.248619329138565
-0.11351435159352902 0.048680896196187436 -0.248619329138565
0.029137723543468653 0.4765370581000968 -0.248619329138565
0.3557296162787414 0.024288492046338782 -0.248619329138565
-0.0982585153597013 0.36547426243011677 -0.2482344694959356
0.25323379625369086 0.278534469160145 -0.24761869406772866
-0.13074836639047158 0.3490792416541062 -0.24707989056804755
0.2227837013288562 0.36059424216157665 -0.24707989056804755
0.13614409858013524 0.5681028642744737 -0.24707989056804755
0.1416168026983247 -0.06520676925069198 -0.24707989056804755
0.4369657896449462 0.05253718981533364 -0.24707989056804755
0.0692554926911529 0.5040237337766855 -0.24707989056804755
0.3031577890955713 0.32911272339449515 -0.24707989056804755
0.03481055467582534 0.017083919536317264 -0.24607925549721124
0.20715070264525165 0.15463275581204958 -0.24607925549721124
0.053114479279277586 0.4940712634182903 -0.24554045199753013
0.020686205791327968 0.3258799023964084 -0.24554045199753013
0.15129987130687927 0.5569111458668119 -0.24554045199753013
0.027629073744361587 0.050774532652091184 -0.24554045199753013
0.385979584189409 0.2018550339626718 -0.24554045199753013
-0.10333096544955617 0.19049397731225315 -0.24554045199753013
0.44380089689804364 0.3424134726437658 -0.24554045199753013
-0.07209575685375756 0.02097100192687374 -0.2445398169266938
-0.026012663245318222 0.30028673616155627 -0.2445398169266938
0.09327073439122485 0.32213906667005116 -0.2440010134270127
0.2931822271586182 0.3412204077516148 -0.2440010134270127
0.271745545064163 0.009987107726231823 -0.2440010134270127
-0.08751323413748963 0.04284642401392641 -0.2440010134270127
0.3045817697732999 0.15224662602774755 -0.2440010134270127
0.30615969430808015 0.34050456881632407 -0.2440010134270127
0.45619337739070903 0.33550139346214236 -0.2440010134270127
0.2809282961372995 0.4465795835178276 -0.24300037835617638
-0.14799007838026687 0.4162064605215188 -0.24246157485649528
0.28610080973423807 0.5165393693549922 -0.24246157485649528
0.01656820761519387 0.24827680405662483 -0.24246157485649528
0.15086113131428192 0.5879462274484434 -0.24246157485649528
0.33990418777382236 -0.02344180083255409 -0.24246157485649528
0.05793292200499718 0.1286701243202732 -0.24246157485649528
0.36721382801480157 0.22212943993638634 -0.24246157485649528
0.43487215318904254 0.3447226304995418 -0.24246157485649528
0.02909923757920575 0.34773223290490335 -0.24146093978565897
-0.19404238321729583 0.3935844107277652 -0.24092213628597786
0.3526507391377067 0.00876325406267053 -0.24092213628597786
0.2710451005145777 0.32835839849494153 -0.24092213628597786
-0.22296073676446568 0.06304385805911505 -0.24092213628597786
0.17045818431696874 0.5516077799913793 -0.24092213628597786
0.2855158230774415 0.13033271797643198 -0.24092213628597786
0.41344316828744 0.38863511572355164 -0.24092213628597786
0.2737237236272779 0.4492736010162331 -0.2399215012151415
-0.17245175726578882 0.34182078879411665 -0.2393826977154604
0.15982836098754588 -0.07397387190978882 -0.2393826977154604
0.5001982289289497 0.03384070837639943 -0.2393826977154604
-0.07023303618343144 0.204610629003898 -0.2393826977154604
0.004337368172432896 0.3619720396821897 -0.2393826977154604
0.22835646895412934 0.3687840553567293 -0.2393826977154604
0.49146961223411595 0.4069698290984143 -0.2393826977154604
0.20715070264525165 0.29327459347284934 -0.23838206264462408
0.4836800530672978 0.3778667429227822 -0.23784325914494298
-0.119256457461559 0.17436835828608307 -0.23784325914494298
0.31161700404056447 -0.04718764078278551 -0.23784325914494298
0.0214020447266186 0.05254488700818626 -0.23784325914494298
0.08585833767418337 0.31421095803188637 -0.23784325914494298
0.05016645441673674 0.4788000327987575 -0.23784325914494298
0.25784441477239073 0.30465104450897323 -0.23684262407410667
0.42930708275662194 0.42789079927174606 -0.23630382057442556
0.5011064976855549 0.03758154410275682 -0.23630382057442556
0.015290473601664425 0.16474686722034915 -0.23630382057442556
0.30568246835121987 0.19582813195909604 -0.23630382057442556
0.461450560109026 0.047949662875191666 -0.23630382057442556
0.0749283238235096 0.5284238351193868 -0.23630382057442556
0.4605961717023887 0.03255527717001737 -0.23591896093179618
0.4480189585812614 0.03144688139924488 -0.23530318550358922
0.00902495861965843 0.22162142520811556 -0.23476438200390812
0.26126196839893934 0.0052610313147433896 -0.23476438200390812
0.3068986248219286 0.3637654856168426 -0.23476438200390812
0.3115323349191861 0.23277465765151434 -0.23476438200390812
0.09661901328210017 0.5381222981136466 -0.23476438200390812
0.13530510455920328 0.5405161250908013 -0.23476438200390812
0.3207458747637329 0.3958935685835412 -0.2337637469330718
0.482871847817776 0.4068389768199201 -0.2332249434333907
-0.1296014846554362 0.04687205587582946 -0.2332249434333907
0.44356998111246604 0.14409529879685776 -0.2332249434333907
0.3131795341896397 0.23113515557391331 -0.2332249434333907
0.016183347972564533 0.12369004054464926 -0.2332249434333907
0.23586123198540176 0.37123945987670454 -0.2332249434333907
-0.17735486911288684 0.40864781714027815 -0.2332249434333907
0.03481055467582534 0.23368292640811958 -0.23222430836255434
0.48114767661879654 0.4017280407658023 -0.23168550486287326
-0.17603864913509437 0.1198491413112083 -0.23168550486287326
0.2807050775445746 -0.03020763334997823 -0.23168550486287326
0.4208170790402185 0.15213886532781135 -0.23168550486287326
0.04641792149752684 0.40496855895674144 -0.23168550486287326
0.09442531331911286 0.3432216778932874 -0.23168550486287326
0.4523678725429731 0.02703638989471239 -0.23068486979203692
-0.0140589227452504 -0.037350628317179085 -0.23014606629235582
0.3054438553727896 0.25539670744526805 -0.23014606629235582
-0.18167299430318828 0.04300036787097813 -0.23014606629235582
0.3171204969301643 0.24097216803951962 -0.23014606629235582
-0.09642658346078556 0.389504898515894 -0.23014606629235582
0.030938866670974004 0.45882581734629385 -0.23014606629235582
0.4653068537281722 0.3540131422726145 -0.23014606629235582
-0.015875460258461 0.34519985645640233 -0.2291454312215195
-0.017407201636125826 0.2680970756520368 -0.2286066277218384
0.367221525207654 0.03193950174181041 -0.2286066277218384
0.3091692967134419 0.24347375571661048 -0.2286066277218384
0.11386072527189546 -0.053291514714887064 -0.2286066277218384
0.22503897883466428 0.2975619298917404 -0.2286066277218384
-0.0958108080325786 0.39127525287198894 -0.2286066277218384
0.2796197733523598 0.4668539894915423 -0.22760599265100206
0.47285010272370753 0.39117518936490525 -0.227067189151321
0.007023688477985731 0.28949527178222906 -0.227067189151321
0.18557547107944988 -0.07465892207366907 -0.227067189151321
0.3140262254034244 0.14480344053929578 -0.227067189151321
0.0858352460956256 0.5255604793782244 -0.227067189151321
0.17685455157746868 0.5549098757251393 -0.227067189151321
0.03481055467582534 -0.06031135459644659 -0.22606655408048465
0.4644524653215349 0.42572788808016904 -0.22552775058080354
0.11594666453494658 -0.06016510793224739 -0.22552775058080354
0.253418528882153 0.13133335304726826 -0.22552775058080354
0.4893220954282442 0.03772009357410339 -0.22552775058080354
0.3356245485477838 0.2332749751869325 -0.22552775058080354
0.04606385062630778 0.3914368939218934 -0.22552775058080354
-0.15917409959507603 0.34317549473617187 -0.22552775058080354
0.2477072117855334 0.32492545048268767 -0.2245271155099672
-0.19215657096841193 0.10026748269422651 -0.2239883120102861
0.4711721146818436 0.02610502955954938 -0.2239883120102861
0.0010814555957885175 0.1594973816948847 -0.2239883120102861
-0.17902515996189822 0.37174747460497526 -0.2239883120102861
0.08404180016097276 0.3435526571859487 -0.2239883120102861
0.45007410907290213 0.3548367419078413 -0.2239883120102861
0.3156657274810254 0.335062653469545 -0.22298767693944976
-0.046933633418650124 -0.00842457757715661 -0.22244887343976869
0.2306810211956106 0.1509381032428077 -0.22244887343976869
0.3014413150894443 0.11875613992614086 -0.22244887343976869
0.0850963155817772 0.5221814117159387 -0.22244887343976869
0.2757172965760981 0.4734658781519145 -0.22244887343976869
0.17673909368467988 -0.12932438571274293 -0.22144823836893235
0.4760290433718261 0.4128504844377907 -0.22090943486925124
0.32002233863558976 0.19854524103605925 -0.22090943486925124
-0.043577657334922186 -0.023133913118450665 -0.22090943486925124
-0.02183308752636346 0.24483615885151847 -0.22090943486925124
0.25768277372248627 0.41168051112419757 -0.22090943486925124
0.1626840195358558 0.5482979870647668 -0.22090943486925124
0.03481055467582534 0.18299691147383323 -0.21990879979841493
0.251555808211827 0.1196259227184832 -0.21936999629873383
0.29763120462741355 -0.044278101884507565 -0.21936999629873383
0.0939557845551051 -0.03921334898750521 -0.21936999629873383
-0.08789039658726634 0.3968249289187043 -0.21936999629873383
0.14234033882646793 0.5691650768881305 -0.21936999629873383
0.4880828473789776 0.3719783903905529 -0.21936999629873383
0.4200473597549598 0.5074104986318239 -0.2183693612278975
-0.12586834612193143 0.04203821876440473 -0.2178305577282164
0.3448226940066254 0.21921220384525578 -0.2178305577282164
-0.0022591261022342868 0.1268920727713255 -0.2178305577282164
0.24080282979676268 0.27540940886199455 -0.2178305577282164
0.1567956670036266 0.5380838121493837 -0.2178305577282164
0.020016550013152862 -0.02989974563587481 -0.21682992265738005
-0.050281912309525556 -0.007916562848885839 -0.21629111915769894
0.05691689254845564 0.12106529778191709 -0.21629111915769894
0.004922354829229469 -0.028337215486799593 -0.21629111915769894
-0.16548579773419744 0.41749958892075345 -0.21629111915769894
0.2554197990238258 0.4291377445138652 -0.21629111915769894
0.4113957149886517 0.43184715639797594 -0.21629111915769894
0.2579136895080639 0.14244809952640414 -0.21529048408686263
-0.006438701821189159 0.2510323990978511 -0.21475168058718153
0.47385073779454384 0.02363423065386892 -0.21475168058718153
0.06720034219951217 -0.019670176334786425 -0.21475168058718153
0.2373544873988037 0.5216118194448471 -0.21475168058718153
0.06452171908681185 0.3707083535698761 -0.21475168058718153
0.024596379760442207 -0.02989974563587481 -0.2137510455163452
0.10213790055740515 -0.05735563254105312 -0.2132122420166641
-0.14705871804510387 0.13441223018830317 -0.2132122420166641
-0.14001578658498656 0.12820829274911794 -0.2132122420166641
-0.1671483913903563 0.3613408698682774 -0.2132122420166641
0.08985318076467613 0.5338734476590186 -0.2132122420166641
0.3922374019785622 0.020793966491264266 -0.21221160694582777
-0.10530914401267111 0.1613216164009478 -0.21167280344614667
0.3224315599984494 0.23878616526938495 -0.21167280344614667
0.3223545880699236 -0.02953028037895061 -0.21167280344614667
0.38846577748079464 0.4122808921666994 -0.21167280344614667
0.08606616188120322 0.32687284027439234 -0.21167280344614667
-0.15414783266233656 0.341736119672738 -0.21167280344614667
0.3288048356803916 0.3602170797117998 -0.21067216837531036
-0.06180461000984852 0.0024207671521387325 -0.21013336487562925
0.3453076171563385 0.17981027363286214 -0.21013336487562925
-0.16269941392156093 0.10756442151847918 -0.21013336487562925
0.06931707023397357 0.2722227710210235 -0.21013336487562925
0.08682818397360938 0.33717168431115385 -0.21013336487562925
0.25257953486122103 0.2809744792944151 -0.2091327298047929
0.29150423911675427 -0.012557970138995957 -0.2085939263051118
-0.20539574267486183 0.03849751005221469 -0.2085939263051118
-0.08404949735382539 0.1568649417392999 -0.2085939263051118
0.4597725720671619 0.4183924632916534 -0.2085939263051118
0.2658494953390813 0.40482231229254223 -0.2085939263051118
0.26798161775924806 -0.02989974563587481 -0.20759329123427547
0.25762889337251815 -0.01422826098800736 -0.20705448773459437
-0.0622048640381831 -0.004283487822464747 -0.20705448773459437
-0.002389978380728346 0.11671638382020526 -0.20705448773459437
0.47337351183768356 0.3796909776288453 -0.20705448773459437
0.23463737832184045 0.3511189977600419 -0.20705448773459437
0.1159158757635362 -0.11099736953073293 -0.20605385266375806
-0.027305791644552914 -0.03521080870415993 -0.20551504916407695
-0.09929763639480049 0.16219139919329015 -0.20551504916407695
-0.033024805934025125 0.16351531636393513 -0.20551504916407695
0.39746379592546893 0.37782055976566664 -0.20551504916407695
0.23185099450920385 0.5329728760952658 -0.20551504916407695
-0.12256625038817152 0.42325708917448857 -0.20551504916407695
0.32691902343150775 0.19074798467638854 -0.2039756105935595
0.4596186282101103 0.025920296931087283 -0.2039756105935595
0.3989339597603131 0.05199838631565248 -0.2039756105935595
0.4480189585812614 0.4295379985421997 -0.2039756105935595
0.27266151101362085 0.45181367465758693 -0.2039756105935595
-0.11362211229346521 0.3557527078572992 -0.2039756105935595
-0.05643196939874274 0.48712839546525677 -0.2029749755227232
0.05977255109676554 0.14963727765072052 -0.2024361720230421
0.515684980948355 0.054961805563898576 -0.2024361720230421
-0.0637673941872582 0.14902150222251354 -0.2024361720230421
0.26426387361144843 0.4799161257623825 -0.2024361720230421
0.14441858089666643 0.5237516390578665 -0.2024361720230421
0.0577558865693877 0.2641022325615441 -0.20143553695220576
0.4324167486690674 0.43187024797653356 -0.20089673345252465
-0.044178038377423894 0.185798689672175 -0.20089673345252465
0.43705045876632465 0.1438181998541646 -0.20089673345252465
0.17684685438461606 -0.0866896345022628 -0.20089673345252465
0.2579059923152113 0.3882964392380377 -0.20089673345252465
-0.15562569369003335 0.36309582983866734 -0.20089673345252465
0.4230261733889108 0.43433334968936144 -0.1993572948820072
0.10217638652166816 -0.06547617100053262 -0.1993572948820072
-0.13608252103731455 0.13239556566092534 -0.1993572948820072
0.4603421643382534 0.12074971287496093 -0.1993572948820072
0.22009738102330326 0.302118668060472 -0.1993572948820072
-0.1306329084976829 0.355906651714351 -0.1993572948820072
0.2882560237329625 0.31478824749583045 -0.1983566598111709
0.4024361825082403 0.4329093690116328 -0.1978178563114898
-0.1902245755624125 0.032516791205754465 -0.1978178563114898
0.25610484918770604 0.16329979496406274 -0.1978178563114898
-0.09571844171834755 0.14000039219928143 -0.1978178563114898
0.044940060469830054 0.46599190389205236 -0.1978178563114898
-0.1532010779414683 0.3677064483573672 -0.1978178563114898
0.2583909154649244 0.14244809952640414 -0.19681722124065348
0.46305927341521674 0.3863875354105962 -0.19627841774097238
0.433094101640095 0.028829835829365227 -0.19627841774097238
-0.17754729893420154 0.08377239841113224 -0.19627841774097238
-0.04811900111794852 0.15206189339928544 -0.19627841774097238
0.04598687869778198 0.392560684078371 -0.19627841774097238
-0.158465957852638 0.3682375546641956 -0.19627841774097238
0.39928803063153223 0.020793966491264266 -0.19527778267013604
0.42006275414066485 0.371193276719589 -0.19473897917045493
0.023026152418514478 0.018530991792603556 -0.19473897917045493
0.3040891494307342 0.011488060332486375 -0.19473897917045493
0.3552216015504706 0.14260974057630846 -0.19473897917045493
0.23562261900697162 0.5285008070479127 -0.19473897917045493
0.3730867861613254 0.42733660138635976 -0.19435411952782558
0.26798161775924806 0.30465104450897323 -0.1937383440996186
0.4531221974425268 0.3750110843744723 -0.1931995405999375
0.3553678482146698 -0.004383551329548312 -0.1931995405999375
0.13272654495358652 -0.08835222815842159 -0.1931995405999375
-0.1174014339840855 0.029183906700584177 -0.1931995405999375
0.26614968586033233 0.4839879407814013 -0.1931995405999375
0.3686301114996776 5.19560517549707E-4 -0.19281468095730817
0.41435143704404526 0.030931169478121488 -0.19219890552910118
0.03331729926242352 9.506033172945674E-4 -0.19166010202942008
-0.04102988650071581 0.1341197368599049 -0.19166010202942008
-0.048303733746410615 0.11830200554783823 -0.19166010202942008
-0.1502684474646326 0.3690919430708327 -0.19166010202942008
0.14501896193916824 0.5337118066091141 -0.19166010202942008
0.4254430919446234 0.3772663618802804 -0.19166010202942008
0.338942038667249 0.3958935685835412 -0.19065946695858374
0.43861298891539985 0.13185676216124417 -0.19012066345890263
0.016776031822213728 0.019654781949081285 -0.19012066345890263
0.3762349380380337 0.1404314349990263 -0.19012066345890263
-0.0714414954612876 0.4026363095224076 -0.19012066345890263
0.07852291288566779 0.512051905921934 -0.19012066345890263
0.3828314323127009 0.42602807860142006 -0.19012066345890263
0.2708372763075577 0.47085652977488746 -0.18912002838806632
0.37997577376439096 0.3948621447412946 -0.18858122488838522
-0.010602883154438783 0.1559027926327265 -0.18858122488838522
0.3688148441281397 0.15233129514912608 -0.18858122488838522
0.3116016096548592 -2.886447319719744E-4 -0.18858122488838522
0.13755268487215874 0.3010102722896994 -0.18858122488838522
0.2501241303412458 0.3781284474797701 -0.18858122488838522
0.02286451136861014 0.4364423805309703 -0.1875805898175489
0.3726711377472859 0.4166759892855266 -0.1870417863178678
-0.03999846265846913 0.12369004054464926 -0.1870417863178678
0.3682298574713429 0.1490138050296609 -0.1870417863178678
-0.026566861130704517 0.11651625680603801 -0.1870417863178678
0.2417726760961887 0.5173783633759244 -0.1870417863178678
0.09690380941764594 0.5242288650147268 -0.1870417863178678
0.19228742324690587 0.15518695369743588 -0.18604115124703144
-0.15781169646016804 0.020793966491264266 -0.18604115124703144
-0.053183754014950874 -0.012334751546270848 -0.18550234774735033
-0.10538611594119701 0.009763889133506825 -0.18550234774735033
0.04510939871258701 0.04674890079018813 -0.18550234774735033
0.13225701618957875 0.14531145526756656 -0.18550234774735033
0.20751247070932333 0.5448958278239233 -0.18550234774735033
-0.10192237915753277 0.368583928342562 -0.18550234774735033
0.03481055467582534 0.10189159038612239 -0.18450171267651402
0.37885198360791333 0.3942309749273825 -0.18396290917683292
-0.11399157755038941 0.01438220484505907 -0.18396290917683292
0.38611813366075554 0.1310870428759855 -0.18396290917683292
0.31824428708664193 0.03372525048361062 -0.18396290917683292
0.2766024737541455 0.41551371316478586 -0.18396290917683292
-0.08844459447265264 0.4230184761960583 -0.18396290917683292
0.16044413641575284 0.08461908962491682 -0.1829622741059966
0.3927762054782435 0.4301306823918489 -0.1824234706063155
0.35445957945806456 0.13103316252601735 -0.1824234706063155
0.5155233398984508 0.043523776984954035 -0.1824234706063155
0.389335560273137 0.12856236362033688 -0.1824234706063155
0.05959551566115607 0.09656513293213213 -0.1824234706063155
0.2565820751445663 0.3528816549232842 -0.1824234706063155
-0.08104759214131639 0.4214405516612781 -0.1824234706063155
0.1994535097926645 0.16272250550011869 -0.18142283553547917
0.4085785424046049 0.4392210671507544 -0.18088403203579806
-0.04313122014947207 0.1130602172152264 -0.18088403203579806
0.010564397190175882 0.08106298652702164 -0.18088403203579806
0.3288664132232124 0.022325707868929092 -0.18088403203579806
-0.022033214540530695 0.08504243523180917 -0.18088403203579806
0.24086440733958345 0.32102297370642596 -0.18088403203579806
-0.11972598622556688 0.4365347468452013 -0.18088403203579806
0.12145015742454632 0.29016492756040413 -0.17988339696496175
0.3868031838246358 0.38158448707058185 -0.17934459346528064
0.2617237999700946 -0.024142245382139584 -0.17934459346528064
-0.08907576428656484 0.004275790629612233 -0.17934459346528064
0.3438143617429365 0.11912560518306504 -0.17934459346528064
-0.006700406378177059 0.04540958923383792 -0.17934459346528064
0.13106395129742773 0.29921682635504665 -0.17934459346528064
-0.13893817958562435 0.3548444391006939 -0.17934459346528064
0.06522216363639723 0.07164931966830757 -0.1783439583944443
0.3827313688056172 0.38372430668360097 -0.1778051548947632
0.39747149311832153 0.016560510422341246 -0.1778051548947632
0.0032905499444809676 0.026820868494839903 -0.1778051548947632
-0.10975812148146649 0.12242000372397233 -0.1778051548947632
0.11667789785594235 0.1467046471738848 -0.1778051548947632
0.24415880588049071 0.34506900417790837 -0.1778051548947632
-0.12965536500540423 0.3689226048280759 -0.1778051548947632
0.14452634159660263 0.06054996757487684 -0.17680451982392686
0.39410012264888844 0.44045261800716834 -0.17626571632424576
0.03478746309726758 0.03949044793019836 -0.17626571632424576
0.5149537476273592 0.04484769415559911 -0.17626571632424576
-0.17633114246349277 0.06462178259389541 -0.17626571632424576
0.24587527988661764 0.35228897107363505 -0.17626571632424576
0.04500163801265082 0.36613622101543936 -0.17626571632424576
0.25784441477239073 -0.08058576057016115 -0.17526508125340945
0.05162892105872828 0.16576289667689056 -0.17526508125340945
0.43491063915330547 0.3810918667280161 -0.17472627775372834
0.3259722687106396 0.04359305172062732 -0.17472627775372834
0.27263841943506323 0.019423866163503663 -0.17472627775372834
-0.014743972909130645 -0.031223662806519774 -0.17472627775372834
0.15827352803132327 0.29279736751598895 -0.17472627775372834
-0.07410472418828278 0.3949160250912628 -0.17472627775372834
0.014536148702110892 0.41616797455725585 -0.17372564268289203
0.40837841539043757 0.38000656253580134 -0.17318683918321093
-0.007223815492153078 0.019354591427830376 -0.17318683918321093
-0.1112051937377529 0.1306329084976829 -0.17318683918321093
-0.13846095362876398 0.10119884302938963 -0.17318683918321093
0.06192776509548995 0.09419439753353523 -0.17318683918321093
0.07139531230417206 0.3148113390743882 -0.17318683918321093
-0.06625358747864392 0.43297864374730616 -0.17318683918321093
0.22014356418041878 0.05380722663601046 -0.1721862041123746
0.3873650789028747 0.37685841065909326 -0.17164740061269348
0.3822002624987888 0.12227375705977324 -0.17164740061269348
0.4018050126943282 0.12345912475907163 -0.17164740061269348
0.3495641648038192 -0.005053207107723419 -0.17164740061269348
0.17877884979061548 0.3006792929970382 -0.17164740061269348
-0.06462947978674803 0.4140666409084996 -0.17164740061269348
0.27811882074610517 0.23368292640811958 -0.17064676554185715
0.3651201915588977 0.40396022669305254 -0.17010796204217604
-0.13435834983833503 0.39724057733274404 -0.17010796204217604
0.2679970121449531 0.43904403171514494 -0.17010796204217604
0.38060694357830305 0.11388381685045322 -0.17010796204217604
0.41803069522758196 0.10835723238229562 -0.17010796204217604
-0.02465795730326298 0.07889237814259198 -0.17010796204217604
-0.011257144546908751 0.05462312907838476 -0.16910732697133973
0.3655204455872324 0.3917678732145545 -0.16856852347165863
-0.13439683580259792 0.39236055706420364 -0.16856852347165863
0.25053977875528544 0.2772259463752052 -0.16856852347165863
0.4612812218662692 0.03258606594142775 -0.16856852347165863
0.41184215217410186 0.10754132993992142 -0.16856852347165863
-0.18208094552437537 0.05958012127545082 -0.16856852347165863
0.30849194374241407 0.020793966491264266 -0.1675678884008223
0.3709315721626012 0.39483905316273676 -0.16702908490114118
-0.06927088707685805 0.42444245687378696 -0.16702908490114118
0.12740008749959625 0.2928358534802519 -0.16702908490114118
0.4941944185039317 0.03696576867454986 -0.16702908490114118
0.28265246733627897 0.017361018479010303 -0.16702908490114118
-0.11073566497374503 0.0013893433098920516 -0.16702908490114118
0.03481055467582534 0.18299691147383323 -0.16602844983030488
-0.09534127926857072 0.435441745460134 -0.16548964633062377
-0.02744434111589949 0.06997902881929616 -0.16548964633062377
0.2907114282529377 0.03189331858469488 -0.16548964633062377
0.3412973796801405 -0.006438701821189159 -0.16548964633062377
0.030477035099818868 0.4214636432398357 -0.16548964633062377
0.08875248218675617 0.30529760870859046 -0.16548964633062377
0.09563377259696901 -0.11295245651529011 -0.16448901125978746
-0.08470375874629525 0.372817384411485 -0.16395020776010635
0.440529589935694 0.3857332740181262 -0.16395020776010635
0.25708239267998445 0.4831027636033537 -0.16395020776010635
-0.14257125461204545 0.01166509576809585 -0.16395020776010635
-0.017984491100069885 -0.01943156335635618 -0.16395020776010635
0.5012527443497541 0.0681778856917907 -0.16395020776010635
0.09482556734744745 -0.09072296355701837 -0.16294957268927
-0.12248927845964562 0.37541903559565937 -0.16241076918958888
0.36477381788053137 0.4176689271635103 -0.16241076918958888
0.2510323990978511 0.35012605988205797 -0.16241076918958888
-0.13422749755984106 0.10025208830852136 -0.16241076918958888
-0.15670330068939545 0.06206631456683653 -0.16241076918958888
0.4502357501228066 0.11883311185466676 -0.16241076918958888
0.2692670489656299 -0.040036948622732035 -0.16141013411875257
-0.06310543560193572 0.4132122525018623 -0.16087133061907147
-0.1630226960213696 0.06675390501406206 -0.16087133061907147
0.33364636998466884 -0.009271268790941192 -0.16087133061907147
0.3804299081426936 0.0984047620239005 -0.16087133061907147
0.06748513833505783 0.49584161777438546 -0.16087133061907147
0.12222757390265772 0.29755423269888776 -0.16087133061907147
-0.03615756342502818 0.47699119247839944 -0.15987069554823516
-0.09698078134617186 -0.019762542649017476 -0.15987069554823516
-0.1648469307274327 0.061704546502764954 -0.15933189204855405
0.4676391031625061 0.09745031011017961 -0.15933189204855405
0.2971385842848481 0.025242943960059553 -0.15933189204855405
0.10928859271745862 0.3050589957301603 -0.15933189204855405
0.2162487845970097 0.5261454660350209 -0.15933189204855405
-0.023026152418514478 0.07013297267634787 -0.15833125697771772
0.40315971863638345 0.4115265672671457 -0.1577924534780366
-0.05273731682950088 0.4164835594642119 -0.1577924534780366
0.08891412323666051 0.29362866434406837 -0.1577924534780366
0.33259955175671707 -8.043566530953696E-4 -0.1577924534780366
0.25605096883773787 -0.01990878931321667 -0.1577924534780366
-0.0175457511074724 -0.02381896328233091 -0.1577924534780366
0.06522216363639723 0.08498855488184102 -0.1567918184072003
0.3790213218506702 0.43891317943665076 -0.1562530149075192
0.06998672601214868 0.317705483586961 -0.1562530149075192
0.2678584626736065 0.4232263004030783 -0.1562530149075192
-0.02692862919477609 -0.028075510929811583 -0.1562530149075192
0.3340620183987086 -0.014182077830891834 -0.1562530149075192
0.22694788266210583 -0.04400100294181442 -0.1562530149075192
0.03481055467582534 0.17285970848697602 -0.15525237983668286
0.3876652694241255 0.4475648242029589 -0.15471357633700175
-0.11555410769946463 0.4089787964329395 -0.15471357633700175
0.243258234316738 0.3289741739231486 -0.15471357633700175
0.47829971526333925 0.03559566834678926 -0.15471357633700175
0.3443377708569125 0.09683453468197266 -0.15471357633700175
-0.048526952339135725 0.010333481404598258 -0.15471357633700175
0.2501472219198036 -0.08058576057016115 -0.15371294126616541
0.3573537239706374 0.3944618907129601 -0.1531741377664843
-0.06182770158840628 0.4181461531203708 -0.1531741377664843
0.04711066885425971 0.3384879042889462 -0.1531741377664843
0.1803490771325432 -0.10783382326831971 -0.1531741377664843
0.3238709350618833 0.06730810289944836 -0.1531741377664843
-0.047903479718076146 0.06606885485018181 -0.1531741377664843
0.08549656961011179 0.19313411446069056 -0.152173502695648
0.4012354204232367 0.43812806576568686 -0.1516346991959669
-0.050328095466641076 0.3844632371974494 -0.1516346991959669
0.12097293146768592 0.520349479817023 -0.1516346991959669
-0.04867319900333481 0.006908230585197029 -0.1516346991959669
0.0050301155291656565 0.038866975309138886 -0.1516346991959669
0.3052668199371802 0.07308869473174134 -0.1516346991959669
0.359431966040836 0.45671678650468495 -0.15063406412513056
-0.06165836334564932 -0.017237863393368868 -0.15063406412513056
-0.05793292200499718 0.4330402212901269 -0.15009526062544948
0.24676045706466512 0.3334616373562069 -0.15009526062544948
0.19701349965839443 0.14390286897554316 -0.15009526062544948
-0.11148229268044593 0.09628033679658636 -0.15009526062544948
0.4146285359867384 0.00958685369789735 -0.15009526062544948
0.21123021485712284 -0.10037524339416269 -0.1497104009828201
0.39482365877703157 0.4239113505669585 -0.14909462555461314
0.3769199882019139 0.38737277609572723 -0.14855582205493204
0.12776955275652047 0.5193873307104495 -0.14855582205493204
0.17965632977581045 0.29272039558746304 -0.14855582205493204
0.29372872785115206 0.037850945852597344 -0.14855582205493204
0.4047453403640163 0.08058576057016126 -0.14855582205493204
-0.09977486235166098 2.116728034461729E-4 -0.14855582205493204
0.055084960649539896 0.5074104986318239 -0.1475551869840957
0.37591935313107766 0.4405218927428415 -0.1470163834844146
-0.0676929625420777 0.42053998009752525 -0.1470163834844146
0.15742683681753872 0.2853233932561268 -0.1470163834844146
0.31527317064554333 0.08190967774080622 -0.1470163834844146
0.24810746581386797 -0.0431774033065876 -0.1470163834844146
-0.04935824916721506 0.006092328142822723 -0.1470163834844146
-0.026020360438170846 0.051205575451836044 -0.14601574841357826
0.3288048356803916 0.335062653469545 -0.14601574841357826
-0.08672042327367309 0.4377047201587947 -0.14547694491389718
0.21163046888545745 0.30095639193973134 -0.14547694491389718
0.22966499173906915 0.1387611441500149 -0.14547694491389718
-0.03266303786995355 0.11613139716340869 -0.14547694491389718
0.09372486876952747 -0.06965574671948738 -0.14547694491389718
-0.0713722207256143 0.008262936527252383 -0.14547694491389718
0.13656744418702757 0.2742394355484013 -0.14447630984306084
0.3601862909403894 0.4099563399252179 -0.14393750634337973
0.17406047057197954 0.5224123275015162 -0.14393750634337973
0.2633325132762853 0.4022360554940731 -0.14393750634337973
0.23841670001246074 -0.06611503800729734 -0.14393750634337973
0.4006042506093246 0.0771912985221703 -0.14393750634337973
-0.05970327636109225 0.07353513191719134 -0.14393750634337973
0.08847538324406302 0.08389555349677368 -0.14293687127254343
0.40515329158520363 0.4329401577830433 -0.14239806777286232
-0.12354379388045006 0.3955933780622904 -0.14239806777286232
0.03480285748297283 0.4314084164053783 -0.14239806777286232
0.14818250820158158 0.1465122173525702 -0.14239806777286232
0.4359112742241418 0.021117248591072828 -0.14239806777286232
0.1097196355172036 -0.08608925345976098 -0.14239806777286232
0.27188409453550955 0.45671678650468495 -0.14201320813023297
-0.03615756342502818 0.10189159038612239 -0.14139743270202598
-0.06656917238559996 0.37578080365973093 -0.1408586292023449
0.24512095498706413 0.27888854003136393 -0.1408586292023449
0.23756231160582356 0.30465104450897323 -0.1408586292023449
0.386202802782134 0.07482056312357341 -0.1408586292023449
0.11542325542097068 -0.0720726652751998 -0.1408586292023449
-0.13435834983833503 0.06991745127647539 -0.1408586292023449
0.255935510944949 0.28077435228024783 -0.13985799413150854
0.41415131002987793 0.42749054524341157 -0.13931919063182743
0.397425309961206 0.06933246461967882 -0.13931919063182743
-0.021902362262036748 0.11192872986589604 -0.13931919063182743
0.23219736818757028 0.13907672905697094 -0.13931919063182743
0.20871323279432685 0.29639195657814715 -0.13931919063182743
-0.059379994261283583 0.3773895169659217 -0.13931919063182743
0.06903997129128042 -0.0796390058492929 -0.13831855556099112
0.4113649262172414 0.43059251396300413 -0.13777975206131002
0.3504647363675718 0.061612180188533906 -0.13777975206131002
0.057286357805379835 -0.0503742786237566 -0.13777975206131002
0.25481172078847136 0.08872169341534578 -0.13777975206131002
0.24900034018476808 0.2656955514820296 -0.13777975206131002
-0.10338484579952431 0.3776512215229096 -0.13777975206131002
0.055084960649539896 0.08161718441240794 -0.13677911699047368
0.37292514511142116 0.4186772594271992 -0.1362403134907926
0.36406567613809326 0.06756211026358375 -0.1362403134907926
0.06883214708426057 -0.06415995102274016 -0.1362403134907926
0.2146554656765242 0.14144746445556783 -0.1362403134907926
0.24843074791367653 0.27668714287552404 -0.1362403134907926
-0.0995978269160514 0.3682914350141638 -0.1362403134907926
0.11398388035753679 -0.07094117792586944 -0.13523967841995627
0.40767797084085206 0.3803221474427574 -0.13470087492027516
0.43905172890799743 0.04810360673224338 -0.13470087492027516
0.18676083877874838 -0.09818154343117538 -0.13470087492027516
0.1669944475333045 0.1399926950064288 -0.13470087492027516
0.10348490930660799 0.289402905467998 -0.13470087492027516
-0.042684782964022075 0.40422193125004063 -0.13470087492027516
0.09563377259696901 -0.12113457251759026 -0.13370023984943885
0.3605095730401981 0.414151310029878 -0.13316143634975774
0.39362289669202793 0.072442130532124 -0.13316143634975774
