0.37196013881277296 0.38783486780002113 -0.145522162523636
0.6239056790612415 0.4547018438627686 -0.14424998764371239
0.5395302818093296 0.16307176923049585 -0.14424998764371239
0.6841829722927302 0.3823709224524356 -0.14424998764371239
0.539749937903705 0.3899765147201804 -0.1436916950705085
0.46479229569813396 0.4214422502394421 -0.1436916950705085
0.4512193795331935 0.4259909618604639 -0.1436916950705085
0.5716732902862485 0.31314264337515363 -0.1436916950705085
0.3579204534472851 0.3745182170785186 -0.1436916950705085
0.456838914614295 0.24866442733873764 -0.141861227617381
0.446258812735218 0.24465570361638841 -0.141861227617381
0.22327126759522642 0.29405086783903384 -0.141861227617381
0.2232804199324921 0.30271813122959257 -0.141861227617381
0.36740227485448557 0.37201962900499963 -0.141861227617381
0.5739339175908611 0.35606710515099355 -0.141861227617381
-0.12346502971344976 0.4667554720416132 -0.14152259113855242
0.48093701863471855 0.2377182319690351 -0.14152259113855242
0.44309210404130767 0.12923557835943403 -0.14152259113855242
0.2454931424761942 0.3501546952773917 -0.1400307601642535
0.23057483273320514 0.40358604023418326 -0.1400307601642535
0.5991852161067548 0.3265233604575156 -0.1400307601642535
0.23257004225711414 0.31585173520578236 -0.1400307601642535
0.43751833064653434 0.25041252375647427 -0.1400307601642535
0.6962366004715748 0.24977186014787972 -0.1388043469706581
0.4511370084978029 0.2322451342841839 -0.1388043469706581
-0.06318773648196116 0.5390772411146805 -0.1388043469706581
0.2539499021096433 0.32509559584407627 -0.13820029271112602
0.22479055558132222 0.2984531420638055 -0.13820029271112602
0.23408933024320994 0.3219654964992283 -0.13820029271112602
0.22104724963967654 0.37261453092726604 -0.13820029271112602
0.37708544768152996 0.3229905582729796 -0.13820029271112602
0.4766079631080719 0.416344398382482 -0.13820029271112602
0.3078114069179198 0.30076868339201185 -0.1363698252579985
0.2534099142109707 0.32509559584407627 -0.1363698252579985
0.2246075088360095 0.3802201231950108 -0.1363698252579985
0.606022012044186 0.3349343584046365 -0.1363698252579985
0.31178352129120657 0.2910214442041079 -0.1363698252579985
0.5428617325740217 0.2832602622028472 -0.1363698252579985
-0.039080480124272156 0.28594189702167905 -0.13607695046549811
0.21399994994513558 0.2979955252005237 -0.13607695046549811
0.30443419446689957 0.2994324421512287 -0.13453935780487103
0.5549519701019289 0.2810179395727661 -0.13453935780487103
0.5810086742971988 0.30012801978341713 -0.13453935780487103
0.22047065239194136 0.3001920861442766 -0.13453935780487103
0.21967439904983088 0.3342021714233855 -0.13453935780487103
0.455502673373512 0.24724581506256382 -0.13453935780487103
0.3353690944247544 0.3443704181255088 -0.13334955396033815
0.2020012357898849 0.3085939317541318 -0.13334955396033815
-0.06318773648196116 0.31004915337936817 -0.13334955396033815
0.09351858218028386 0.5631936498096355 -0.13334955396033815
0.24433079564345828 0.31847845600102037 -0.13270889035174352
0.2236190564113206 0.3286924643894718 -0.13270889035174352
0.21983914112061234 0.31449718929046805 -0.13270889035174352
0.21901543076670496 0.3409474439881604 -0.13270889035174352
0.36827174689472114 0.415282727259668 -0.13270889035174352
0.4405660589559916 0.24610177290435914 -0.13270889035174352
0.5457630234872288 0.39144088868268234 -0.13270889035174352
-0.0752413646608058 0.43059458750507956 -0.13092418458494423
0.1491464880808284 0.4908627283993025 -0.13092418458494423
0.39523453247928914 0.4908627283993025 -0.13092418458494423
0.3526395548450123 0.43320300362578623 -0.13092418458494423
0.31477633557707 0.2391185395706777 -0.13092418458494423
0.3810392573802854 0.17745009107481233 -0.13092418458494423
0.13494206064455908 0.17745009107481233 -0.13092418458494423
0.5395302818093296 0.15334283471712318 -0.13092418458494423
0.03324128894879526 0.5390772411146805 -0.13092418458494423
0.24593245466494482 0.3487360830012179 -0.13087842289861604
0.2251108873856196 0.33942815600206444 -0.13087842289861604
0.22271297502202259 0.35484984429466365 -0.13087842289861604
0.21910695413936138 0.34484633966332195 -0.13087842289861604
0.3484386320400847 0.28460565578089597 -0.13087842289861604
0.43178896751824525 0.3826363402331391 -0.13087842289861604
0.4781364034314334 0.3964655218415174 -0.13087842289861604
0.22895486903718723 0.2985355130991963 -0.13087842289861604
0.23670689870118228 0.3912395372628383 -0.13087842289861604
0.29220667188000793 0.3570830145874792 -0.13087842289861604
0.387107256987403 0.37226674211117183 -0.13087842289861604
0.37695731495981105 0.30202255359740415 -0.12904795544548853
0.24636261451642974 0.3316303646517414 -0.12904795544548853
0.22206315907616223 0.2999449730381044 -0.12904795544548853
0.5623196016007671 0.2726984649983016 -0.12904795544548853
0.23751230438055831 0.40368671594410527 -0.12904795544548853
0.3420319959541384 0.41461460663927646 -0.12904795544548853
0.5279983368546265 0.4048765197886382 -0.12904795544548853
0.290211462356099 0.2599950208735968 -0.12904795544548853
0.42912563737394477 0.2849534445969902 -0.12904795544548853
0.38652150740240226 0.3503651990345013 -0.12904795544548853
0.42717618953636405 0.33432115180783883 -0.12904795544548853
-0.025956028485347893 0.4667554720416132 -0.12849881520955028
0.2201320159131127 0.4667554720416132 -0.12849881520955028
0.46148830194523893 0.5029163565781468 -0.12849881520955028
0.2201320159131127 0.4173236984699052 -0.12849881520955028
0.42362508267729665 0.2275591376041775 -0.12849881520955028
0.4425612684799005 0.16539646289596782 -0.12849881520955028
0.19646407174417418 0.16539646289596782 -0.12849881520955028
-0.04015130358435165 0.5029163565781468 -0.12849881520955028
0.333712521379674 0.36175985893022006 -0.12849881520955028
0.2259986641003864 0.4038697626894181 -0.12721748799236102
0.4611954271527384 0.23692197862692474 -0.12721748799236102
0.2258430743668706 0.2554737662643719 -0.12721748799236102
0.3117743689539409 0.3772913752700067 -0.12721748799236102
0.4860623275034756 0.24712683467811047 -0.12721748799236102
0.23586488367274364 0.2719571256797849 -0.12721748799236102
0.22757286611007602 0.35192109636965974 -0.12721748799236102
0.3803253750735656 0.38370716369321867 -0.12721748799236102
0.2425826992257215 0.39434217959588935 -0.12721748799236102
0.3807372302505193 0.34617342856683936 -0.12721748799236102
0.5033602449355303 0.5293483066013079 -0.12675987112907916
0.3905027741129546 0.5029163565781468 -0.12675987112907916
0.14441472971449384 0.5029163565781468 -0.12675987112907916
-0.01649251175267881 0.16539646289596782 -0.12675987112907916
0.22959553264578195 0.16539646289596782 -0.12675987112907916
0.4662200603115735 0.19101385490248707 -0.12675987112907916
-0.06608902739516831 0.20155734743250145 -0.12675987112907916
0.3692968086684725 0.3013818899888095 -0.12538702053923353
0.23836347174626263 0.3508411205723144 -0.12538702053923353
0.24880628856635506 0.3376709072470621 -0.12538702053923353
0.3819087294205209 0.2926231032255945 -0.12538702053923353
0.2691427819706015 0.35697318654029153 -0.12538702053923353
0.49505907503559726 0.37847202677727404 -0.12538702053923353
0.4859982611426161 0.39315237575135653 -0.12538702053923353
0.4006710208150777 0.2847887025262087 -0.12538702053923353
0.47469512461955365 0.38194991493821623 -0.12538702053923353
0.23558116121750883 0.383524116947906 -0.12538702053923353
0.5997984227035525 0.2946366174240347 -0.12492940367595165
0.11128326881288611 0.1771755209568432 -0.12492940367595165
0.35737131321134685 0.1771755209568432 -0.12492940367595165
0.48041533541057707 0.19532460575460237 -0.12492940367595165
-0.057842771518828974 0.3462100379159018 -0.12492940367595165
0.07816096024854405 0.5149699847569915 -0.12492940367595165
0.3242490046470048 0.5149699847569915 -0.12492940367595165
0.5062706881860032 0.505817647491354 -0.12492940367595165
0.3190962387664509 0.3700335718183563 -0.12355655308610605
0.318409813471528 0.31110167216491647 -0.12355655308610605
0.35911025729181795 0.30869460746405386 -0.12355655308610605
0.4052380371106308 0.33415640973705735 -0.12355655308610605
0.5638297372495972 0.27363200339939664 -0.12355655308610605
0.21105289734560043 0.3843752843136102 -0.12355655308610605
0.28274315514733883 0.24821596281272135 -0.12355655308610605
0.47016471767306334 0.29762943170989814 -0.12355655308610605
0.44635948844514023 0.20665519928946155 -0.12355655308610605
0.20293477419097997 0.3902510848381495 -0.12355655308610605
0.3686469927226122 0.3324815320174456 -0.12355655308610605
0.2539407497723776 0.32788705871009566 -0.12355655308610605
0.5935839857001847 0.3823709224524356 -0.12309893622282417
0.4662200603115735 0.4608522145052769 -0.12309893622282417
0.2863857853790625 0.5003353974692373 -0.12309893622282417
0.04029774098060177 0.5003353974692373 -0.12309893622282417
-0.057842771518828974 0.2618346406639899 -0.12309893622282417
0.11601502717922078 0.16797742200487756 -0.12309893622282417
0.3621030715776814 0.16797742200487756 -0.12309893622282417
0.4662200603115735 0.217271910517601 -0.12309893622282417
-0.13551865789229425 0.5029163565781468 -0.12309893622282417
0.307152438634794 0.345880553774339 -0.12172608563297854
0.2147321369263867 0.409297098687941 -0.12172608563297854
0.3852310278479473 0.3653658798128811 -0.12172608563297854
0.3659562055665148 0.32035468514047605 -0.12172608563297854
0.23601132106899375 0.35367834512466206 -0.12172608563297854
0.3260428627510697 0.2553913952289812 -0.12172608563297854
0.4396965869157561 0.4454579832244748 -0.12172608563297854
0.48616300321339756 0.24112290143185225 -0.12172608563297854
0.5534143774413016 0.40340299348887054 -0.12172608563297854
0.4831793412647998 0.27327506224603676 -0.12172608563297854
0.27279456453959083 0.2770092158504169 -0.12172608563297854
0.2573911809215229 0.3878714771490837 -0.12172608563297854
0.24365352268580112 0.2950393202637227 -0.12172608563297854
0.3116370838949563 0.32385087797594947 -0.12172608563297854
0.42327729386120233 0.3348794443810426 -0.12172608563297854
0.4994430445858375 0.2535426231013223 -0.12172608563297854
0.17188089384867197 0.4791660413738176 -0.12172608563297854
0.36718261876011027 0.4791660413738176 -0.12172608563297854
0.20234902460597912 0.32974498317502005 -0.12172608563297854
0.2988878780839233 0.230982111741526 -0.12172608563297854
-0.06565886754368337 0.47987077134327166 -0.12126846876969667
0.1775370382788359 0.5149699847569915 -0.12126846876969667
0.42362508267729665 0.5149699847569915 -0.12126846876969667
0.5088150379458503 0.2256646037901906 -0.12126846876969667
0.34790779647867764 0.15334283471712318 -0.12126846876969667
0.10181975208021703 0.15334283471712318 -0.12126846876969667
-0.07814265557401281 0.2165122665245531 -0.12053628178844566
0.3431760381123431 0.15334283471712318 -0.12053628178844566
0.09708799371388235 0.15334283471712318 -0.12053628178844566
-0.057842771518828974 0.28594189702167905 -0.12053628178844566
0.5424315727225368 0.4426482156839241 -0.12053628178844566
0.46221133658922436 0.4524961305817501 -0.12053628178844566
0.3621030715776814 0.5149699847569915 -0.12053628178844566
0.11601502717922078 0.5149699847569915 -0.12053628178844566
0.2248637742794474 0.27181984062080033 -0.12053628178844566
0.6962366004715748 0.24977186014787972 -0.12053628178844566
0.3828239631470847 0.11718195018058954 -0.12053628178844566
0.3155634365819148 0.321187547831649 -0.11989561817985105
0.2852417432208578 0.2607363601921134 -0.11989561817985105
0.22654780433632465 0.3054821370838151 -0.11989561817985105
0.3670636383756569 0.34264062638230336 -0.11989561817985105
0.40355400705375355 0.3056194221427997 -0.11989561817985105
0.4201105851672917 0.27617635315924394 -0.11989561817985105
0.6007136564301162 0.31176064044804236 -0.11989561817985105
0.6129411790170081 0.3228075115276669 -0.11989561817985105
0.46037171679883104 0.42484691970225924 -0.11989561817985105
0.4290158093267571 0.4165549021395916 -0.11989561817985105
0.45714094174406117 0.20586809828461675 -0.11989561817985105
0.49780477621528835 0.3938388010462794 -0.11989561817985105
0.32385545414458233 0.31528429029531285 -0.11989561817985105
0.3057338263586202 0.3418260683656615 -0.11989561817985105
0.33679685903819373 0.26744502340782567 -0.11989561817985105
0.394731153929679 0.2860517250688667 -0.11989561817985105
0.41134264606681104 0.2806701507566719 -0.11989561817985105
0.3409245631449963 0.39151410738080744 -0.11989561817985105
0.22801217829882664 0.4337521438617245 -0.11989561817985105
0.23450118542016363 0.23028653410933747 -0.11989561817985105
0.14624519716762135 0.17994867914833132 -0.11989561817985105
0.31584715903714955 0.17994867914833132 -0.11989561817985105
0.23337544793649018 0.22862996106425712 -0.11989561817985105
0.22358244706225813 0.3799821624261043 -0.11989561817985105
0.37807390010621883 0.4466569394062733 -0.11989561817985105
-0.04489221428795188 0.5086914813927641 -0.11943800131656918
0.20120498244777443 0.5086914813927641 -0.11943800131656918
0.447293026846235 0.5086914813927641 -0.11943800131656918
0.48987885214324645 0.21525839631916077 -0.11943800131656918
0.3621030715776814 0.15334283471712318 -0.11943800131656918
0.11601502717922078 0.15334283471712318 -0.11943800131656918
0.09351858218028386 0.5752472779884801 -0.11870581433531817
0.5033602449355303 0.4397560771079826 -0.11870581433531817
0.4662200603115735 0.5149699847569915 -0.11870581433531817
0.2201320159131127 0.5114280302351898 -0.11870581433531817
-0.025956028485347893 0.5114280302351898 -0.11870581433531817
-0.06318773648196116 0.2618346406639899 -0.11870581433531817
0.5033602449355303 0.2256646037901906 -0.11870581433531817
0.4567565435789044 0.15334283471712318 -0.11870581433531817
0.21066849918044364 0.15334283471712318 -0.11870581433531817
-0.030687786851682566 0.15334283471712318 -0.11870581433531817
0.45202478521256984 0.2328766455555129 -0.11870581433531817
0.5544852009013814 0.2377182319690351 -0.11870581433531817
0.30521214313447886 0.3237318975914963 -0.11806515072672354
0.23490388825985167 0.3217824497539154 -0.11806515072672354
0.2738928450114674 0.4037599346422304 -0.11806515072672354
0.3647572493847163 0.36159511685943857 -0.11806515072672354
0.3968544961753069 0.30521671930311156 -0.11806515072672354
0.4261602800998781 0.3982593799455823 -0.11806515072672354
0.4865931630648825 0.23926497696692794 -0.11806515072672354
0.4892473408719173 0.38124518496876214 -0.11806515072672354
0.44348565454372985 0.4509036238975291 -0.11806515072672354
0.42918970373480425 0.44646474032369493 -0.11806515072672354
-0.06349891594899289 0.18771901348685757 -0.11806515072672354
0.5972083112573773 0.35761385014888625 -0.11806515072672354
0.23822618668727807 0.37105863359210767 -0.11806515072672354
0.25542342840941096 0.2810179395727661 -0.11806515072672354
0.2532177151283923 0.38850298842041275 -0.11806515072672354
0.31020931928151685 0.3246745883298569 -0.11806515072672354
0.43932134108786497 0.2595923180339087 -0.11806515072672354
0.3758407298134033 0.32979074486134824 -0.11806515072672354
0.4176943681291636 0.3224780273861039 -0.11806515072672354
0.2743962235610774 0.39154156439260435 -0.11806515072672354
0.1341641119769798 0.4930318323312585 -0.11806515072672354
0.2845644702632007 0.4378615432939957 -0.11806515072672354
-0.02427199842847062 0.17528098714285628 -0.11806515072672354
0.22423226300811838 0.24903967316662876 -0.11806515072672354
0.4417375581259931 0.2147092560832225 -0.11806515072672354
-0.011760753386344138 0.5149699847569915 -0.11760753386344168
0.23432729101211647 0.5149699847569915 -0.11760753386344168
0.48041533541057707 0.5114280302351898 -0.11760753386344168
0.48752670146597754 0.22213180160565457 -0.11760753386344168
0.3857710157466199 0.15688478923892488 -0.11760753386344168
0.1396829713481593 0.15688478923892488 -0.11760753386344168
-0.0752413646608058 0.21361097561134595 -0.11760753386344168
0.4828681617977679 0.26741756639602876 -0.11687534688219067
0.5167775713669549 0.18497331230716635 -0.11687534688219067
0.37629834667668516 0.15414824039649921 -0.11687534688219067
0.2154002575467782 0.14128920653827867 -0.11687534688219067
0.04976125771327099 0.15024019238407207 -0.11687534688219067
-0.07095807082048743 0.1727091803712121 -0.11687534688219067
-0.04489221428795188 0.5180726270900425 -0.11687534688219067
0.12074678554555532 0.5270236129358361 -0.11687534688219067
0.28165402701272796 0.5141645790776155 -0.11687534688219067
0.447293026846235 0.5141645790776155 -0.11687534688219067
0.5997984227035525 0.457017385190975 -0.11687534688219067
0.5371415217829983 0.42769329659187244 -0.11687534688219067
0.30574297869588574 0.3493035279116874 -0.11623468327359605
0.36418065213698114 0.34001390558706535 -0.11623468327359605
0.4062905558961792 0.32333834708907383 -0.11623468327359605
0.4232040751630774 0.281045396584563 -0.11623468327359605
0.2344188143847729 0.3924476457819025 -0.11623468327359605
0.2328263077005519 0.36529266111475606 -0.11623468327359605
0.40703189521469574 0.25534563354265294 -0.11623468327359605
0.22566917995882343 0.2467515888502194 -0.11623468327359605
0.22937587655140662 0.42397744766202355 -0.11623468327359605
0.4958553283777076 0.4239957523365549 -0.11623468327359605
0.49176423361996763 0.42331847937889777 -0.11623468327359605
0.46872780072235815 0.2422486389155257 -0.11623468327359605
0.4354132930754376 0.2974189279527885 -0.11623468327359605
0.24811071093416653 0.3644048843999893 -0.11623468327359605
0.2740209777331863 0.2701724199129857 -0.11623468327359605
0.42764295873691144 0.30055817963490206 -0.11623468327359605
0.29281072613954 0.37717239488555354 -0.11623468327359605
0.23962649428892066 0.3879813051962714 -0.11623468327359605
0.44599339495451457 0.3923103607229179 -0.11623468327359605
0.2460971967357263 0.3611008906470941 -0.11623468327359605
0.29347884675993163 0.32594676320978044 -0.11623468327359605
0.4008540675603906 0.3388881681033919 -0.11623468327359605
-0.047637915467643094 0.4793856974681929 -0.11623468327359605
0.3817897490360677 0.4493477265623708 -0.11623468327359605
0.48186140469854793 0.20565759452750698 -0.11623468327359605
0.08762447698121327 0.15414824039649921 -0.11577706641031417
0.333712521379674 0.15414824039649921 -0.11577706641031417
0.5324738297775232 0.18950371925365683 -0.11577706641031417
0.5040832795795157 0.4981113795136871 -0.11577706641031417
0.2674587519137242 0.5270236129358361 -0.11577706641031417
0.02137070751526347 0.5270236129358361 -0.11577706641031417
0.6841829722927302 0.2979955252005237 -0.11504487942906318
0.06941132582259471 0.13838791562507152 -0.11504487942906318
0.32898076301333934 0.151402539216808 -0.11504487942906318
0.08289271861487872 0.151402539216808 -0.11504487942906318
-0.06629037881501239 0.1491876735985238 -0.11504487942906318
-0.06318773648196116 0.5101192460062036 -0.11504487942906318
0.1775370382788359 0.5169102802573066 -0.11504487942906318
0.42362508267729665 0.5169102802573066 -0.11504487942906318
0.5064628872685814 0.5149699847569915 -0.11504487942906318
0.4859067377699598 0.31004915337936817 -0.11504487942906318
0.30001361556759676 0.35009978125379787 -0.11440421582046856
0.2048476126794981 0.27844613280112196 -0.11440421582046856
0.20640351001465648 0.3217549927421185 -0.11440421582046856
0.3852310278479473 0.34684154918723087 -0.11440421582046856
0.39683619150077565 0.32640438007306244 -0.11440421582046856
0.41585474833877023 0.27991965910088956 -0.11440421582046856
0.20246800499043244 0.38692878641072315 -0.11440421582046856
0.4493523027310037 0.4165274451277947 -0.11440421582046856
0.431367960004026 0.44467088221962997 -0.11440421582046856
0.5675913478657741 0.2738058978074438 -0.11440421582046856
0.5895661096405699 0.287964563557385 -0.11440421582046856
0.5895111956169761 0.38533627972650214 -0.11440421582046856
0.49978168106466614 0.2779885159378401 -0.11440421582046856
0.4699084522296253 0.17707484524692121 -0.11440421582046856
0.4070501998892271 0.18070832314137922 -0.11440421582046856
0.44890383820498736 0.4572370412853503 -0.11440421582046856
0.3152888664639457 0.29340105189317356 -0.11440421582046856
0.40367298743820684 0.2687080459504837 -0.11440421582046856
0.32561270289958477 0.31677612126961174 -0.11440421582046856
0.3248164495574743 0.3785086361263366 -0.11440421582046856
0.41662354466908386 0.3738867058071896 -0.11440421582046856
0.2250834303738227 0.37687036775578747 -0.11440421582046856
0.23317409651664625 0.2959545539902864 -0.11440421582046856
0.23731095296071436 0.2991578720332596 -0.11440421582046856
-0.07328276448595938 0.16934112025745754 -0.11394659895718669
0.16807352154616667 0.14128920653827867 -0.11394659895718669
0.41416156594462755 0.14128920653827867 -0.11394659895718669
0.5135467963121848 0.43787069563126124 -0.11394659895718669
0.3715665883103506 0.5270236129358361 -0.11394659895718669
0.12547854391188987 0.5270236129358361 -0.11394659895718669
-0.0872949928396503 0.4667554720416132 -0.11394659895718669
0.46221133658922436 0.2979955252005237 -0.11321441197593568
0.6239056790612415 0.4547018438627686 -0.11321441197593568
0.45202478521256984 0.5270236129358361 -0.11321441197593568
0.20593674081410895 0.5270236129358361 -0.11321441197593568
-0.03541954521801711 0.5270236129358361 -0.11321441197593568
-0.057842771518828974 0.2618346406639899 -0.11321441197593568
0.02137070751526347 0.14128920653827867 -0.11321441197593568
0.2674587519137242 0.14128920653827867 -0.11321441197593568
0.5033602449355303 0.15024019238407207 -0.11321441197593568
0.5561417739464617 0.21361097561134595 -0.11321441197593568
0.3148678589497263 0.36196121035006396 -0.11257374836734106
0.22413158729819627 0.2554737662643719 -0.11257374836734106
0.22977857939109464 0.3062783904259255 -0.11257374836734106
0.40618072784899156 0.3450293864086347 -0.11257374836734106
0.42829277468277166 0.3943513319331551 -0.11257374836734106
0.3710815144352718 0.32000689632438173 -0.11257374836734106
0.6170963401356072 0.3258735445116554 -0.11257374836734106
0.5060052704052996 0.4305030641324231 -0.11257374836734106
0.47642491636275935 0.4268421292261681 -0.11257374836734106
-0.061101003585395865 0.1734962813760569 -0.11257374836734106
-0.06414873189485314 0.20409254485508305 -0.11257374836734106
0.3113075997533934 0.23428610549442105 -0.11257374836734106
0.25206452063292195 0.23131159588308897 -0.11257374836734106
0.3726282594331646 0.3880636762316621 -0.11257374836734106
0.4353858360636408 0.29749214665091356 -0.11257374836734106
0.4242016799250317 0.30135443297701253 -0.11257374836734106
0.3777535683019216 0.33288423485713375 -0.11257374836734106
0.3105845651094081 0.332399160982055 -0.11257374836734106
0.3336576073560802 0.40923303232708164 -0.11257374836734106
-0.04854399685694124 0.4587380245969147 -0.11257374836734106
0.6061409924286394 0.3525068459546605 -0.11257374836734106
-0.0590691847124244 0.17595826010051344 -0.11257374836734106
0.4489495998913155 0.2118354221818124 -0.11257374836734106
0.2297053606929696 0.33791802035323437 -0.11257374836734106
0.20856346160934697 0.2962108194337243 -0.11257374836734106
0.09708799371388235 0.5270236129358361 -0.11211613150405919
0.3431760381123431 0.5270236129358361 -0.11211613150405919
0.5561326216091962 0.4547018438627686 -0.11211613150405919
0.447293026846235 0.14128920653827867 -0.11211613150405919
0.20120498244777443 0.14128920653827867 -0.11211613150405919
-0.04015130358435165 0.14128920653827867 -0.11211613150405919
-0.02122427011901335 0.5223833779421578 -0.1113839445228082
0.2248637742794474 0.5223833779421578 -0.1113839445228082
0.47095181867790803 0.5223833779421578 -0.1113839445228082
0.5608735323127965 0.43610429453899324 -0.1113839445228082
0.5395302818093296 0.15334283471712318 -0.1113839445228082
0.34790779647867764 0.1459294415319568 -0.1113839445228082
0.10181975208021703 0.1459294415319568 -0.1113839445228082
-0.0872949928396503 0.16539646289596782 -0.1113839445228082
-0.10225906426896764 0.4908627283993025 -0.1113839445228082
0.3466539262732853 0.42578045810335413 -0.1113839445228082
0.31004457721073536 0.24061952288224225 -0.1113839445228082
0.31714679092887016 0.2969430064149753 -0.11074328091421357
0.384205966074196 0.2995056608493538 -0.11074328091421357
0.3710815144352718 0.34830592314973297 -0.11074328091421357
0.42709381850097317 0.2837178790661292 -0.11074328091421357
0.22930265785328158 0.26698740654454384 -0.11074328091421357
0.2290921540961718 0.31676696893234607 -0.11074328091421357
0.4692769409582964 0.23564065140973547 -0.11074328091421357
0.3651416475498731 0.2270557590545675 -0.11074328091421357
0.46121373182726977 0.4456867916561158 -0.11074328091421357
0.506224926499675 0.4272173750540593 -0.11074328091421357
0.2444863853769741 0.3985522547380827 -0.11074328091421357
0.5066093246648318 0.4312444034509398 -0.11074328091421357
0.5305792959635364 0.4715055350824791 -0.11074328091421357
0.5061608601388154 0.3920907046285426 -0.11074328091421357
0.5262776974486868 0.25473242694585524 -0.11074328091421357
0.31910539110371655 0.2799379637754208 -0.11074328091421357
0.35598015794696997 0.3154581847033599 -0.11074328091421357
0.4035448547164878 0.3998793436416001 -0.11074328091421357
0.4465516875277185 0.38869518750299115 -0.11074328091421357
0.19773624662409778 0.2771281962348702 -0.11074328091421357
0.2099454645364582 0.3811078999097776 -0.11074328091421357
0.24165831316189212 0.49500873718063604 -0.11074328091421357
0.33299863907295424 0.25936350960226784 -0.11074328091421357
0.5305976006380675 0.44816707505510345 -0.11074328091421357
0.3826592210763033 0.2170156450741631 -0.11074328091421357
0.5318697755179912 0.22150029033432556 -0.11074328091421357
-0.08274628121862847 0.174731846906918 -0.11028566405093168
0.1586100048134976 0.1459294415319568 -0.11028566405093168
0.40469804921195823 0.1459294415319568 -0.11028566405093168
0.5514008632428614 0.4237211822185858 -0.11028566405093168
0.3810392573802854 0.5223833779421578 -0.11028566405093168
0.13494206064455908 0.5223833779421578 -0.11028566405093168
-0.07692539471768307 0.45771296282316337 -0.11028566405093168
-0.057842771518828974 0.2377182319690351 -0.10955347706968069
0.09351858218028386 0.5631936498096355 -0.10955347706968069
0.36933341801753505 0.42578045810335413 -0.10955347706968069
0.5546773999839597 0.481710391133665 -0.10955347706968069
0.5703370490454656 0.413388193445681 -0.10955347706968069
0.5636375381670189 0.18950371925365683 -0.10955347706968069
0.4278443101567554 0.30058563664669896 -0.10891281346108606
0.4256935108993307 0.29247666582934423 -0.10891281346108606
0.4986284865691958 0.3836430973323592 -0.10891281346108606
0.5356771478204964 0.24703531130545406 -0.10891281346108606
0.6287106561257013 0.32607489593149946 -0.10891281346108606
0.20166259931105626 0.4131776896885714 -0.10891281346108606
0.5379469274623744 0.46294809973910805 -0.10891281346108606
-0.05274491966186887 0.44393869523837903 -0.10891281346108606
0.23254258524531723 0.3185974363854736 -0.10891281346108606
0.4975759677836474 0.20951988085360612 -0.10891281346108606
0.30777479756885734 0.22441988592206394 -0.10891281346108606
0.2917673596912573 0.5008570806933784 -0.10891281346108606
0.19750743819245692 0.30459436036904824 -0.10891281346108606
-0.042009228049276086 0.2852920810758188 -0.10891281346108606
0.3800874143046591 0.399906800653397 -0.10891281346108606
0.3978704056117927 0.26600810645712064 -0.10891281346108606
0.5092818071463979 0.46814662730599 -0.10891281346108606
0.4378478147880973 0.4165274451277947 -0.10891281346108606
0.5148647328784367 0.2525358660021022 -0.10891281346108606
0.5262960021232178 0.41118248016466236 -0.10891281346108606
0.32204329136598614 0.3564148939670877 -0.10891281346108606
0.29843941355790704 0.42578045810335413 -0.1084551965978042
0.5939958408771385 0.24977186014787972 -0.1084551965978042
0.587744794524708 0.4547018438627686 -0.10772300961655319
0.5750688074118001 0.4667554720416132 -0.10772300961655319
0.6026997136167597 0.22276331287698345 -0.10772300961655319
0.32898076301333934 0.2376267085963788 -0.10772300961655319
0.34790779647867764 0.4318759147222688 -0.10772300961655319
-0.057842771518828974 0.4360951422017277 -0.10772300961655319
0.009134032591106123 0.11718195018058954 -0.10772300961655319
0.40783730089407205 0.397911591129488 -0.10708234600795857
0.5736227381238292 0.273119472512521 -0.10708234600795857
0.5456623477773069 0.42138733621584823 -0.10708234600795857
-0.04706131821990804 0.44562272529525626 -0.10708234600795857
0.2650516872128615 0.2363545337164551 -0.10708234600795857
0.38642083169248026 0.44494545233759913 -0.10708234600795857
0.2307212701294554 0.2633356239755545 -0.10708234600795857
0.5439234036968358 0.4065513975082498 -0.10708234600795857
0.5435939195552728 0.26327155761469495 -0.10708234600795857
0.4279815952157401 0.408592368718487 -0.10708234600795857
0.287685417270783 0.32013502904610075 -0.10708234600795857
0.37069711627011503 0.26624606722602717 -0.10708234600795857
0.4426985535388852 0.2592170722060176 -0.10708234600795857
-0.04746402105959606 0.4498511051119807 -0.10708234600795857
-0.0743261309342421 0.19137994839311262 -0.10708234600795857
0.4330794470727 0.4575482207523819 -0.10708234600795857
0.04185363831576016 0.1588433894137713 -0.10708234600795857
0.3091110388096404 0.1588433894137713 -0.10708234600795857
0.5467972375982459 0.22251619977081136 -0.10708234600795857
0.3238096924582542 0.31338975648132583 -0.10708234600795857
0.22333533395608593 0.34596292480972973 -0.10662472914467669
0.5750688074118001 0.25644391401452943 -0.10662472914467669
0.09351858218028386 0.5511308692935252 -0.10589254216342568
0.5939958408771385 0.39770108737237836 -0.10589254216342568
-0.06318773648196116 0.3944245506312801 -0.10589254216342568
0.5182785546785194 0.15334283471712318 -0.10589254216342568
0.614753341795604 0.25892419741351724 -0.10589254216342568
0.4188933243109621 0.43298334753141093 -0.10589254216342568
0.45202478521256984 0.22644255245776973 -0.10589254216342568
0.3857710157466199 0.30685498767366065 -0.10589254216342568
0.3857710157466199 0.37598259104102055 -0.10589254216342568
0.3094588276257346 0.2801759245443275 -0.10525187855483108
0.29451306087094864 0.29529558570716063 -0.10525187855483108
0.47369751985759934 0.23595183087676708 -0.10525187855483108
0.5224337157971188 0.22424599151401678 -0.10525187855483108
0.5344598869641665 0.2326935988102002 -0.10525187855483108
0.5597660995036542 0.25049489479186504 -0.10525187855483108
0.6051799970157473 0.37220267575031235 -0.10525187855483108
0.48220919351464203 0.38119027094516833 -0.10525187855483108
0.4614974542825046 0.2439875829959968 -0.10525187855483108
0.5242824879247776 0.2586679319700793 -0.10525187855483108
0.5846238475171257 0.38349665993610904 -0.10525187855483108
0.2858457974803899 0.26657555136759015 -0.10525187855483108
0.33375828306600214 0.2694676899435316 -0.10525187855483108
0.43911083733075534 0.3754242984678168 -0.10525187855483108
0.29648996572032627 0.39090090078400974 -0.10525187855483108
-0.069731657626892 0.20154819509523578 -0.10525187855483108
-0.04218312245732325 0.4361225992135246 -0.10525187855483108
0.4413257029490395 0.15819357346791105 -0.10525187855483108
0.1976996372750353 0.26305190152031965 -0.10525187855483108
0.273700645928889 0.43888660506774707 -0.10525187855483108
0.5104716109909307 0.4501348275672155 -0.10525187855483108
0.23218564409195735 0.33432115180783883 -0.10525187855483108
0.39523453247928914 0.28197893498565807 -0.10479426169154919
0.5892640825108038 0.2666121607166527 -0.10479426169154919
0.4851470937769119 0.24977186014787972 -0.10479426169154919
0.42362508267729665 0.4409275762779842 -0.10479426169154919
0.5774758721126628 0.44686744316338295 -0.10479426169154919
-0.07226685504947358 0.2256646037901906 -0.1040620747102982
0.5154230254516406 0.5180726270900425 -0.1040620747102982
0.5991486067576923 0.27388826884283457 -0.1040620747102982
0.478676391330106 0.40647817881012477 -0.1040620747102982
0.21491518367169943 0.3426772357313658 -0.10342141110170357
0.3864116793552146 0.27313777718705223 -0.10342141110170357
0.4833623880101124 0.4288098817382802 -0.10342141110170357
0.5797639564290722 0.39750888828979997 -0.10342141110170357
0.5200724127825843 0.4456684869815844 -0.10342141110170357
0.461836090761333 0.42088395766623815 -0.10342141110170357
0.47404530867369343 0.2164848095127562 -0.10342141110170357
-0.062080303672819075 0.1510913597497764 -0.10342141110170357
0.502911780409514 0.3230546246338391 -0.10342141110170357
0.24164916082462642 0.4392526985583726 -0.10342141110170357
0.20186395073090035 0.24113205376911792 -0.10342141110170357
0.4220600330048727 0.2623563238881313 -0.10342141110170357
0.41063791609735695 0.3577053735215425 -0.10342141110170357
0.43092864781527535 0.36716889025421173 -0.10342141110170357
0.4414263786589615 0.4075032405838761 -0.10342141110170357
0.17302493600687666 0.512279197600894 -0.10342141110170357
0.1963725483715179 0.3351814715108087 -0.10342141110170357
0.3207253547997343 0.22312025403034333 -0.10342141110170357
0.5324006110793981 0.22407209710596962 -0.10342141110170357
0.4175570830701789 0.5101192460062036 -0.10342141110170357
0.318409813471528 0.3600483718615457 -0.10342141110170357
0.2345744041182887 0.3313008805101785 -0.10342141110170357
0.4898971568177775 0.2632807099519607 -0.1022316072571707
0.49592854707583284 0.5261358362210692 -0.1022316072571707
-0.12346502971344976 0.21361097561134595 -0.1022316072571707
0.2929205541867277 0.28902623468019895 -0.10159094364857608
0.30513892443635376 0.2877449074630097 -0.10159094364857608
0.21299319284591547 0.33771666893339025 -0.10159094364857608
0.3765637644573886 0.4507388818267476 -0.10159094364857608
0.33093936318818573 0.22938045272003946 -0.10159094364857608
0.44854689705162737 0.15168626167204283 -0.10159094364857608
0.4487482484714716 0.5204705394536396 -0.10159094364857608
0.6286557421021075 0.3234573274735271 -0.10159094364857608
0.578125688058523 0.24901221615483182 -0.10159094364857608
0.3875465691761536 0.21311674939900166 -0.10159094364857608
0.4103999553284505 0.3242993425019658 -0.10159094364857608
0.4213919123844811 0.3040635248076413 -0.10159094364857608
0.41389614816392384 0.5103022927515165 -0.10159094364857608
0.27053393723497837 0.4364337786805562 -0.10159094364857608
0.07649523486619801 0.5103022927515165 -0.10159094364857608
-0.042366169202635966 0.4258079151151511 -0.10159094364857608
0.006955776321884406 0.15463331427157812 -0.10159094364857608
0.5028568663859202 0.33177680204799154 -0.10159094364857608
0.3280106152631818 0.44721523197947716 -0.10159094364857608
0.23312833483031797 0.33836648487925053 -0.10159094364857608
0.4671993603989967 0.12633428744622702 -0.1004011398040432
-0.06318773648196116 0.14128920653827867 -0.1004011398040432
0.1586100048134976 0.12923557835943403 -0.1004011398040432
0.40469804921195823 0.12923557835943403 -0.1004011398040432
0.6034593576098076 0.2610200826473482 -0.1004011398040432
0.6223955434124114 0.29416069588622146 -0.1004011398040432
0.5171345125203147 0.50970739082925 -0.1004011398040432
0.2863857853790625 0.5291561075187297 -0.1004011398040432
0.04502949934693644 0.5257697427304437 -0.1004011398040432
-0.1016733146839669 0.47837894036897294 -0.1004011398040432
0.3694523984019883 0.30156493673412216 -0.09976047619544857
0.3968544961753069 0.3754517554796137 -0.09976047619544857
0.40405738560336363 0.4405157211010305 -0.09976047619544857
0.6311543301756265 0.34302502454746 -0.09976047619544857
0.5102336502220242 0.22965502283800848 -0.09976047619544857
0.5030033037821706 0.3425582553469126 -0.09976047619544857
0.5144345730269517 0.23966767980661596 -0.09976047619544857
-0.02122427011901335 0.1391567119553851 -0.0993028593321667
0.20593674081410895 0.1391567119553851 -0.0993028593321667
0.4425612684799005 0.1425430767436709 -0.0993028593321667
0.6413225768777499 0.3203638374777416 -0.0993028593321667
0.5987275992434731 0.4172779367835769 -0.0993028593321667
0.3857710157466199 0.5390772411146805 -0.0993028593321667
0.1396829713481593 0.5390772411146805 -0.0993028593321667
-0.07801452285229393 0.5270236129358361 -0.0993028593321667
-0.08747803958496314 0.4505100733951066 -0.09857067235091571
0.011898038445328704 0.5303642160377936 -0.09857067235091571
0.27219051028005875 0.5303642160377936 -0.09857067235091571
0.5182785546785194 0.510238226390657 -0.09857067235091571
0.6555178519767535 0.40648733114739044 -0.09857067235091571
0.6239056790612415 0.2256646037901906 -0.09857067235091571
0.4494255214291286 0.1391567119553851 -0.09857067235091571
0.18700055501150512 0.12923557835943403 -0.09857067235091571
-0.06381924775329018 0.14367796656461002 -0.09857067235091571
0.4671993603989967 0.1051283220017449 -0.09857067235091571
0.4115989115102491 0.28702187281902425 -0.09793000874232108
0.3850571334399003 0.29952396552388505 -0.09793000874232108
0.41145247411399866 0.4357382010483678 -0.09793000874232108
0.504485982419204 0.23155870898926117 -0.09793000874232108
0.3725275837232426 0.24082087430208632 -0.09793000874232108
0.5006236960931046 0.2833517855755036 -0.09793000874232108
0.5659164701461626 0.403165032719964 -0.09793000874232108
0.14441472971449384 0.1379486034363209 -0.09747239187903921
0.3905027741129546 0.1379486034363209 -0.09747239187903921
0.5608735323127965 0.19075758945904916 -0.09747239187903921
0.540784152014722 0.4929128519468052 -0.09747239187903921
0.37629834667668516 0.5390772411146805 -0.09747239187903921
0.13021030227822453 0.5390772411146805 -0.09747239187903921
-0.06855100611962485 0.5270236129358361 -0.09747239187903921
-0.12346502971344976 0.17406372628652642 -0.09747239187903921
0.4100247095005592 0.5390772411146805 -0.0967402048977882
-0.06318773648196116 0.3221027815582128 -0.0967402048977882
0.09351858218028386 0.09306554148563471 -0.0967402048977882
0.6413225768777499 0.24977186014787972 -0.0967402048977882
0.5703370490454656 0.474306150285764 -0.0967402048977882
0.3081317387222172 0.36871563525210443 -0.0960995412891936
0.38487408669458745 0.2824731611980024 -0.0960995412891936
0.5043853067092816 0.38734064158767684 -0.0960995412891936
0.4474486165797511 0.4448813859767396 -0.0960995412891936
0.4201838038654169 0.22497817849526774 -0.0960995412891936
0.5050900366787358 0.2733299762696306 -0.0960995412891936
0.563326358699987 0.40570023014254547 -0.0960995412891936
0.587744794524708 0.4667554720416132 -0.09564192442591171
0.587744794524708 0.18950371925365683 -0.09564192442591171
-0.06318773648196116 0.28594189702167905 -0.0949097374446607
0.6149546932154483 0.21361097561134595 -0.0949097374446607
0.6841829722927302 0.3221027815582128 -0.0949097374446607
0.6208121890654561 0.4547018438627686 -0.0949097374446607
0.3693151133430038 0.38166619248298156 -0.09426907383606609
0.4319720142635581 0.29521321467176986 -0.09426907383606609
0.40178760596148566 0.3893633081233826 -0.09426907383606609
0.5640036316576443 0.23775484131809768 -0.09426907383606609
0.5874519197322077 0.4155389927031058 -0.09426907383606609
0.3857710157466199 0.22198536420940432 -0.09426907383606609
0.44871163912240886 0.5204430824418428 -0.09426907383606609
0.4921669364596558 0.2682138197381393 -0.09426907383606609
0.5247309524507939 0.1784385434995012 -0.09426907383606609
0.32840416576560416 0.2762221148455721 -0.09426907383606609
0.38094773400762894 0.38066858772102696 -0.09426907383606609
0.3795657310805177 0.4494300975977614 -0.09426907383606609
0.43588006227598525 0.4638084194420779 -0.09426907383606609
0.6034593576098076 0.4466203300572107 -0.09381145697278422
0.4567565435789044 0.1308006280318581 -0.09307926999153322
0.05449301607960553 0.11718195018058954 -0.09307926999153322
-0.11820243578570817 0.4667554720416132 -0.09307926999153322
0.41026267026946583 0.5482295783803179 -0.09307926999153322
0.6626658273812164 0.39395778143073273 -0.09307926999153322
0.6721293441138855 0.40648733114739044 -0.09307926999153322
0.3660111195901087 0.3153025949698441 -0.09243860638293859
0.396625687743666 0.2968057213559907 -0.09243860638293859
0.52417265987759 0.44111062302329707 -0.09243860638293859
0.4268650100693322 0.3958706199192508 -0.09243860638293859
0.5947463325329208 0.2572584720311712 -0.09243860638293859
0.6141035258497438 0.3940584571406547 -0.09243860638293859
0.48176988132589166 0.21385808871751819 -0.09243860638293859
0.6445899612815824 0.350246218650048 -0.09243860638293859
0.3864757457160741 0.45782279087035105 -0.09243860638293859
-0.0823344260416749 0.20821109662461995 -0.09243860638293859
-0.04218312245732325 0.39339033652026306 -0.09243860638293859
-0.05382489545921405 0.15046900081571307 -0.09243860638293859
0.37830270853785986 0.41299464294325866 -0.09243860638293859
0.4343516219526237 0.39194426723229236 -0.09243860638293859
0.38295209586880363 0.4603579882929325 -0.09243860638293859
0.5439234036968358 0.45213918942839004 -0.09243860638293859
0.23222225344101982 0.14870259972344493 -0.09243860638293859
0.48700501824183606 0.20818363961282302 -0.09243860638293859
0.410537240387435 0.24991829754412997 -0.09243860638293859
0.37890676279739177 0.3360143342019818 -0.09243860638293859
0.6721293441138855 0.2618346406639899 -0.09198098951965672
0.06868829117860928 0.5631936498096355 -0.09198098951965672
0.030834224247932685 0.13116672152248354 -0.09198098951965672
0.08762447698121327 0.5377135428621007 -0.09124880253840571
-0.057842771518828974 0.33415640973705735 -0.09124880253840571
0.07342004954494383 0.10511916966447922 -0.09124880253840571
0.4756835770442425 0.23024077242300933 -0.09124880253840571
0.5324738297775232 0.2369860449877841 -0.09124880253840571
0.6390619495731373 0.4426482156839241 -0.09124880253840571
0.662977006848248 0.24687056923467257 -0.09124880253840571
0.3737906062659005 0.2808257404901877 -0.0906081389298111
0.40079000119953107 0.29866364582091515 -0.0906081389298111
0.5021155270674037 0.4019477718636342 -0.0906081389298111
0.47426496476806873 0.45576351498558265 -0.0906081389298111
0.6487908840865101 0.3339184489681508 -0.0906081389298111
0.4565643444963259 0.14649688644242628 -0.0906081389298111
0.4587059914164851 0.4635887633477026 -0.0906081389298111
0.6557008987220664 0.38601355268415927 -0.0906081389298111
0.458431421298516 0.1465975621523484 -0.0906081389298111
0.019146689559713607 0.14787888936953766 -0.0906081389298111
-0.02977255312511874 0.41863248269889136 -0.0906081389298111
0.3389018966092904 0.27609398212385317 -0.0906081389298111
0.4696613391234532 0.28924589077457424 -0.0906081389298111
0.09186200913520336 0.5217793236826258 -0.0906081389298111
0.26890482120169495 0.5208366329442651 -0.0906081389298111
0.4019981097185953 0.45456455880378416 -0.0906081389298111
0.4905469727636378 0.5198939422059046 -0.0906081389298111
0.581512052846809 0.24333776705013654 -0.0906081389298111
0.6422103535925165 0.29982599265365106 -0.0906081389298111
0.059224774445940195 0.12923557835943403 -0.09015052206652922
0.05449301607960553 0.5631936498096355 -0.09015052206652922
0.650786093610419 0.4093703173860662 -0.09015052206652922
0.39523453247928914 0.10511916966447922 -0.09015052206652922
0.06868829117860928 0.5487878709535219 -0.08941833508527823
0.0923562353475478 0.09306554148563471 -0.08941833508527823
0.09661207217606926 0.12923557835943403 -0.08941833508527823
0.40693121950477373 0.14128920653827867 -0.08941833508527823
0.6934359852682896 0.40647817881012477 -0.08941833508527823
0.5324738297775232 0.2369860449877841 -0.08941833508527823
0.5040832795795157 0.4403967407165773 -0.08941833508527823
0.42362508267729665 0.5662871398054209 -0.08941833508527823
0.37078863964277137 0.2887242075504329 -0.0887776714766836
0.42010143283002627 0.40166404940839945 -0.0887776714766836
0.3970100859088228 0.297126053160288 -0.0887776714766836
0.49614820317020814 0.42538690760093184 -0.0887776714766836
0.47802657538424576 0.4526883296643283 -0.0887776714766836
0.47863062964377784 0.2052182823387565 -0.0887776714766836
0.5970893308729239 0.44298685216275274 -0.0887776714766836
-0.05055751105538148 0.4314274501962525 -0.0887776714766836
0.46441704987024285 0.5320299414201398 -0.0887776714766836
0.3275804554116969 0.35002656255567266 -0.0887776714766836
-0.11108191739304216 0.4799439900413969 -0.0887776714766836
0.12632971127759418 0.5220630461378606 -0.0887776714766836
0.007504916557822676 0.14625892567351975 -0.0887776714766836
0.09265826247731386 0.14916936892399246 -0.0887776714766836
0.4257209679111275 0.26523931012680707 -0.0887776714766836
0.5340022701008847 0.4877234767171887 -0.0887776714766836
0.5703004396964028 0.4456684869815844 -0.0887776714766836
0.47070470557173594 0.4038697626894181 -0.0887776714766836
0.47968314842932624 0.25876860768000143 -0.0887776714766836
0.5262136310878273 0.21653972353635 -0.0887776714766836
0.49642277328817724 0.4181016471374843 -0.0887776714766836
0.6413225768777499 0.2377182319690351 -0.08832005461340171
0.43308859940996575 0.5390772411146805 -0.08832005461340171
0.030834224247932685 0.5752472779884801 -0.08832005461340171
0.04029774098060177 0.09306554148563471 -0.08832005461340171
0.4792529885778413 0.227119825415427 -0.08758786763215072
0.663407166699733 0.24687056923467257 -0.08758786763215072
0.47241619264040996 0.4452017177810369 -0.08758786763215072
0.08762447698121327 0.5752472779884801 -0.08758786763215072
-0.057842771518828974 0.3823709224524356 -0.08758786763215072
0.05449301607960553 0.09306554148563471 -0.08758786763215072
0.3771861233914521 0.35855654088724687 -0.0869472040235561
0.41117790399602955 0.39604451432729804 -0.0869472040235561
0.5757552327067228 0.2455709373429521 -0.0869472040235561
0.4272219512226922 0.21734512921572607 -0.0869472040235561
0.42481488652182947 0.2971077484857568 -0.0869472040235561
0.3871164093246687 0.5218159330316883 -0.0869472040235561
0.45071600098358366 0.2055294618057881 -0.0869472040235561
0.49137983545481084 0.5254128015770838 -0.0869472040235561
0.3906858208582673 0.13458054332256636 -0.0869472040235561
-0.05362354403937011 0.1353859490019424 -0.0869472040235561
0.47582086210322727 0.2989656729506812 -0.0869472040235561
0.4105189357129036 0.44649219733549184 -0.0869472040235561
0.6276306803283561 0.28024914324245254 -0.0869472040235561
0.6375060522379791 0.37660494997508404 -0.0869472040235561
-0.08911630795551227 0.5005001395400187 -0.0869472040235561
0.04029774098060177 0.12923557835943403 -0.08648958716027423
0.39997544318288936 0.12530922567247554 -0.08648958716027423
0.4438425956970899 0.4489724807344795 -0.08648958716027423
0.04502949934693644 0.5752472779884801 -0.08648958716027423
-0.057842771518828974 0.27388826884283457 -0.08575740017902322
0.6697131270757574 0.4185409593262349 -0.08575740017902322
0.6359593072400862 0.33415640973705735 -0.08575740017902322
0.31772338817660534 0.37250470288007836 -0.0851167365704286
0.3223727755075491 0.304017763121313 -0.0851167365704286
0.39932562723702913 0.2942888286079405 -0.0851167365704286
0.47290126651548875 0.3790852333740718 -0.0851167365704286
0.4392023607034116 0.4304756071206262 -0.0851167365704286
0.5155877675224221 0.4461169515076007 -0.0851167365704286
0.39548164558546134 0.36771803049015 -0.0851167365704286
0.029131889516524047 0.1198178233130931 -0.0851167365704286
-0.05193036164522715 0.5261175315465378 -0.0851167365704286
-0.0486172155550663 0.4260916375703859 -0.0851167365704286
0.09216403626496941 0.5332929639627978 -0.0851167365704286
0.48716060797535216 0.20190513624859566 -0.0851167365704286
0.4239637191561253 0.44791080961166563 -0.0851167365704286
0.37762543558020256 0.28076167412932823 -0.0851167365704286
0.4004239077089055 0.2383222862285672 -0.0851167365704286
0.604987797933169 0.2317692127463708 -0.0851167365704286
-0.05679025273328058 0.44057063512462435 -0.0851167365704286
0.6744448854420919 0.39880852018152047 -0.08465911970714673
0.4782828408276838 0.2197430415793231 -0.08392693272589574
0.5792239685303996 0.2588967404017203 -0.08392693272589574
0.32555778887599096 0.3116691170753861 -0.08328626911730111
0.4032428275867219 0.2774942897254956 -0.08328626911730111
0.42468675380011045 0.3753510797696917 -0.08328626911730111
0.4775872631954951 0.2963389521554432 -0.08328626911730111
