0.36504855684579224 0.4539720054883396 -0.1999616713926733
0.41812014510221235 0.5439305726039887 -0.1999616713926733
0.6047123423843548 0.3001553351862832 -0.1999616713926733
0.1187387302696503 0.376812146222352 -0.19928449108316737
0.3301254008841304 0.3318280256623167 -0.19928449108316737
0.22521082293282216 0.4421213500719861 -0.19928449108316737
0.3293224585171448 0.3400219074073381 -0.19928449108316737
0.4538075474131738 0.45412678955908375 -0.19928449108316737
0.3772184544080555 0.25691253542212017 -0.19928449108316737
0.3792693433454163 0.5240891895354657 -0.19928449108316737
0.526265840530306 0.286611728996165 -0.19928449108316737
0.444646265226001 0.314898517924669 -0.19928449108316737
0.4121706323829819 0.5340824361028885 -0.19928449108316737
0.6123064358552425 0.3735520067323022 -0.19928449108316737
0.47691874397616824 0.4668287573645303 -0.19928449108316737
0.42782317153698984 0.3121897966866453 -0.19802687050837067
0.6429343338537525 0.46825083601449274 -0.19802687050837067
0.4008423732053902 0.28986219448179334 -0.19802687050837067
0.6047123423843548 0.45550049818693855 -0.19802687050837067
0.295192570918047 0.43067700284133636 -0.19734969019886475
0.21819716972722517 0.43755521998503205 -0.19734969019886475
0.32517231062031576 0.4436111467528991 -0.19734969019886475
0.6124225239083007 0.41738492076617745 -0.19734969019886475
0.3822199146939777 0.25639013918335846 -0.19734969019886475
0.4115805181132697 0.525811162322495 -0.19734969019886475
0.4209643024021373 0.26283302612808607 -0.19734969019886475
0.47134651742937683 0.49983646045073266 -0.19734969019886475
0.6349145841883181 0.3904621664611068 -0.19734969019886475
0.6147539589738851 0.4011422673424571 -0.19734969019886475
0.47824408258191553 0.4675156116784577 -0.19734969019886475
0.26069507115093166 0.36477768472198985 -0.19609206962406808
0.3167269047603349 0.4809914998376253 -0.19609206962406808
0.4288292679968272 0.32809385995561274 -0.19609206962406808
0.6556749976768852 0.40453784289440814 -0.19609206962406808
0.22338243609715613 0.43067700284133636 -0.19541488931456216
0.21671704705073375 0.3485834013203772 -0.19541488931456216
0.31474373385392473 0.45825758944706985 -0.19541488931456216
0.48533512782288457 0.5125771242738651 -0.19541488931456216
0.3866409347146092 0.25669970732484687 -0.19541488931456216
0.41807177508010485 0.5259659463932391 -0.19541488931456216
0.6057281128486135 0.3497442818509588 -0.19541488931456216
0.46486493446696314 0.2748868356372913 -0.19541488931456216
0.38087522807938745 0.518120328807392 -0.19541488931456216
0.4566323567042556 0.327590811725694 -0.19541488931456216
0.2891946881767089 0.40453784289440814 -0.1941572687397655
0.3615175452319399 0.470292050947432 -0.1941572687397655
0.4390740386792096 0.3790565152481431 -0.1941572687397655
0.6174530062074874 0.3458843540867751 -0.1941572687397655
0.30278666438893465 0.4306866768457578 -0.19348008843025957
0.22062534483702498 0.3446267335119783 -0.19348008843025957
0.22000620855404807 0.44704541832253625 -0.19348008843025957
0.4659387489577511 0.5181300028118137 -0.19348008843025957
0.39441883426950564 0.2542328361973611 -0.19348008843025957
0.4363846654500289 0.524398757676954 -0.19348008843025957
0.5577257029090662 0.4792018090196454 -0.19348008843025957
0.43001917054067335 0.24829299748255207 -0.19348008843025957
0.4589347697565757 0.44905761124221094 -0.19348008843025957
0.48263608058928253 0.4664998412141988 -0.19348008843025957
0.26069507115093166 0.41881667342056145 -0.19222246785546285
0.34270160663209726 0.46825083601449274 -0.19222246785546285
0.4390740386792096 0.36477768472198985 -0.19222246785546285
0.6811563253231502 0.36631585142501044 -0.19222246785546285
0.48405815923924483 0.26923721705512776 -0.19154528754595698
0.4456233396725738 0.3249981785407285 -0.19154528754595698
0.43928686677648277 0.32945789457904595 -0.19154528754595698
0.4319442974205544 0.5311415387587486 -0.19154528754595698
0.528868147719693 0.28031395211776006 -0.19154528754595698
0.5416571815649331 0.48349706698279715 -0.19154528754595698
0.4822684684212649 0.46451667030778865 -0.19154528754595698
0.3190776878347625 0.3404862596195708 -0.19154528754595698
0.3465131643741733 0.4528788429887085 -0.19154528754595698
0.30243840022976015 0.33636513373600624 -0.19154528754595698
0.3371390540897273 0.39179717907127565 -0.1902876669711603
0.5148311673040777 0.519213491307023 -0.1902876669711603
0.4772960301486073 0.2516402030123956 -0.1902876669711603
0.4570676869032237 0.32444676028870223 -0.1896104866616544
0.4294677522886471 0.2521432512423142 -0.1896104866616544
0.4613726188707969 0.5207806800233081 -0.1896104866616544
0.557986901028447 0.48096247782436075 -0.1896104866616544
0.4380969642326368 0.24988920821210178 -0.1896104866616544
0.5773252358670514 0.3260816670359379 -0.1896104866616544
0.5872507644035238 0.3353590372761689 -0.1896104866616544
0.3207029205775767 0.3397897313012218 -0.1896104866616544
0.32774559579643814 0.4514567643387462 -0.1896104866616544
0.3144825357345439 0.32551090077506867 -0.1896104866616544
0.3371390540897273 0.4172785067175408 -0.1883528660868577
0.46204979918030287 0.48251999253622435 -0.1883528660868577
0.6684156615000179 0.36477768472198985 -0.1883528660868577
0.4699534607926789 0.26455499891511536 -0.18767568577735178
0.46590972694448657 0.2633844443801123 -0.18767568577735178
0.44796444874257996 0.45855748358413667 -0.18767568577735178
0.500542662773503 0.5137089827911823 -0.18767568577735178
0.4679315938685827 0.25559687082079446 -0.18767568577735178
0.5491255129783411 0.3032123205834813 -0.18767568577735178
0.6133028583106583 0.36459387863798115 -0.18767568577735178
0.2997296789917365 0.43713923779490693 -0.18767568577735178
0.3545522620484506 0.46024076035348 -0.18767568577735178
0.3287129962385895 0.44336929664236135 -0.18767568577735178
0.4390740386792096 0.44440441511546325 -0.1864180652025551
0.4426921163328554 0.3790565152481431 -0.1864180652025551
0.6684156615000179 0.43001917054067335 -0.1864180652025551
0.6117163215855301 0.3560227107205207 -0.18574088489304919
0.40868799079123724 0.5280361833394429 -0.18574088489304919
0.604228642163279 0.3410666998848616 -0.18574088489304919
0.4514954603564322 0.2675732882946275 -0.18574088489304919
0.44768390261435614 0.46630636112576856 -0.18574088489304919
0.6062408350829537 0.35377834169472955 -0.18574088489304919
0.2213412211642169 0.3433400909239171 -0.18574088489304919
0.22521082293282216 0.44010915715231147 -0.18574088489304919
0.3130024130580523 0.4487770651139871 -0.18574088489304919
0.307130292374194 0.32809385995561274 -0.18448326431825252
0.6047123423843548 0.49373216366075795 -0.18448326431825252
0.4772960301486073 0.25048899648623557 -0.18448326431825252
0.4551232120144995 0.45446537971383666 -0.1838060840087466
0.44623280195112913 0.3247660024346122 -0.1838060840087466
0.44364016876616363 0.2534492418392185 -0.1838060840087466
0.4458651897831117 0.3144244917080148 -0.1838060840087466
0.4681831179835421 0.5125094062429145 -0.1838060840087466
0.49959461034019476 0.2859925927131882 -0.1838060840087466
0.22037382072206566 0.4334340941014675 -0.1838060840087466
0.30278666438893465 0.43067700284133636 -0.1838060840087466
0.35504563627394775 0.4496477255119233 -0.1838060840087466
0.35877980198065174 0.4461070398936495 -0.1838060840087466
0.42991275649203675 0.45550049818693855 -0.18254846343394987
0.4390740386792096 0.3790565152481431 -0.18254846343394987
0.629971167928925 0.43001917054067335 -0.18254846343394987
0.5339760220542518 0.2879273935974908 -0.181871283124444
0.4263527228649199 0.5281135753748151 -0.181871283124444
0.6171724600792633 0.42962253635939135 -0.181871283124444
0.4560325684301218 0.25152411495933746 -0.181871283124444
0.48519969176098343 0.46027945637116596 -0.181871283124444
0.49325813744410374 0.2958213812054453 -0.181871283124444
0.4892240776003328 0.4742100227381448 -0.181871283124444
0.21537236043614336 0.3477611109445485 -0.181871283124444
0.29337385808680255 0.34344650497255375 -0.181871283124444
0.3472000186881008 0.4614983809282766 -0.181871283124444
0.28617639879719686 0.3153531961324801 -0.18061366254964734
0.6301936700306199 0.47069835913313557 -0.18061366254964734
0.5919716785612221 0.3109998941427992 -0.18061366254964734
0.47759592428567427 0.5187394650903691 -0.17993648224014142
0.4487480431007225 0.3247950244478767 -0.17993648224014142
0.5742295544521673 0.30976162157684556 -0.17993648224014142
0.43713923779490693 0.26385847059676654 -0.17993648224014142
0.4599989102429421 0.44947359343233606 -0.17993648224014142
0.4974953513807265 0.46548407074994 -0.17993648224014142
0.22338243609715613 0.3529076812967935 -0.17993648224014142
0.321728365046257 0.3344980508826542 -0.17993648224014142
0.21401799981713154 0.3416858361678383 -0.17993648224014142
0.44312744653182345 0.40453784289440814 -0.17945278201906575
0.3243983902665947 0.46572592086047776 -0.17867886166534472
0.4390740386792096 0.39552167077355815 -0.17867886166534472
0.6429343338537525 0.36631585142501044 -0.17867886166534472
0.5098393810225769 0.2750706417213 -0.1780016813558388
0.4523951427676329 0.45249188281184805 -0.1780016813558388
0.4706499891110279 0.5172980384315636 -0.1780016813558388
0.5817752779009474 0.4731265342429352 -0.1780016813558388
0.4822587944168435 0.457696497190622 -0.1780016813558388
0.5101392751596439 0.2795497057684606 -0.1780016813558388
0.2949023507854016 0.4314992932171649 -0.1780016813558388
0.34822546315678116 0.3300286608399152 -0.1780016813558388
0.345942398113304 0.32647830121722005 -0.1780016813558388
0.31772332721575064 0.3921551172348717 -0.1780016813558388
0.3371390540897273 0.4172785067175408 -0.17674406078104213
0.4390740386792096 0.4205579942164337 -0.17674406078104213
0.6556749976768852 0.34083452377874524 -0.17674406078104213
0.4953864184168366 0.3133023071951193 -0.1760668804715362
0.44441408911988467 0.5284134695118821 -0.1760668804715362
0.6014618768987263 0.332476183958558 -0.1760668804715362
0.4549490799349123 0.26617055765350806 -0.1760668804715362
0.478234408577494 0.44653269608819607 -0.1760668804715362
0.4815235700808084 0.3252303546468448 -0.1760668804715362
0.5023420275959044 0.4998074384374681 -0.1760668804715362
0.22182492138529253 0.34444292742796967 -0.1760668804715362
0.22356624218116494 0.34351422300350437 -0.1760668804715362
0.3127605629475146 0.4488544571493591 -0.1760668804715362
0.26069507115093166 0.41881667342056145 -0.17480925989673954
0.3432336768752804 0.4697793287130918 -0.17480925989673954
0.44360147274847755 0.3627848398111583 -0.17480925989673954
0.63396653175501 0.43001917054067335 -0.17480925989673954
0.502032459454416 0.28552824050095554 -0.17413207958723362
0.43932556279416884 0.5281812934057657 -0.17413207958723362
0.540525323047616 0.2848317121826066 -0.17413207958723362
0.449908923631304 0.3340917426969507 -0.17413207958723362
0.44358212473963454 0.5397030326717874 -0.17413207958723362
0.48188150824440446 0.34971525983769425 -0.17413207958723362
0.49971069839325294 0.27335834293869227 -0.17413207958723362
0.5161661799142466 0.29641149547515766 -0.17413207958723362
0.2216894853233914 0.44025426721863414 -0.17413207958723362
0.3229956596254752 0.3328244481177325 -0.17413207958723362
0.3458359840646674 0.3263815611730049 -0.17413207958723362
0.30966488153263033 0.4308995049430311 -0.17413207958723362
0.3342175047544304 0.3670897717787315 -0.1728744590124369
0.47301044618987703 0.28986219448179334 -0.1728744590124369
0.624669813505936 0.442759834363806 -0.1728744590124369
0.22001588255846963 0.4381743562680088 -0.17219727870293103
0.3206352025466261 0.3368585079615034 -0.17219727870293103
0.3132055671509041 0.339093202982873 -0.17219727870293103
0.31365057135429375 0.43128646511989155 -0.17219727870293103
0.449908923631304 0.41115486191872314 -0.17219727870293103
0.5398191207248457 0.2882563097478222 -0.17219727870293103
0.4934225955192694 0.5153051935207318 -0.17219727870293103
0.4812913939746921 0.524002123495672 -0.17219727870293103
0.4525209048251126 0.5347499424079728 -0.17219727870293103
0.5226574368810817 0.45579071831958395 -0.17219727870293103
0.5919716785612221 0.2771215306586608 -0.17093965812813436
0.48394207118618665 0.49454478003216495 -0.17093965812813436
0.28962034437125544 0.3297964847337989 -0.17093965812813436
0.21663965501536156 0.4339177943225431 -0.17026247781862844
0.3293611545348308 0.3311024753307032 -0.17026247781862844
0.3542233458981192 0.3252883986733739 -0.17026247781862844
0.30554375564906583 0.39076206059817375 -0.17026247781862844
0.44096046954140455 0.3288097362828047 -0.17026247781862844
0.4510504561530426 0.2561482890728206 -0.17026247781862844
0.5082818663107134 0.27267148862476487 -0.17026247781862844
0.6054572407248112 0.3339756546438925 -0.17026247781862844
0.5945449637373444 0.3180619173705037 -0.17026247781862844
0.5404576050166656 0.30012631317301863 -0.17026247781862844
0.306714310184069 0.32809385995561274 -0.1690048572438317
0.487192536671815 0.47500329110070877 -0.1690048572438317
0.6429343338537525 0.3256366628325484 -0.1690048572438317
0.32314076969179795 0.4494252234102284 -0.16832767693432582
0.3468904505466123 0.4621465392245181 -0.16832767693432582
0.4486899990741935 0.4165529563859273 -0.16832767693432582
0.4720623937565688 0.523005701040256 -0.16832767693432582
0.44817727683985314 0.2557516548915386 -0.16832767693432582
0.4710272752834669 0.5191941432981801 -0.16832767693432582
0.45136969829895257 0.539577270614308 -0.16832767693432582
0.5534401189503358 0.29889771461148656 -0.16832767693432582
0.3106709779924677 0.4641393841353496 -0.16707005635952912
0.6429343338537525 0.3560227107205207 -0.16707005635952912
0.32309239966969044 0.44946391942791447 -0.16639287605002323
0.32846147212363 0.339209291035931 -0.16639287605002323
0.4472292244065449 0.4696922626732982 -0.16639287605002323
0.4537495033866447 0.5274654170785736 -0.16639287605002323
0.5979405392892956 0.45375917739106625 -0.16639287605002323
0.5982597814352056 0.32544318274411815 -0.16639287605002323
0.5643620699422243 0.2926870037728751 -0.16639287605002323
0.5262368185170415 0.2831484354132634 -0.16639287605002323
0.5283360774765097 0.519213491307023 -0.16513525547522656
0.4008423732053902 0.3001553351862832 -0.16513525547522656
0.2780599090875475 0.33888037488559963 -0.16513525547522656
0.30656920011774624 0.333172712276907 -0.16513525547522656
0.3292160444685081 0.4526273188737492 -0.16445807516572064
0.4582575894470697 0.43337605007493846 -0.16445807516572064
0.44738400847728915 0.4697599807042487 -0.16445807516572064
0.5305901205067223 0.4960635987263426 -0.16445807516572064
0.510613301376298 0.2726231186026572 -0.16445807516572064
0.5302515303519694 0.4869893825789634 -0.16445807516572064
0.5203356758199185 0.49597653268654895 -0.16445807516572064
0.6429343338537525 0.43001917054067335 -0.16320045459092397
0.5096072049164605 0.29279341782151186 -0.16320045459092397
0.4390740386792096 0.442759834363806 -0.16320045459092397
0.28306136937346965 0.442759834363806 -0.16320045459092397
0.329158000441979 0.45267568889585685 -0.16252327428141805
0.44570073170794583 0.32396306006762665 -0.16252327428141805
0.4370618457595349 0.46923758446548697 -0.16252327428141805
0.5310738207277981 0.28431898994826643 -0.16252327428141805
0.44387234487227994 0.2580927639615448 -0.16252327428141805
0.4540880935413976 0.26357792446854256 -0.16252327428141805
0.5145409471714323 0.2822874490197488 -0.16252327428141805
0.4772960301486073 0.5446948189532883 -0.16126565370662138
0.5100425351154287 0.49373216366075795 -0.16126565370662138
0.4210997384640384 0.49373216366075795 -0.16126565370662138
0.3115416383904039 0.4647681944227481 -0.16126565370662138
0.31371828938524443 0.3247853504434552 -0.16058847339711546
0.4507408880115541 0.4052730672304432 -0.16058847339711546
0.46727376156791983 0.45749334309777023 -0.16058847339711546
0.5681252576621926 0.30285438241988527 -0.16058847339711546
0.49395466576245256 0.2616721455975046 -0.16058847339711546
0.4850932777123467 0.25450370832116354 -0.16058847339711546
0.5524533704993415 0.48781167295479194 -0.16058847339711546
0.30641441604700204 0.39179717907127565 -0.15933085282231874
0.4968084970667989 0.40453784289440814 -0.15933085282231874
0.6188073668264992 0.32809385995561274 -0.15933085282231874
0.3201128063078644 0.34027343152229755 -0.15865367251281284
0.45871226765488093 0.44996696765783323 -0.15865367251281284
0.45002501168436215 0.4634041597993147 -0.15865367251281284
0.4594378179864943 0.2559064389622829 -0.15865367251281284
0.45394298347507495 0.5318961111036266 -0.15865367251281284
0.6510314755545588 0.39035575241247017 -0.15865367251281284
0.6547946632745274 0.39022999035499045 -0.15865367251281284
0.5677769935030181 0.4608115266143492 -0.15865367251281284
0.608320746033579 0.3164366846276895 -0.15739605193801615
0.5155180216180051 0.45550049818693855 -0.15739605193801615
0.3063660460248945 0.39179717907127565 -0.15739605193801615
0.3200644362857568 0.34022506150018994 -0.15671887162851025
0.45616800449202294 0.3594473082857363 -0.15671887162851025
0.44812890681774564 0.41104844787008643 -0.15671887162851025
0.5480516984875533 0.2904619827559272 -0.15671887162851025
0.5295840240468851 0.5044509605597942 -0.15671887162851025
0.5357173428501242 0.5058923872185996 -0.15671887162851025
0.5591961515811361 0.49700197715522926 -0.15671887162851025
0.6301936700306199 0.3128959990094157 -0.15546125105371356
0.4410572095856197 0.38277133294600396 -0.15546125105371356
0.3371390540897273 0.39179717907127565 -0.15546125105371356
0.45164057042275485 0.30727540244051676 -0.15546125105371356
0.31238327677507555 0.4567774667705783 -0.15478407074420766
0.4549490799349123 0.43042547872637693 -0.15478407074420766
0.4385709904492908 0.4525402528339556 -0.15478407074420766
0.5598733318906419 0.4838550051463932 -0.15478407074420766
0.4620691471891459 0.26034680699175733 -0.15478407074420766
0.4455846436548877 0.24446209173163294 -0.15478407074420766
0.5857416197137677 0.4651648286040301 -0.15478407074420766
0.6684156615000179 0.3815137123712073 -0.153526450169411
0.44083470748392484 0.40455719090325126 -0.153526450169411
0.4326891957610109 0.4472388984109665 -0.153526450169411
0.3197355201354255 0.4510020861309351 -0.15284926985990507
0.34621327023710646 0.462088495197989 -0.15284926985990507
0.4480998848044811 0.3196097580779458 -0.15284926985990507
0.45930238192459316 0.25317836971541624 -0.15284926985990507
0.45441700969172916 0.5320218731611063 -0.15284926985990507
0.6347694741219956 0.36021155463503574 -0.15284926985990507
0.6549784693585362 0.3839418874810071 -0.15284926985990507
0.5871540243593087 0.3372744901516285 -0.15284926985990507
0.36378126226657403 0.442759834363806 -0.1515916492851084
0.4401672011788405 0.4077496123623505 -0.1515916492851084
0.6556749976768852 0.4172785067175408 -0.1515916492851084
0.31602070243756447 0.4561583304876015 -0.15091446897560248
0.459263685906907 0.4337920322650634 -0.15091446897560248
0.43797120217515706 0.3139891615090467 -0.15091446897560248
0.4920875829091006 0.5201131737182239 -0.15091446897560248
0.5731363919525363 0.314598623787602 -0.15091446897560248
0.5401093408574912 0.2922033035517995 -0.15091446897560248
0.6088334682679192 0.38837258150606 -0.15091446897560248
0.633211959410132 0.44382397485017244 -0.14965684840080576
0.5409993492642702 0.2516402030123956 -0.14965684840080576
0.3371390540897273 0.43001917054067335 -0.14965684840080576
0.5282586854411377 0.302602858304926 -0.14965684840080576
0.35706750319804403 0.31843920354294275 -0.14897966809129987
0.4505087119054378 0.35391377775663085 -0.14897966809129987
0.4624270853527419 0.3331630382724854 -0.14897966809129987
0.6441242363975985 0.3781374848280992 -0.14897966809129987
0.5709113709355884 0.4748968770520722 -0.14897966809129987
0.5764255534558508 0.4623690413262128 -0.14897966809129987
0.6114357754573062 0.43527215494155497 -0.14897966809129987
0.6301936700306199 0.4809914998376253 -0.14772204751650317
0.6282104991242098 0.3248143724567197 -0.14772204751650317
0.5155180216180051 0.48343902295626806 -0.14772204751650317
0.30618223994088567 0.45813182738959013 -0.14772204751650317
0.3196097580779458 0.33079290718921484 -0.14704486720699728
0.45842204752223553 0.4315960332613801 -0.14704486720699728
0.44875771710514395 0.470292050947432 -0.14704486720699728
0.45848976555318605 0.5284231435163034 -0.14704486720699728
0.592174832654074 0.452830472966601 -0.14704486720699728
0.45486201389511866 0.24807049538085732 -0.14704486720699728
0.46694484541758846 0.24503285799250218 -0.14704486720699728
0.601684379000421 0.3302705109504531 -0.14704486720699728
0.34044756360188466 0.3153531961324801 -0.14578724663220058
0.3371390540897273 0.3535751876018779 -0.14578724663220058
0.4772960301486073 0.24434600367857476 -0.14578724663220058
0.6367623190328272 0.44582649376542555 -0.14578724663220058
0.3198419341840621 0.4452944235222424 -0.1451100663226947
0.48412587727019546 0.3218638011081583 -0.1451100663226947
0.44491713734980337 0.3489800355016592 -0.1451100663226947
0.5822299561087585 0.30974227356800255 -0.1451100663226947
0.5797824329901159 0.4759997135561245 -0.1451100663226947
0.6429633558670171 0.41560490395261906 -0.1451100663226947
0.6589738331846212 0.3866506087190308 -0.1451100663226947
0.6129545941514839 0.35914741414866935 -0.1451100663226947
0.3101195597404416 0.4646617803741114 -0.14462636610161902
0.5155180216180051 0.48343902295626806 -0.14462636610161902
0.6460009932553722 0.34083452377874524 -0.14462636610161902
0.5664806769105355 0.5089203506025333 -0.14462636610161902
0.35691271912729977 0.31829409347662 -0.1431752654383921
0.45089567208229836 0.35153397266893854 -0.1431752654383921
0.4628914375649744 0.3426145405923036 -0.1431752654383921
0.6351467602944345 0.42078049631812847 -0.1431752654383921
0.530019354245853 0.5023613756047475 -0.1431752654383921
0.5593702836607234 0.4953090263814645 -0.1431752654383921
0.6600669956842521 0.39529916867186327 -0.1431752654383921
0.615711685411615 0.3568740231096138 -0.1431752654383921
0.6429343338537525 0.34083452377874524 -0.14269156521731644
0.4980274216239096 0.4667416913247367 -0.14269156521731644
0.30601778186572 0.45550049818693855 -0.14269156521731644
0.3210898807544372 0.33055105707867694 -0.1412404645540895
0.45571332628421185 0.4301159105848885 -0.1412404645540895
0.4497541395605599 0.46825083601449274 -0.1412404645540895
0.5218641685185177 0.2731648628502619 -0.1412404645540895
0.6060473549945237 0.45441700969172916 -0.1412404645540895
0.6067051872951863 0.4411055796077272 -0.1412404645540895
0.4561389824787584 0.5218835165273606 -0.1412404645540895
0.616785499902403 0.4555972382311537 -0.1412404645540895
0.5362397390888859 0.519213491307023 -0.14075676433301385
0.4390740386792096 0.36631585142501044 -0.14075676433301385
0.3371390540897273 0.39179717907127565 -0.14075676433301385
0.43238930162394407 0.310409779873087 -0.14075676433301385
0.3152564560882649 0.4601633683181078 -0.1393056636697869
0.4563905065937177 0.4385419684360263 -0.1393056636697869
0.43985763303735204 0.3318086776534737 -0.1393056636697869
0.591101018163286 0.31521776007057895 -0.1393056636697869
0.6281814771109452 0.3512244045274502 -0.1393056636697869
0.5866219541161255 0.3062209359585718 -0.1393056636697869
0.497940355584116 0.2718975682710437 -0.1393056636697869
0.6426537877255286 0.4063662297300742 -0.1393056636697869
0.3058629977949758 0.34083452377874524 -0.1384350032718507
0.3371390540897273 0.3535751876018779 -0.1384350032718507
0.5919716785612221 0.2874146713631505 -0.1384350032718507
0.32232815332039083 0.450189469759528 -0.1373708627854843
0.3577833795252359 0.447267920424231 -0.1373708627854843
0.4505957779452314 0.3895915060631707 -0.1373708627854843
0.4502958838081646 0.4682798580277573 -0.1373708627854843
0.6081756359672564 0.3302705109504531 -0.1373708627854843
0.5805563533438367 0.4772960301486073 -0.1373708627854843
0.5657261045656574 0.2911972070919622 -0.1373708627854843
0.604228642163279 0.44572007971678895 -0.1373708627854843
0.6127998100807395 0.4601149982960003 -0.1373708627854843
0.3058049537684467 0.3535751876018779 -0.1361132422106876
0.363026689921696 0.34083452377874524 -0.1361132422106876
0.5919716785612221 0.2874146713631505 -0.1361132422106876
0.5431953482679537 0.5167562941839587 -0.1361132422106876
0.510613301376298 0.51983262759 -0.1354360619011817
0.622880122687956 0.35398149578758137 -0.1354360619011817
0.47031139895627494 0.256438509205466 -0.1354360619011817
0.5651940343224742 0.3047504872865018 -0.1354360619011817
0.44783868668510024 0.4604535884507532 -0.1354360619011817
0.44933815737043475 0.356970763153829 -0.1354360619011817
0.3471129526483072 0.3289741943579704 -0.1354360619011817
0.3399735373852306 0.3153531961324801 -0.134178441326385
0.3371390540897273 0.3535751876018779 -0.134178441326385
0.5155180216180051 0.23889953918926293 -0.134178441326385
0.6301936700306199 0.4809914998376253 -0.134178441326385
0.5361139770314062 0.5049830308029775 -0.13350126101687912
0.4773444001707148 0.5352723386467345 -0.13350126101687912
0.6292456175973117 0.4098198493085543 -0.13350126101687912
0.5510022698361148 0.28192951085615275 -0.13350126101687912
0.45826726345149127 0.3584315378214774 -0.13350126101687912
0.45100208613093495 0.45254992683837714 -0.13350126101687912
0.320877052657164 0.4479354267293154 -0.13350126101687912
0.34598109413099015 0.4630075256180327 -0.13350126101687912
0.4390740386792096 0.442759834363806 -0.13224364044208242
0.43998339509483175 0.3790565152481431 -0.13224364044208242
0.6232090388382877 0.34291443472937055 -0.13224364044208242
0.5664806769105355 0.5083399103372425 -0.13224364044208242
0.46221425725546855 0.5213804682974421 -0.13156646013257653
0.6423829156017263 0.41416347729381364 -0.13156646013257653
0.6519698539834456 0.3899300962179236 -0.13156646013257653
0.5289939097771728 0.28353539559012386 -0.13156646013257653
0.45238546876321134 0.46027945637116596 -0.13156646013257653
0.4459812778361698 0.3456425039762372 -0.13156646013257653
0.47022433291648136 0.3290515863933424 -0.13156646013257653
0.3117738144965202 0.45733855902702614 -0.13156646013257653
0.33987679734101545 0.46825083601449274 -0.1303088395577798
0.499091562110276 0.43001917054067335 -0.1303088395577798
0.6156633153895075 0.4313348351419992 -0.1303088395577798
0.6142605847483881 0.343978575215737 -0.1303088395577798
0.5664806769105355 0.519213491307023 -0.1303088395577798
0.6099459787763932 0.4614887069238551 -0.1296316592482739
0.6503155992273669 0.39063629854069404 -0.1296316592482739
0.6641977955722381 0.39169076502263905 -0.1296316592482739
0.6089108603032914 0.32218304325406827 -0.1296316592482739
0.4593797739599652 0.32745537566379285 -0.1296316592482739
0.44904793723778935 0.4275716474220306 -0.1296316592482739
0.4617402310388144 0.374132446997593 -0.1296316592482739
0.34912514556798185 0.3221249992275392 -0.1296316592482739
0.28617639879719686 0.302602858304926 -0.12837403867347721
0.3632782140366553 0.4539720054883396 -0.12837403867347721
0.43998339509483175 0.3790565152481431 -0.12837403867347721
0.6301936700306199 0.3128959990094157 -0.12837403867347721
0.613206118266443 0.44147319177574484 -0.12837403867347721
0.4798983373379943 0.5265463866585299 -0.12769685836397132
0.5203743718376045 0.5041413924183058 -0.12769685836397132
0.6520182240055531 0.39789180185682876 -0.12769685836397132
0.6544947691374604 0.41278009466153726 -0.12769685836397132
0.6080885699274627 0.3169977768841373 -0.12769685836397132
0.46115011676910217 0.33266966404698833 -0.12769685836397132
0.44628117197323663 0.4274071893468649 -0.12769685836397132
0.4679509418774258 0.45077958402924023 -0.12769685836397132
0.32073194259084126 0.44808053679563814 -0.12769685836397132
0.32745537566379274 0.3382515645982013 -0.12769685836397132
0.566529046932643 0.5064728274838904 -0.12643923778917462
0.610903705214123 0.3406120216770505 -0.12643923778917462
0.4390740386792096 0.39179717907127565 -0.12643923778917462
0.36378126226657403 0.4441238689872394 -0.12643923778917462
0.4794920291522908 0.5256370302429078 -0.12576205747966873
0.46705125946622505 0.5388420462782728 -0.12576205747966873
0.6613826602855779 0.3919519631420199 -0.12576205747966873
0.5248824578980296 0.2770828346409747 -0.12576205747966873
0.4588767257300466 0.42565619454657105 -0.12576205747966873
0.4894949497241351 0.3172106049814106 -0.12576205747966873
0.46113076876025916 0.4294000342576966 -0.12576205747966873
0.4717528256150804 0.34395922720689404 -0.12576205747966873
0.3284131021015225 0.44968642152960925 -0.12576205747966873
0.6202100974676186 0.41887471744709054 -0.12450443690487205
0.6208292337505954 0.36631585142501044 -0.12450443690487205
0.4390740386792096 0.4172785067175408 -0.12450443690487205
0.434972260804488 0.44812890681774564 -0.12450443690487205
0.4859155680881754 0.5282877074544023 -0.12382725659536613
0.5204517638729766 0.5042284584580995 -0.12382725659536613
0.6480809042059975 0.3946993803977295 -0.12382725659536613
0.47828277859960167 0.24986018619883724 -0.12382725659536613
0.45813182738959013 0.38586701436088816 -0.12382725659536613
0.44010915715231147 0.4704178130049116 -0.12382725659536613
0.4653970047101463 0.385373640135391 -0.12382725659536613
0.46918921444337947 0.3981529999762096 -0.12382725659536613
0.34597142012656856 0.3183908335208352 -0.12382725659536613
0.26069507115093166 0.4172785067175408 -0.12256963602056946
0.4008423732053902 0.28986219448179334 -0.12256963602056946
0.5409993492642702 0.2516402030123956 -0.12256963602056946
0.6063569231360119 0.4404767693203289 -0.12256963602056946
0.5854127035634363 0.47607710559149674 -0.12189245571106354
0.5578514649665459 0.5029031198523521 -0.12189245571106354
0.6439404303135899 0.4293226422223245 -0.12189245571106354
0.5865639100895964 0.3184682255562073 -0.12189245571106354
0.45111817418399314 0.32286989756799567 -0.12189245571106354
0.4493188093615918 0.38455134975956246 -0.12189245571106354
0.4831971728457302 0.36689629169030125 -0.12189245571106354
0.34822546315678116 0.4603955444242241 -0.12189245571106354
0.4339177943225431 0.3098196656033746 -0.12063483513626683
0.3371390540897273 0.3790565152481431 -0.12063483513626683
0.5231701591154219 0.25692220942654176 -0.12063483513626683
0.619087912954723 0.42266692718032356 -0.12063483513626683
0.5579385310063395 0.49447706200121444 -0.11995765482676092
0.5831296385199594 0.48682492450379755 -0.11995765482676092
0.6662873805272848 0.3914585889165227 -0.11995765482676092
0.5891275212612972 0.3199483482326987 -0.11995765482676092
0.48210401034609923 0.45249188281184805 -0.11995765482676092
0.4516115484094903 0.38878856369618503 -0.11995765482676092
0.3241468661516353 0.33148943550756377 -0.11995765482676092
0.5181590248250781 0.2516402030123956 -0.1194739546056853
0.30535994956505713 0.45550049818693855 -0.11870003425196424
0.5000105925303198 0.45550049818693855 -0.11870003425196424
0.6202391194808831 0.36183678737785 -0.11870003425196424
0.48705710060991386 0.5277556372112191 -0.11802285394245833
0.5491932310092917 0.4908396363387255 -0.11802285394245833
0.6501027711300937 0.393161213694709 -0.11802285394245833
0.6065794252377066 0.319087361839184 -0.11802285394245833
0.44846749697249855 0.46728343557234137 -0.11802285394245833
0.4519598125686648 0.39470905440215104 -0.11802285394245833
0.34665827444049596 0.32853886415900224 -0.11802285394245833
0.528171619401344 0.5319541551301556 -0.11753915372138268
0.43421768845960995 0.47388110658781324 -0.11676523336766166
0.5282586854411377 0.40453784289440814 -0.11676523336766166
0.6237120870682062 0.35923448018846293 -0.11676523336766166
0.5251920260395181 0.5319541551301556 -0.11676523336766166
0.4734554503932666 0.5201518697359099 -0.11608805305815574
0.6368880810903069 0.41432793536897927 -0.11608805305815574
0.6044414702605525 0.31710419093277387 -0.11608805305815574
0.44898021920683884 0.46648049320535584 -0.11608805305815574
0.45254992683837714 0.36023090264387875 -0.11608805305815574
0.3443171653704899 0.324949808518621 -0.11608805305815574
0.3053019055385281 0.40453784289440814 -0.1156043528370801
0.6811563253231502 0.36631585142501044 -0.11483043248335907
0.43972219697545084 0.40453784289440814 -0.11483043248335907
0.4390740386792096 0.4462714979688152 -0.11483043248335907
0.4548426658862757 0.3060274558701416 -0.11483043248335907
0.4769767880026973 0.5373715976062029 -0.11415325217385315
0.6498028769930267 0.3877824672363477 -0.11415325217385315
0.6072566055472127 0.31901964380823356 -0.11415325217385315
0.4495896814853941 0.4662289690903965 -0.11415325217385315
0.45153415637411826 0.35994068251123335 -0.11415325217385315
0.35276257123047067 0.32390501604109756 -0.11415325217385315
0.2989170626203295 0.4172785067175408 -0.1136695519527775
0.6527147523239021 0.43518508890176133 -0.11289563159905648
0.44330157861141073 0.3773925864876428 -0.11289563159905648
0.33265031603814527 0.39179717907127565 -0.11289563159905648
0.26069507115093166 0.43001917054067335 -0.11289563159905648
0.602284167274555 0.45826726345149127 -0.11221845128955056
0.6639269234484355 0.39197131115086287 -0.11221845128955056
0.5015294112244972 0.2679312264582234 -0.11221845128955056
0.48677655448169005 0.3227538095149375 -0.11221845128955056
0.45446537971383666 0.3593892642592072 -0.11221845128955056
0.31795550332186695 0.3966535292908751 -0.11221845128955056
0.3112610922621801 0.45780291123925865 -0.11221845128955056
0.6047123423843548 0.28986219448179334 -0.11096083071475385
0.6301936700306199 0.4809914998376253 -0.11096083071475385
0.5282586854411377 0.36631585142501044 -0.11096083071475385
0.30514712146778383 0.43308582994229305 -0.11096083071475385
0.5329312295767283 0.5073531618862481 -0.11028365040524794
0.5778379581013918 0.47326197030483647 -0.11028365040524794
0.662688650882482 0.37803107077946263 -0.11028365040524794
0.5749841267970454 0.30836856494014775 -0.11028365040524794
0.4456813836991029 0.3269716754427172 -0.11028365040524794
0.4576481271685145 0.3631331039703327 -0.11028365040524794
0.3441720553041672 0.3248046984522983 -0.11028365040524794
0.5631818414027995 0.519213491307023 -0.10979995018417232
0.62347991096209 0.36001807454660556 -0.10979995018417232
0.446194105933443 0.38741485506833023 -0.10979995018417232
0.4361911853615987 0.44860293303439985 -0.10979995018417232
0.28617639879719686 0.3153531961324801 -0.10979995018417232
0.6087850982458117 0.4635782918789019 -0.10834884952094535
0.6645847557490986 0.39190359311991224 -0.10834884952094535
0.49942047826060754 0.26698317402491517 -0.10834884952094535
0.47693809198501136 0.3213027088517105 -0.10834884952094535
0.4547652738509036 0.3625236416917774 -0.10834884952094535
0.3188068157109602 0.3390158109475008 -0.10834884952094535
0.31072902201899677 0.37093035153407217 -0.10834884952094535
0.2989170626203295 0.43001917054067335 -0.10786514929986969
0.6429343338537525 0.3153531961324801 -0.10709122894614867
0.6271270106290004 0.442759834363806 -0.10709122894614867
0.36265907775367856 0.32809385995561274 -0.10709122894614867
0.29585040321870987 0.43308582994229305 -0.10709122894614867
0.4579383473011598 0.308562045028578 -0.10709122894614867
0.5518729302340507 0.5098297070181554 -0.10641404863664276
0.6338020736798443 0.43015460660257465 -0.10641404863664276
0.5832457265730175 0.2999521810934314 -0.10641404863664276
0.4454105115753006 0.4674188716342425 -0.10641404863664276
0.4515535043829612 0.36413920043017006 -0.10641404863664276
0.3187487716844311 0.36569671514203367 -0.10641404863664276
0.5648457701632997 0.27600902015018686 -0.10593034841556712
0.5631818414027995 0.519213491307023 -0.10593034841556712
0.5710177849842251 0.5043251985023146 -0.1051564280618461
0.6516312638286926 0.350731030301953 -0.1051564280618461
0.5697601644094284 0.2775181648399428 -0.1051564280618461
0.5282586854411377 0.43001917054067335 -0.1051564280618461
0.30306721051715846 0.43001917054067335 -0.1051564280618461
0.5307352305730452 0.5126738643180804 -0.10447924775234017
0.6128191580895826 0.46532928667919576 -0.10447924775234017
0.6514184357314194 0.4231603014058207 -0.10447924775234017
0.5092589407572861 0.2551518666174048 -0.10447924775234017
0.45210492263498747 0.47159804154433616 -0.10447924775234017
0.4534592832539993 0.41600153813390106 -0.10447924775234017
0.3148017778804538 0.4573095370137616 -0.10447924775234017
0.6292165955840471 0.4623593673217913 -0.10399554753126453
0.4390740386792096 0.36918903073819975 -0.10399554753126453
0.6110197932671811 0.47486785503880763 -0.1032216271775435
0.6811563253231502 0.4172785067175408 -0.1032216271775435
0.6249019896120522 0.33705198804993364 -0.1032216271775435
0.5012295170874305 0.40453784289440814 -0.1032216271775435
0.3091328112894472 0.46579363889142844 -0.1032216271775435
0.5613147585494473 0.49384825171381613 -0.10254444686803758
0.6046349503489826 0.4721301117875194 -0.10254444686803758
0.6664324905936075 0.40086172121423325 -0.10254444686803758
0.5126061462871295 0.2568738394044341 -0.10254444686803758
0.450982738122092 0.46625799110366106 -0.10254444686803758
0.4525402528339556 0.4148019615856335 -0.10254444686803758
0.3484092692407899 0.3214478189180332 -0.10254444686803758
0.6285297412701196 0.3304543170344619 -0.10206074664696194
0.6282104991242098 0.4634138338037363 -0.10206074664696194
0.5952414920556934 0.487492430808882 -0.10128682629324087
0.613206118266443 0.3443171653704899 -0.10128682629324087
0.5013843011581746 0.431557337243694 -0.10128682629324087
0.29585040321870987 0.3566418470034975 -0.10128682629324087
0.5740070523504726 0.49052039419281557 -0.10060964598373497
0.6378458075280365 0.4376906560469332 -0.10060964598373497
0.5252307220572041 0.27243931251864856 -0.10060964598373497
0.4857027399909021 0.46310426566224777 -0.10060964598373497
0.45373015537780176 0.46917954043895793 -0.10060964598373497
0.31860366161810844 0.3388223308590706 -0.10060964598373497
0.31131913628870916 0.3240791481206848 -0.10060964598373497
0.5881988168368322 0.5064728274838904 -0.10012594576265935
0.26069507115093166 0.40453784289440814 -0.09935202540893828
0.4008423732053902 0.3001553351862832 -0.09935202540893828
0.5932002771227544 0.28986219448179334 -0.09935202540893828
0.5759515272391966 0.5051378148737217 -0.09935202540893828
0.34762567488264734 0.4609759846895149 -0.09867484509943238
0.4555295202002031 0.41066148769322597 -0.09867484509943238
0.48377761311102097 0.45314971511251095 -0.09867484509943238
0.5768318616415543 0.2997006569784721 -0.09867484509943238
0.6308708503401259 0.3426725846188327 -0.09867484509943238
0.6227640346348978 0.4523080767278393 -0.09867484509943238
0.5769479496946125 0.3092585733469269 -0.09867484509943238
0.43942230283838407 0.3790565152481431 -0.09819114487835671
0.6179076844152985 0.3094230314220926 -0.09741722452463569
0.43676195162246795 0.32809385995561274 -0.09741722452463569
0.26069507115093166 0.3535751876018779 -0.09741722452463569
0.313447417261442 0.42877122397029827 -0.09674004421512979
0.3527722452348922 0.33177965564020917 -0.09674004421512979
0.4487286950918794 0.40595024753994907 -0.09674004421512979
0.4796177912097703 0.32906126039776395 -0.09674004421512979
0.5814753837638804 0.4808076937536165 -0.09674004421512979
0.5813205996931363 0.3025351402739753 -0.09674004421512979
0.6197747672686503 0.32332457577580676 -0.09674004421512979
0.6184784506761678 0.32292794159452476 -0.09674004421512979
0.6205196656091069 0.4809914998376253 -0.0954824236403331
0.4390740386792096 0.39179717907127565 -0.0954824236403331
0.3321956378303342 0.4172785067175408 -0.0954824236403331
0.28617639879719686 0.302602858304926 -0.0954824236403331
0.3101776037669705 0.4322635395664645 -0.0948052433308272
0.3260913410403595 0.33868689479716946 -0.0948052433308272
0.4510311081441995 0.32189282312142287 -0.0948052433308272
0.5720432294529053 0.29227102158275015 -0.0948052433308272
0.618991172910508 0.44932848336601333 -0.0948052433308272
0.5938581094234171 0.4765511318081508 -0.0948052433308272
0.5886438210402217 0.48936918766665555 -0.0948052433308272
0.613206118266443 0.4809914998376253 -0.09432154310975153
0.6366172089665046 0.32809385995561274 -0.09354762275603053
0.3321375938038051 0.3535751876018779 -0.09354762275603053
0.45900248778752617 0.4754289472952553 -0.09354762275603053
0.6195909611846416 0.3345754429180263 -0.0928704424465246
0.6336859856267862 0.42806502164752774 -0.0928704424465246
0.6358239406039407 0.3638393062931031 -0.0928704424465246
0.4595248840262879 0.42117713049941063 -0.0928704424465246
0.49356770558559215 0.4516308964183334 -0.0928704424465246
0.31440514369917183 0.3493186256564121 -0.0928704424465246
0.31159000841251144 0.4178395989739885 -0.0928704424465246
0.6232090388382877 0.4809914998376253 -0.0916128218717279
0.613206118266443 0.3059113678170834 -0.0916128218717279
0.3320892237816974 0.3535751876018779 -0.0916128218717279
0.43653944952077317 0.46825083601449274 -0.0916128218717279
0.6403610486776301 0.35711587322015165 -0.09093564156222199
0.5857416197137677 0.31082576206321194 -0.09093564156222199
0.6067825793305586 0.31211240465127327 -0.09093564156222199
0.48840178722450417 0.45196948657308633 -0.09093564156222199
0.4959862066909704 0.3270103714604032 -0.09093564156222199
0.34511043373305395 0.3175782171494281 -0.09093564156222199
0.34482021360040854 0.4637427499540676 -0.09093564156222199
0.6429343338537525 0.46825083601449274 -0.0896780209874253
0.43635564343676436 0.30887161317006634 -0.0896780209874253
0.5052055329046723 0.36631585142501044 -0.0896780209874253
0.30654017810448175 0.4004941090462158 -0.0896780209874253
0.5639073917344128 0.2885465298804676 -0.0890008406779194
0.6056990908353491 0.4716657595752868 -0.0890008406779194
0.6328056512244284 0.4236633496357394 -0.0890008406779194
0.4854415418715212 0.32338261980233585 -0.0890008406779194
0.4788632188648924 0.4552586480764008 -0.0890008406779194
0.32372120995708875 0.3347108789799276 -0.0890008406779194
0.3143857956903287 0.4382807703166456 -0.0890008406779194
0.6334634835250914 0.46825083601449274 -0.08774322010312272
0.28617639879719686 0.32809385995561274 -0.08774322010312272
0.3280745119467696 0.3739970109356917 -0.08774322010312272
0.505350642970995 0.45550049818693855 -0.08774322010312272
0.6127611140630536 0.32756178971242944 -0.08706603979361681
0.5905109038935735 0.3143761216859073 -0.08706603979361681
0.6579967587380481 0.41647556435055527 -0.08706603979361681
0.48891450945884446 0.4534979792716854 -0.08706603979361681
0.3255399227883332 0.3292063704640867 -0.08706603979361681
0.3196581281000533 0.4490866332554755 -0.08706603979361681
0.6301936700306199 0.46825083601449274 -0.08658233957254115
0.6429343338537525 0.3153531961324801 -0.08580841921882013
0.4571257309297528 0.4784472366747673 -0.08580841921882013
0.33265031603814527 0.37462582122309 -0.08580841921882013
0.6228704486835345 0.44612638790249254 -0.08513123890931422
0.6629305009930199 0.4031931562798179 -0.08513123890931422
0.4531690631213539 0.3761930099393752 -0.08513123890931422
0.4831197808103581 0.32600427500056584 -0.08513123890931422
0.31815865741471877 0.34534260983917026 -0.08513123890931422
0.3168526668178146 0.4378841361353634 -0.08513123890931422
0.6301936700306199 0.46825083601449274 -0.08387361833451754
0.3626203817359924 0.32809385995561274 -0.08387361833451754
0.3612273250992945 0.47065966311544943 -0.08387361833451754
0.5282586854411377 0.302602858304926 -0.08387361833451754
0.6415606252258977 0.35791881558713723 -0.08319643802501163
0.5777605660660197 0.47419067472930165 -0.08319643802501163
0.48905961952516713 0.32916767444640055 -0.08319643802501163
0.44330157861141073 0.3119189245628429 -0.08319643802501163
0.30997444967411886 0.3430208487780072 -0.08319643802501163
0.35534553041101474 0.4667803873424228 -0.08319643802501163
0.6811563253231502 0.3790565152481431 -0.08193881745021492
0.5056602111124834 0.39179717907127565 -0.08193881745021492
0.3006970794338879 0.41628208426212504 -0.08193881745021492
0.6143283027793387 0.3247466544257692 -0.08126163714070901
0.6225802285508893 0.32659438927027823 -0.08126163714070901
0.6228607746791132 0.435349546976927 -0.08126163714070901
0.48603165614123356 0.46046326245517477 -0.08126163714070901
0.49360640160327823 0.47159804154433616 -0.08126163714070901
0.31815865741471877 0.44688096024737056 -0.08126163714070901
0.6556749976768852 0.4302900426644758 -0.08077793691963339
0.33859015475295423 0.3144922097389654 -0.08000401656591233
0.3317893296446306 0.43001917054067335 -0.08000401656591233
0.28617639879719686 0.32809385995561274 -0.08000401656591233
0.6091623844182509 0.32473698042134763 -0.07932683625640642
0.6490289566393056 0.3669833577300949 -0.07932683625640642
0.5893210013497275 0.29749498397036706 -0.07932683625640642
0.4852964318051985 0.33740992621352967 -0.07932683625640642
0.31158033440809 0.3227731575237805 -0.07932683625640642
0.3256850328546559 0.42916785815158026 -0.07932683625640642
0.6632303951300869 0.3535751876018779 -0.07806921568160974
0.5155180216180051 0.45550049818693855 -0.07806921568160974
0.32473698042134763 0.36631585142501044 -0.07806921568160974
0.4437562568192218 0.47183989165487406 -0.07739203537210383
0.6614697263253714 0.39867539621497133 -0.07739203537210383
0.6521536600674543 0.4253466264050827 -0.07739203537210383
0.4811462839083694 0.3284711461280516 -0.07739203537210383
0.3240404521029987 0.32131238285613206 -0.07739203537210383
0.668231855416009 0.43001917054067335 -0.07690833515102817
0.3371390540897273 0.43001917054067335 -0.07613441479730715
0.3626203817359924 0.31544026217227367 -0.07613441479730715
0.6784959741072341 0.39179717907127565 -0.07613441479730715
0.6366946010018766 0.43691673569321215 -0.07545723448780124
0.6527727963504312 0.41956157176101794 -0.07545723448780124
0.4864960083534662 0.460637394534762 -0.07545723448780124
0.49637316686783084 0.33131530342797655 -0.07545723448780124
0.3102936918200287 0.3377872123859687 -0.07545723448780124
0.30970357755031647 0.4443560450933557 -0.07545723448780124
0.48815026310954485 0.34816741913025206 -0.07419961391300456
0.48815026310954485 0.4373617398966017 -0.07419961391300456
0.26069507115093166 0.431557337243694 -0.07419961391300456
0.6541174829650216 0.37183970794969434 -0.07352243360349865
0.6120065417181755 0.3204223744493529 -0.07352243360349865
0.48131074198353524 0.4633944857948932 -0.07352243360349865
0.4965182769341535 0.33131530342797655 -0.07352243360349865
0.3106226079703602 0.32338261980233585 -0.07352243360349865
0.31159000841251144 0.4612855528310034 -0.07352243360349865
0.3626107077315709 0.3153531961324801 -0.07226481302870194
0.26069507115093166 0.36631585142501044 -0.07226481302870194
0.6315093346319456 0.3467356664758682 -0.07158763271919603
0.6506832113953843 0.37529332752817446 -0.07158763271919603
0.49028821808669926 0.45273373292238595 -0.07158763271919603
0.4487286950918794 0.32579144690329265 -0.07158763271919603
0.3550359622695262 0.3165237506674831 -0.07158763271919603
0.3072850764449382 0.4451686614647627 -0.07158763271919603
0.3626203817359924 0.45550049818693855 -0.07033001214439935
0.6404481147174236 0.4290034000764146 -0.06965283183489344
0.6649813899303806 0.40829135660995525 -0.06965283183489344
0.44888347916262367 0.45785128126136626 -0.06965283183489344
0.49765980945589217 0.3267008033189148 -0.06965283183489344
0.31013890774928454 0.33603621758567487 -0.06965283183489344
0.45899281378310475 0.47853430271456093 -0.06839521126009676
0.5068791356695941 0.442759834363806 -0.06839521126009676
0.6620791886039268 0.3851898340513822 -0.06771803095059085
0.657803278649618 0.38505439798948105 -0.06771803095059085
0.45372048137338017 0.4673221315900275 -0.06771803095059085
0.45698062086343005 0.3136699193631369 -0.06771803095059085
0.3266814553100717 0.45502647197028445 -0.06771803095059085
0.6545334651551467 0.3728651524183748 -0.06578323006628826
0.6511378896031956 0.3541556278671686 -0.06578323006628826
0.4963634928634094 0.4715690195310716 -0.06578323006628826
0.3452942398170627 0.3272522215709411 -0.06578323006628826
0.3268459133852375 0.45117621821052234 -0.06578323006628826
