0.3631344723732609 0.43050229337662044 -0.21237157642180277
0.4085798973967246 0.43789868276234534 -0.21237157642180277
0.38999999987331946 0.5286849162691633 -0.21237157642180277
0.3945298960600506 0.41298948456233 -0.21237157642180277
0.44432736915205945 0.40420169519315186 -0.21237157642180277
0.6698806296276295 0.5251174922514373 -0.21237157642180277
0.39304434119049897 0.40920236581037456 -0.21237157642180277
0.45131575403135826 0.5436660048128097 -0.21237157642180277
0.3209007751311517 0.44924957736420024 -0.21237157642180277
0.39941548848315317 0.5181500306801605 -0.21237157642180277
0.3992062554029347 0.41941294012503855 -0.21237157642180277
0.3152933285812953 0.47338461316740715 -0.21237157642180277
0.3376289598946227 0.45758751561090844 -0.21237157642180277
0.5111459533198454 0.4577444404210724 -0.21237157642180277
0.5058837413523495 0.4853945919719504 -0.21237157642180277
0.5164081652873412 0.49190174076674653 -0.21237157642180277
0.48164408900903344 0.4965885617636416 -0.21237157642180277
0.4817591672031536 0.44709447663794943 -0.21237157642180277
0.5067415969812455 0.44657139393740314 -0.21237157642180277
0.505831433082295 0.49683964145990384 -0.21237157642180277
0.5554929046721618 0.4942869978812378 -0.21237157642180277
0.5586523241834616 0.4966094850716634 -0.21237157642180277
0.41835108224292966 0.500773223368012 -0.21027924561961753
0.420704954395388 0.43922731282173294 -0.21027924561961753
0.672496043130361 0.5193321975833952 -0.21027924561961753
0.42184527468257893 0.5034514067948092 -0.21027924561961753
0.4009428899687484 0.5075732984751141 -0.21027924561961753
0.3536039055693071 0.4342371038585211 -0.21027924561961753
0.40952144625770787 0.5345120575532493 -0.21027924561961753
0.34000375535510297 0.4378359128382798 -0.21027924561961753
0.4019053621377536 0.5028341692081645 -0.21027924561961753
0.6724123498982735 0.4180320017955964 -0.21027924561961753
0.40952144625770787 0.5345120575532493 -0.21027924561961753
0.4566825825389635 0.39886625164757944 -0.21027924561961753
0.38712304502031486 0.5331415808778179 -0.21027924561961753
0.3154293300834372 0.47001596057588885 -0.21027924561961753
0.34447088161776857 0.4987227391818705 -0.21027924561961753
0.39757423737723013 0.5186208051106522 -0.21027924561961753
0.3939858900514824 0.4368734406692746 -0.21027924561961753
0.39343142238890333 0.478657286788914 -0.21027924561961753
0.5164081652873412 0.4925294400074021 -0.21027924561961753
0.5031009413854431 0.4530366961161555 -0.21027924561961753
0.5015107699757824 0.4986704309118159 -0.21027924561961753
0.48286810252831186 0.4948833121598605 -0.21027924561961753
0.4783486679955917 0.4468224736336654 -0.21027924561961753
0.5192641968323243 0.4470526300219058 -0.21027924561961753
0.5015107699757824 0.4986704309118159 -0.21027924561961753
0.55603691068073 0.44959481194656087 -0.21027924561961753
0.5513082430677912 0.49761380385671233 -0.21027924561961753
0.6810536761112985 0.4026847553615676 -0.21017462907950824
0.6253139835410835 0.40276844859365496 -0.21017462907950824
0.5674610368606615 0.3888962953751667 -0.21017462907950824
0.5133638239701618 0.3888962953751667 -0.21017462907950824
0.45926661107966227 0.3888962953751667 -0.21017462907950824
0.2993288445606217 0.4138054935751821 -0.21017462907950824
0.2855508462282319 0.49913074368829663 -0.21017462907950824
0.4018739771757208 0.5452352529144485 -0.21017462907950824
0.4700839613269599 0.5512193190086984 -0.21017462907950824
0.5241811742174596 0.547442661910754 -0.21017462907950824
0.5782783871079591 0.5436660048128097 -0.21017462907950824
0.6377842751221077 0.5395022665164609 -0.21017462907950824
0.689224227893832 0.52943815535795 -0.21017462907950824
0.4922312828680908 0.43522049933554824 -0.21017462907950824
0.4113208507475871 0.44865326308557746 -0.21017462907950824
0.46604576287874244 0.5040895676894757 -0.21017462907950824
0.40582848239185093 0.4421356526367705 -0.2081869148174323
0.40720942072129324 0.4339441775462152 -0.2081869148174323
0.4087577455149103 0.5304947824130536 -0.2081869148174323
0.4050229350330096 0.5001873707434001 -0.2081869148174323
0.351783577771406 0.4337244828119858 -0.2081869148174323
0.388221518691462 0.5259858095343443 -0.2081869148174323
0.3783352556511368 0.5268122802012075 -0.2081869148174323
0.39832747646601685 0.40972544851092085 -0.2081869148174323
0.46076262760322473 0.402757986939644 -0.2081869148174323
0.45572011036995813 0.5405275086095317 -0.2081869148174323
0.4198261754584702 0.4009271974877319 -0.2081869148174323
0.41249255599681095 0.540925051461947 -0.2081869148174323
0.3557903912575907 0.4410162556576012 -0.2081869148174323
0.37945465263030587 0.42398468292781333 -0.2081869148174323
0.3425040906637144 0.4991621286503294 -0.2081869148174323
0.3945298960600506 0.5048114218162296 -0.2081869148174323
0.5111459533198454 0.4577444404210724 -0.2081869148174323
0.5058837413523495 0.4853945919719504 -0.2081869148174323
0.5164081652873412 0.49190174076674653 -0.2081869148174323
0.48164408900903344 0.4965885617636416 -0.2081869148174323
0.4817591672031536 0.44709447663794943 -0.2081869148174323
0.5067415969812455 0.44657139393740314 -0.2081869148174323
0.505831433082295 0.49683964145990384 -0.2081869148174323
0.5558276776005114 0.49394176329887723 -0.2081869148174323
0.5591230986139532 0.4961596339491935 -0.2081869148174323
0.6864728128889583 0.4026847553615676 -0.20766383211688597
0.6323755999984588 0.4026847553615676 -0.20766383211688597
0.5728697119843102 0.3888962953751667 -0.20766383211688597
0.5187724990938106 0.3888962953751667 -0.20766383211688597
0.46467528620331106 0.3888962953751667 -0.20766383211688597
0.2442168512310622 0.4440187503587371 -0.20766383211688597
0.2304388528986724 0.4577967486911271 -0.20766383211688597
0.2993288445606217 0.5404647386854662 -0.20766383211688597
0.45385793595601326 0.5542427370178561 -0.20766383211688597
0.5079551488465129 0.5542427370178561 -0.20766383211688597
0.5620523617370125 0.5542427370178561 -0.20766383211688597
0.6161495746275121 0.5542427370178561 -0.20766383211688597
0.6756450009876497 0.5404647386854662 -0.20766383211688597
0.4922312828680908 0.5079289947114856 -0.20766383211688597
0.4687344079595505 0.4367165158591107 -0.20766383211688597
0.4113208507475871 0.48535274535590667 -0.20766383211688597
0.4233412912061414 0.4804776145868151 -0.20766383211688597
0.419575095762208 0.43874607673723026 -0.206094584015247
0.4721762921291452 0.5361859221949974 -0.206094584015247
0.42638563252332107 0.5031375571744813 -0.206094584015247
0.33845543056148597 0.5027086293600334 -0.206094584015247
0.3966222268622359 0.44380951727851864 -0.206094584015247
0.404813701952791 0.5044766488878799 -0.206094584015247
0.3143936263363556 0.4892444806479712 -0.206094584015247
0.4014450493612729 0.43456141513285984 -0.206094584015247
0.6776013302876931 0.41839815968597877 -0.206094584015247
0.40596448389399303 0.5356105312243964 -0.206094584015247
0.43907561883857454 0.3980816275967599 -0.206094584015247
0.3930129562284662 0.5371797793260353 -0.206094584015247
0.39343142238890333 0.478657286788914 -0.206094584015247
0.308943104596663 0.47161659363956066 -0.206094584015247
0.38552241195664305 0.5220103810101923 -0.206094584015247
0.3932849592327504 0.44117318046776516 -0.206094584015247
0.3844762465555505 0.4211286513828305 -0.206094584015247
0.5036658707020333 0.49375345352668054 -0.206094584015247
0.49909412789925833 0.45180222094286626 -0.206094584015247
0.4995335173677173 0.5009092248701541 -0.206094584015247
0.4843955040139071 0.4925922099314677 -0.206094584015247
0.47176828762271905 0.4466341638614687 -0.206094584015247
0.5219214569510995 0.44753386610640833 -0.206094584015247
0.4995335173677173 0.5009092248701541 -0.206094584015247
0.5532854956758564 0.4482452585791513 -0.206094584015247
0.5501260761645566 0.4966199467256744 -0.206094584015247
0.5060197428544916 0.4302407520263474 -0.20557150131470073
0.4477274067056105 0.5542427370178561 -0.20557150131470073
0.2993288445606217 0.5404647386854662 -0.20557150131470073
0.27177284789584194 0.48368934236816946 -0.20557150131470073
0.32492851192535827 0.4302407520263474 -0.20557150131470073
0.44717293904303146 0.39014123220246694 -0.20557150131470073
0.47521017179231384 0.43402787077830257 -0.20557150131470073
0.4796563747469575 0.4833964160558635 -0.20557150131470073
0.411498698865773 0.47157474702351687 -0.20557150131470073
0.420140025078798 0.43898669477948166 -0.20400225321306178
0.467656857596425 0.5373157808281774 -0.20400225321306178
0.41967971230231726 0.5004279887856514 -0.20400225321306178
0.6801330505583371 0.4221434318218904 -0.20400225321306178
0.6848512565172648 0.4221434318218904 -0.20400225321306178
0.3963188388959189 0.5052089646686448 -0.20400225321306178
0.33655140953149737 0.440064245142607 -0.20400225321306178
0.4032026072351084 0.5355791462623636 -0.20400225321306178
0.3194152202616001 0.4476489443005285 -0.20400225321306178
0.4007859651585845 0.44380951727851864 -0.20400225321306178
0.43092599036406304 0.40251736889739276 -0.20400225321306178
0.4007755035045735 0.5402241206432149 -0.20400225321306178
0.3564703987683009 0.41896308900256884 -0.20400225321306178
0.6889208399275152 0.5248664125551751 -0.20400225321306178
0.37966388571052434 0.42598285884390025 -0.20400225321306178
0.365247726483468 0.4276671851396594 -0.20400225321306178
0.35379221534150374 0.5094877811591135 -0.20400225321306178
0.38378577739082936 0.5106281014463045 -0.20400225321306178
0.3848424044459329 0.4370094421714165 -0.20400225321306178
0.3879076690711342 0.520200514866302 -0.20400225321306178
0.5000147534522199 0.49522854674222105 -0.20400225321306178
0.49036910845414594 0.45127913824231997 -0.20400225321306178
0.4820939401315032 0.5017775421530609 -0.20400225321306178
0.499868290296067 0.48737184458001553 -0.20400225321306178
0.47734434921054275 0.44331781954000515 -0.20400225321306178
0.5208229832799522 0.44969942848667016 -0.20400225321306178
0.4820939401315032 0.5017775421530609 -0.20400225321306178
0.5492786821896717 0.44751294279838655 -0.20400225321306178
0.5489334476073111 0.4956365512486472 -0.20400225321306178
0.4922312828680908 0.5079289947114856 -0.20347917051251543
0.2993288445606217 0.5293440004718517 -0.20347917051251543
0.43711928953853135 0.5680311970042569 -0.20347917051251543
0.43235923696355993 0.49913074368829663 -0.20347917051251543
0.4321081572672977 0.4475861743764629 -0.20347917051251543
0.37531183764197906 0.4026847553615676 -0.20347917051251543
0.43380294521706764 0.3888962953751667 -0.20347917051251543
0.40595402223998206 0.47157474702351687 -0.20190992241087652
0.4053158613453155 0.4359737384243348 -0.20190992241087652
0.4305179858576369 0.5368868530137294 -0.20190992241087652
0.4069792643330528 0.5018298504231156 -0.20190992241087652
0.3201056894263213 0.4925712866234459 -0.20190992241087652
0.3966222268622359 0.44380951727851864 -0.20190992241087652
0.40175889898160067 0.4711772041711017 -0.20190992241087652
0.3248134337312381 0.5015369241108096 -0.20190992241087652
0.3995514899852951 0.40900359438416706 -0.20190992241087652
0.45557364721380517 0.4008435042556446 -0.20190992241087652
0.4530105419811284 0.40071796440751345 -0.20190992241087652
0.43912792710862913 0.40120966214602694 -0.20190992241087652
0.4142501138706465 0.5391151853180568 -0.20190992241087652
0.6781662596042831 0.41482027401424204 -0.20190992241087652
0.6792228866593866 0.5273667478637866 -0.20190992241087652
0.6791705783893317 0.5341668229708887 -0.20190992241087652
0.28610531389081095 0.47157474702351687 -0.20190992241087652
0.6762517769202834 0.40877343799592664 -0.20190992241087652
0.39343142238890333 0.46449220725811974 -0.20190992241087652
0.3419391613471244 0.5040686443814537 -0.20190992241087652
0.37435982712698485 0.42246774309622903 -0.20190992241087652
0.3360283268309511 0.44323412630791764 -0.20190992241087652
0.5224340779976349 0.44751294279838655 -0.20190992241087652
0.48630998669790654 0.49726856927435176 -0.20190992241087652
0.497012258751084 0.44717816987003695 -0.20190992241087652
0.47734434921054275 0.4998316745070286 -0.20190992241087652
0.5009563023132033 0.45638442539965196 -0.20190992241087652
0.4836527265791312 0.4414765684340821 -0.20190992241087652
0.5214506825206078 0.4941823813411285 -0.20190992241087652
0.47734434921054275 0.4998316745070286 -0.20190992241087652
0.5514023979538896 0.4456193834224089 -0.20190992241087652
0.554195659574807 0.4947054640416748 -0.20190992241087652
0.4922312828680908 0.5129087420206864 -0.20138683971033022
0.2993288445606217 0.5293440004718517 -0.20138683971033022
0.43711928953853135 0.5680311970042569 -0.20138683971033022
0.46604576287874244 0.5040895676894757 -0.20138683971033022
0.4113208507475871 0.44865326308557746 -0.20138683971033022
0.426814560337769 0.38980645927411733 -0.20138683971033022
0.3268953028794124 0.42559577764549605 -0.20138683971033022
0.2855508462282319 0.49913074368829663 -0.20138683971033022
0.41835108224292966 0.500773223368012 -0.19981759160869128
0.4216046566403277 0.4431190481137975 -0.19981759160869128
0.4248582310377258 0.406168486147206 -0.19981759160869128
0.39895517570667244 0.5097807074714196 -0.19981759160869128
0.396737305056356 0.5005535286337826 -0.19981759160869128
0.3291654817997834 0.44185318797847545 -0.19981759160869128
0.4007859651585845 0.49932951511450424 -0.19981759160869128
0.3267279164152375 0.5046544970060657 -0.19981759160869128
0.3976370073012957 0.40732972974241877 -0.19981759160869128
0.4589318381513125 0.545182944644394 -0.19981759160869128
0.6840980174284781 0.5233703960316126 -0.19981759160869128
0.40851712747265906 0.40423308015518467 -0.19981759160869128
0.6802585904064682 0.4124664018617835 -0.19981759160869128
0.40290968092280255 0.5425361461796296 -0.19981759160869128
0.3618581505839279 0.41381595522919307 -0.19981759160869128
0.6914002519281046 0.43613066323449867 -0.19981759160869128
0.36160707088766564 0.4262862468102172 -0.19981759160869128
0.38761474275882835 0.4340487940863244 -0.19981759160869128
0.30339842797087213 0.47358338459361465 -0.19981759160869128
0.3828233052218242 0.4796197589579192 -0.19981759160869128
0.38341961950044695 0.5210269855331653 -0.19981759160869128
0.5219214569510995 0.44753386610640833 -0.19981759160869128
0.48491858671445337 0.4978753452069854 -0.19981759160869128
0.49746210987355394 0.4469584751358075 -0.19981759160869128
0.4765597251597232 0.4996224414268101 -0.19981759160869128
0.499868290296067 0.45753520734085384 -0.19981759160869128
0.4857450573813165 0.4414451834720493 -0.19981759160869128
0.5219423802591214 0.4949042354678824 -0.19981759160869128
0.4764237236575813 0.4996329030808211 -0.19981759160869128
0.5550116685876593 0.4445732180213162 -0.19981759160869128
0.5562461437609485 0.49265497985553325 -0.19981759160869128
0.5060197428544916 0.5051566563985901 -0.19929450890814496
0.25799484956345214 0.5017880038070719 -0.19929450890814496
0.41364333793801283 0.47572802366585465 -0.19929450890814496
0.4113208507475871 0.4944857693074453 -0.19929450890814496
0.4233412912061414 0.4302407520263474 -0.19929450890814496
0.2855508462282319 0.49913074368829663 -0.19929450890814496
0.3268953028794124 0.3888962953751667 -0.19929450890814496
0.3914855547428711 0.5020913917733888 -0.19772526080650604
0.35523592359501166 0.42470653705456723 -0.19772526080650604
0.3941114298996135 0.5053135812087539 -0.19772526080650604
0.3002913167296269 0.484191501760694 -0.19772526080650604
0.4166458326391486 0.40200474785085727 -0.19772526080650604
0.44294643082261725 0.5437078514288533 -0.19772526080650604
0.3038168941313091 0.493115292632014 -0.19772526080650604
0.4586912201090612 0.392840338937286 -0.19772526080650604
0.420140025078798 0.43898669477948166 -0.19772526080650604
0.404834625260813 0.477506504847712 -0.19772526080650604
0.39665361182426867 0.5084625390660428 -0.19772526080650604
0.3855119503026321 0.4840973468745956 -0.19772526080650604
0.3276485419681991 0.49803227001714934 -0.19772526080650604
0.3703739369488219 0.5220626892802469 -0.19772526080650604
0.3886190615438773 0.5004802970557062 -0.19772526080650604
0.3648920302470966 0.4237126799235293 -0.19772526080650604
0.36796775652630886 0.4269557926669164 -0.19772526080650604
0.5224340779976349 0.4956365512486472 -0.19772526080650604
0.5067415969812455 0.4925294400074021 -0.19772526080650604
0.5164081652873412 0.4506200540396316 -0.19772526080650604
0.48164408900903344 0.4965885617636416 -0.19772526080650604
0.4720089056649703 0.4432027413458849 -0.19772526080650604
0.5211891411703347 0.4489775743599162 -0.19772526080650604
0.4820939401315032 0.5017775421530609 -0.19772526080650604
0.5492786821896717 0.44751294279838655 -0.19772526080650604
0.5489334476073111 0.4956365512486472 -0.19772526080650604
0.3268953028794124 0.3888962953751667 -0.19720217810595972
0.27177284789584194 0.47157474702351687 -0.19720217810595972
0.43222323546141783 0.3751182970427769 -0.19720217810595972
0.498591968506734 0.4302407520263474 -0.19720217810595972
0.4563791945726465 0.4302407520263474 -0.19720217810595972
0.4796563747469575 0.48535274535590667 -0.19720217810595972
0.5037181789720878 0.5071234473526443 -0.19720217810595972
0.3131068428930116 0.5110674909147636 -0.19720217810595972
0.3837753157368184 0.530996941805578 -0.19563293000432075
0.3839113172389605 0.41221532216552126 -0.19563293000432075
0.3839322405469823 0.5081173044836822 -0.19563293000432075
0.301421175362807 0.4558613426991057 -0.19563293000432075
0.40453123729449614 0.43965624063618086 -0.19563293000432075
0.43687867149628007 0.5438124679689627 -0.19563293000432075
0.43773652712517597 0.39921148622994 -0.19563293000432075
0.39284556976429147 0.43455095347884887 -0.19563293000432075
0.405399554577403 0.4429725849576446 -0.19563293000432075
0.4203283348509947 0.5040791060354647 -0.19563293000432075
0.43875130756423575 0.551292550586775 -0.19563293000432075
0.3055639903511338 0.44657139393740314 -0.19563293000432075
0.4493908096933478 0.39862563360532816 -0.19563293000432075
0.32762761866017714 0.44366305412236556 -0.19563293000432075
0.35539284840517554 0.4269034843968618 -0.19563293000432075
0.318860752599021 0.4928014430116862 -0.19563293000432075
0.33949113430856753 0.5074268353189612 -0.19563293000432075
0.38055312630145316 0.5264565839648359 -0.19563293000432075
0.3762429248489515 0.5205352877946517 -0.19563293000432075
0.4943445369782979 0.4906254189774135 -0.19563293000432075
0.49008664379585093 0.4513942164364401 -0.19563293000432075
0.4781394349153731 0.5000409075872472 -0.19563293000432075
0.48231363486573264 0.44768032926256124 -0.19563293000432075
0.5067415969812455 0.44657139393740314 -0.19563293000432075
0.505831433082295 0.49683964145990384 -0.19563293000432075
0.5562461437609485 0.49265497985553325 -0.19563293000432075
0.5557649076764458 0.49831473467544435 -0.19563293000432075
0.4975458031056413 0.4879681588586382 -0.19563293000432075
0.5060197428544916 0.4302407520263474 -0.19510984730377448
0.4233412912061414 0.4302407520263474 -0.19510984730377448
0.4266576355276051 0.48535274535590667 -0.19510984730377448
0.4922312828680908 0.5079289947114856 -0.19510984730377448
0.43711928953853135 0.5680311970042569 -0.19510984730377448
0.2442168512310622 0.49913074368829663 -0.19510984730377448
0.402553984686431 0.391553555493942 -0.19510984730377448
0.4311875317143361 0.38495225181304754 -0.19510984730377448
0.2895367364063948 0.4715642853695059 -0.19354059920213554
0.3966222268622359 0.44380951727851864 -0.19354059920213554
0.3564076288442353 0.5215396065797006 -0.19354059920213554
0.3827814586057804 0.40744480793653903 -0.19354059920213554
0.4015915125174258 0.47578033193590924 -0.19354059920213554
0.3546500709703998 0.525305802023634 -0.19354059920213554
0.4381549932856131 0.5462814183155412 -0.19354059920213554
0.44430644584403767 0.3973179268539624 -0.19354059920213554
0.419575095762208 0.43874607673723026 -0.19354059920213554
0.41088146127912833 0.47157474702351687 -0.19354059920213554
0.40386169143779677 0.5072489872007754 -0.19354059920213554
0.4443796774221142 0.5517424017092447 -0.19354059920213554
0.29678666263596665 0.45276469311187145 -0.19354059920213554
0.44430644584403767 0.3973179268539624 -0.19354059920213554
0.38112851727205405 0.44832895181123883 -0.19354059920213554
0.3486241582601062 0.4383485338848151 -0.19354059920213554
0.37679739251153055 0.4991621286503294 -0.19354059920213554
0.3545349927762795 0.5095505510831791 -0.19354059920213554
0.3074157031110678 0.45847675620183725 -0.19354059920213554
0.33127873590999046 0.44708401498393857 -0.19354059920213554
0.3855119503026321 0.47241167934439093 -0.19354059920213554
0.3929711096124226 0.4811890070595581 -0.19354059920213554
0.3917366344391332 0.4644085140260324 -0.19354059920213554
0.5224340779976349 0.4956365512486472 -0.19354059920213554
0.502400010566711 0.4946217708095874 -0.19354059920213554
0.5164081652873412 0.4506200540396316 -0.19354059920213554
0.48031545894964583 0.49649440687754326 -0.19354059920213554
0.48120469954057454 0.4465086240133376 -0.19354059920213554
0.5179355667729365 0.4468120119796544 -0.19354059920213554
0.5047643443731804 0.49854489106368477 -0.19354059920213554
0.5562461437609485 0.4506305156936426 -0.19354059920213554
0.5516534776501518 0.4986599692578049 -0.19354059920213554
0.4996381339078266 0.45600780585525863 -0.19354059920213554
0.4796563747469575 0.47157474702351687 -0.1930175165015892
0.4113208507475871 0.45995184941737777 -0.1930175165015892
0.4328718580100952 0.5064120548799013 -0.1930175165015892
0.377299551904055 0.5463546498936176 -0.1930175165015892
0.426814560337769 0.5670373398732189 -0.1930175165015892
0.2855508462282319 0.49913074368829663 -0.1930175165015892
0.4233412912061414 0.3751182970427769 -0.1930175165015892
0.3268953028794124 0.4000274952427923 -0.1930175165015892
0.5224340779976349 0.4956365512486472 -0.19144826839995027
0.49751441814360853 0.49612824898716074 -0.19144826839995027
0.5047643443731804 0.49854489106368477 -0.19144826839995027
0.4824600980218857 0.49544824147645056 -0.19144826839995027
0.4769154213960948 0.4469793984438293 -0.19144826839995027
0.5219214569510995 0.44753386610640833 -0.19144826839995027
0.4995335173677173 0.5009092248701541 -0.19144826839995027
0.5532854956758564 0.4482452585791513 -0.19144826839995027
0.5501260761645566 0.4966199467256744 -0.19144826839995027
0.3038901257093856 0.4554533381926796 -0.19144826839995027
0.359859974667841 0.5284966064969666 -0.19144826839995027
0.3627578528288675 0.41493535220836214 -0.19144826839995027
0.3643898708545721 0.5298043132483324 -0.19144826839995027
0.3470130635424236 0.5273458245557647 -0.19144826839995027
0.43026690616137464 0.39420035395870634 -0.19144826839995027
0.41144639059571825 0.5381213281870187 -0.19144826839995027
0.34106038241020653 0.5113394939190475 -0.19144826839995027
0.3538026769955147 0.4442593684009884 -0.19144826839995027
0.313190536125099 0.45166621944072416 -0.19144826839995027
0.39705115467668384 0.4432968962319832 -0.19144826839995027
0.40530539969130464 0.46934641471918964 -0.19144826839995027
0.419575095762208 0.43874607673723026 -0.19144826839995027
0.4123670161486798 0.4682374793940314 -0.19144826839995027
0.4203283348509947 0.5040791060354647 -0.19144826839995027
0.39190402090330806 0.4512582149342982 -0.19144826839995027
0.3891212209364016 0.4782911288985315 -0.19144826839995027
0.4113208507475871 0.4849447408494807 -0.19092518569940398
0.42140588521412015 0.4577967486911271 -0.19092518569940398
0.2993288445606217 0.5404647386854662 -0.19008825337852986
0.29073982661765124 0.49913074368829663 -0.19008825337852986
0.25799484956345214 0.4302407520263474 -0.19008825337852986
0.3268953028794124 0.3888962953751667 -0.19008825337852986
0.43235923696355993 0.4440187503587371 -0.19008825337852986
0.4321081572672977 0.49555285801655985 -0.19008825337852986
0.5060197428544916 0.5129087420206864 -0.19008825337852986
0.5005273744987553 0.4526496149177513 -0.18935593759776503
0.49711687529119336 0.44612154281493327 -0.18935593759776503
0.4765597251597232 0.4996224414268101 -0.18935593759776503
0.48606936865565525 0.4519696074070411 -0.18935593759776503
0.4992719760174442 0.44221934586885786 -0.18935593759776503
0.5195152765285865 0.4961073256791389 -0.18935593759776503
0.5502097693966441 0.49539593320639597 -0.18935593759776503
0.5596043346984558 0.4479314089588235 -0.18935593759776503
0.3268743795713906 0.43828576396074953 -0.18935593759776503
0.33347568325228505 0.5154195389833088 -0.18935593759776503
0.3317285870324604 0.43108814600123224 -0.18935593759776503
0.42944043549451155 0.3974120817400607 -0.18935593759776503
0.42868719640572484 0.5499743821813982 -0.18935593759776503
0.323966039756353 0.4277194934097141 -0.18935593759776503
0.4010684298168795 0.40615802449319505 -0.18935593759776503
0.43392848506519877 0.5438438529309954 -0.18935593759776503
0.3099055767656682 0.4524926901075874 -0.18935593759776503
0.3966222268622359 0.44380951727851864 -0.18935593759776503
0.4044370824083978 0.46796547638974734 -0.18935593759776503
0.4002105741879835 0.4354715790318105 -0.18935593759776503
0.404834625260813 0.45991000280133415 -0.18935593759776503
0.42100834236170487 0.50007229254928 -0.18935593759776503
0.39343142238890333 0.4807077709750555 -0.18935593759776503
0.3921132539835266 0.47150151544544033 -0.18935593759776503
0.3921132539835266 0.47150151544544033 -0.18935593759776503
0.37812602257091826 0.5150219961308936 -0.18799592257634462
0.43235923696355993 0.49913074368829663 -0.18799592257634462
0.4785265161137774 0.47157474702351687 -0.18799592257634462
0.37812602257091826 0.43865192185113194 -0.18799592257634462
0.38714396832833664 0.391553555493942 -0.18799592257634462
0.2304388528986724 0.4577967486911271 -0.18799592257634462
0.417859384504416 0.5563559911280631 -0.18799592257634462
0.5224340779976349 0.4956365512486472 -0.1872636067955798
0.49751441814360853 0.49612824898716074 -0.1872636067955798
0.5047643443731804 0.49854489106368477 -0.1872636067955798
0.4824600980218857 0.49544824147645056 -0.1872636067955798
0.4769154213960948 0.4469793984438293 -0.1872636067955798
0.5219214569510995 0.44753386610640833 -0.1872636067955798
0.4995335173677173 0.5009092248701541 -0.1872636067955798
0.5532854956758564 0.4482452585791513 -0.1872636067955798
0.5501260761645566 0.4966199467256744 -0.1872636067955798
0.3004796265018236 0.4927177497795988 -0.1872636067955798
0.3021325678355499 0.49270728812558784 -0.1872636067955798
0.39410096824560265 0.4021721343150322 -0.1872636067955798
0.35796641529186335 0.5292812305477861 -0.1872636067955798
0.35320636271689193 0.5325975748692496 -0.1872636067955798
0.4161332115926133 0.39405389080255343 -0.1872636067955798
0.30582553170140697 0.453256390850385 -0.1872636067955798
0.432631239967844 0.5532698031948399 -0.1872636067955798
0.3947914374103237 0.45042128261342396 -0.1872636067955798
0.40910298009727086 0.47157474702351687 -0.1872636067955798
0.40162289747945856 0.46691931098865475 -0.1872636067955798
0.40437431248433225 0.4744307785684997 -0.1872636067955798
0.42638563252332107 0.5031375571744813 -0.1872636067955798
0.420140025078798 0.43898669477948166 -0.1872636067955798
0.4047927786447692 0.4638854313254861 -0.1872636067955798
0.4062574102062989 0.5008673782541103 -0.1872636067955798
0.3891630675524454 0.47158520867752785 -0.1872636067955798
0.390062769797385 0.4523043803353907 -0.1872636067955798
0.3820072962089719 0.5129087420206864 -0.18590359177415935
0.4233412912061414 0.5127413555565117 -0.18590359177415935
0.4113208507475871 0.4530157728081337 -0.18590359177415935
0.3793500360901966 0.4372082135976242 -0.18590359177415935
0.3535725206072743 0.44190549624853004 -0.18590359177415935
0.32328603224564284 0.4164627536939574 -0.18590359177415935
0.2304388528986724 0.48535274535590667 -0.18590359177415935
0.34881246803230287 0.5542427370178561 -0.18590359177415935
0.5224340779976349 0.4956365512486472 -0.1851712759933945
0.49751441814360853 0.49612824898716074 -0.1851712759933945
0.5047643443731804 0.49854489106368477 -0.1851712759933945
0.4824600980218857 0.49544824147645056 -0.1851712759933945
0.4769154213960948 0.4469793984438293 -0.1851712759933945
0.5219214569510995 0.44753386610640833 -0.1851712759933945
0.4995335173677173 0.5009092248701541 -0.1851712759933945
0.5532854956758564 0.4482452585791513 -0.1851712759933945
0.5501260761645566 0.4966199467256744 -0.1851712759933945
0.282830816185391 0.4766591108728271 -0.1851712759933945
0.3139751601759185 0.4391540812436564 -0.1851712759933945
0.424251455105092 0.3963031464149026 -0.1851712759933945
0.32252233150284515 0.5111511841468509 -0.1851712759933945
0.3497644785472971 0.5212989885374493 -0.1851712759933945
0.3804066631453001 0.5432056920363288 -0.1851712759933945
0.314048391753995 0.4316635369718333 -0.1851712759933945
0.4065503365186049 0.4035949192605181 -0.1851712759933945
0.39177848105517693 0.4460587728908678 -0.1851712759933945
0.41047345677270225 0.47349969136152725 -0.1851712759933945
0.3949274389124658 0.4943811527673362 -0.1851712759933945
0.39871455766442104 0.44260642706726205 -0.1851712759933945
0.421709273180437 0.46747377865123385 -0.1851712759933945
0.41967971230231726 0.5004279887856514 -0.1851712759933945
0.40595402223998206 0.43622481812059705 -0.1851712759933945
0.40048257719226765 0.44845449165936996 -0.1851712759933945
0.3834928510785234 0.4845262746890436 -0.1851712759933945
0.5037181789720878 0.5071234473526443 -0.18381126097197412
0.46467528620331106 0.4826954852371315 -0.18381126097197412
0.4563791945726465 0.4302407520263474 -0.18381126097197412
0.32776362016231925 0.44612154281493327 -0.18381126097197412
0.36730867232362047 0.4951657768181555 -0.18381126097197412
0.3820072962089719 0.5087031571082942 -0.18381126097197412
0.3069658519885979 0.5143942968902381 -0.18381126097197412
0.3477872259392321 0.5404647386854662 -0.18381126097197412
0.3082003271618871 0.4289121219669596 -0.18381126097197412
0.3212041630974686 0.4164627536939574 -0.18381126097197412
0.31727058118936025 0.5027295526680552 -0.1830789451912093
0.3891630675524454 0.546166340121421 -0.1830789451912093
0.27605166438631085 0.47314399512515587 -0.1830789451912093
0.29820944758145257 0.4935232971384401 -0.1830789451912093
0.28401298308862566 0.47157474702351687 -0.1830789451912093
0.39435204794186474 0.4457239999625181 -0.1830789451912093
0.3719536467044718 0.45284838634395885 -0.1830789451912093
0.4006813486184752 0.44089071580947015 -0.1830789451912093
0.41702245218354195 0.5011289196043835 -0.1830789451912093
0.39414281486164626 0.4348648030991767 -0.1830789451912093
0.41338179658773966 0.4796092973039082 -0.1830789451912093
0.414040880790428 0.4837102656761913 -0.1830789451912093
0.3241020412584951 0.42955028286162616 -0.1830789451912093
0.4255173152404142 0.3979665494026398 -0.1830789451912093
0.40425923429021193 0.39423173892073915 -0.1830789451912093
0.5224340779976349 0.4956365512486472 -0.1830789451912093
0.49751441814360853 0.49612824898716074 -0.1830789451912093
0.5047643443731804 0.49854489106368477 -0.1830789451912093
0.4824600980218857 0.49544824147645056 -0.1830789451912093
0.4769154213960948 0.4469793984438293 -0.1830789451912093
0.5219214569510995 0.44753386610640833 -0.1830789451912093
0.4995335173677173 0.5009092248701541 -0.1830789451912093
0.5532750340218454 0.4482452585791513 -0.1830789451912093
0.5501156145105457 0.4966199467256744 -0.1830789451912093
0.2993288445606217 0.5404647386854662 -0.18171893016978885
0.2442168512310622 0.49913074368829663 -0.18171893016978885
0.2993288445606217 0.4026847553615676 -0.18171893016978885
0.3820072962089719 0.4302407520263474 -0.18171893016978885
0.3820072962089719 0.5129087420206864 -0.18171893016978885
0.4817487055491428 0.4732276883572432 -0.18171893016978885
0.4233412912061414 0.4302407520263474 -0.18171893016978885
0.5060197428544916 0.5051566563985901 -0.18171893016978885
0.27897046585535923 0.4759895650161277 -0.18098661438902403
0.27910646735750133 0.4765963409487615 -0.18098661438902403
0.28214034702066987 0.47157474702351687 -0.18098661438902403
0.36440033250858295 0.5299193914424525 -0.18098661438902403
0.3400246786631248 0.529710158362234 -0.18098661438902403
0.40753373199563186 0.47083196958874113 -0.18098661438902403
0.4125134793048328 0.45851860281788087 -0.18098661438902403
0.4167609108332689 0.46532913957899397 -0.18098661438902403
0.3756779955323615 0.4545954825637835 -0.18098661438902403
0.39448804944400684 0.4980113467091275 -0.18098661438902403
0.38961291867491527 0.5059203571413877 -0.18098661438902403
0.42638563252332107 0.4400119368725524 -0.18098661438902403
0.38952922544282775 0.4850598190436008 -0.18098661438902403
0.4207468010114318 0.39943118096416946 -0.18098661438902403
0.41901016644561806 0.39176278857416047 -0.18098661438902403
0.5053920436138359 0.48845985659715185 -0.18098661438902403
0.48491858671445337 0.4978753452069854 -0.18098661438902403
0.5002030632244167 0.4991621286503294 -0.18098661438902403
0.4830041040304538 0.49260267158547866 -0.18098661438902403
0.4720089056649703 0.4432027413458849 -0.18098661438902403
0.5211891411703347 0.4489775743599162 -0.18098661438902403
0.484960433330497 0.5017461571910282 -0.18098661438902403
0.5506177739030702 0.4477535608406378 -0.18098661438902403
0.5494146836918136 0.49603409410106236 -0.18098661438902403
0.4922312828680908 0.43189369336007355 -0.1796265993676036
0.4159972100904712 0.38156267591350745 -0.1796265993676036
0.4657005282963818 0.4440187503587371 -0.1796265993676036
0.4294299738405006 0.4932199091721233 -0.1796265993676036
0.4054623245014686 0.491420504682244 -0.1796265993676036
0.36822929787658193 0.4302407520263474 -0.1796265993676036
0.3096754203774278 0.44612154281493327 -0.1796265993676036
0.2304388528986724 0.4577967486911271 -0.1796265993676036
0.30523967907679517 0.5129087420206864 -0.1796265993676036
0.36822929787658193 0.5680311970042569 -0.1796265993676036
0.4159972100904712 0.5680311970042569 -0.1796265993676036
0.3541374499238643 0.5267495102771419 -0.1788942835868388
0.33872743356577 0.5301286245226711 -0.1788942835868388
0.27638643731466045 0.4685094823983154 -0.1788942835868388
0.28829179957909457 0.448444030005359 -0.1788942835868388
0.407941736502058 0.39695176896358003 -0.1788942835868388
0.3232232623215773 0.421620349121344 -0.1788942835868388
0.41510796949954254 0.4003622681711419 -0.1788942835868388
0.3832313097282503 0.46100847647248133 -0.1788942835868388
0.42184527468257893 0.5034514067948092 -0.1788942835868388
0.419575095762208 0.43874607673723026 -0.1788942835868388
0.38760428110481737 0.46027616069171656 -0.1788942835868388
0.40963652445182813 0.47445170187652164 -0.1788942835868388
0.40762788688173024 0.484745969423273 -0.1788942835868388
0.41268086576900764 0.48449488972701077 -0.1788942835868388
0.4948153114087896 0.4501597412631509 -0.1788942835868388
0.4870423024786714 0.44722001648608056 -0.1788942835868388
0.4781394349153731 0.5000409075872472 -0.1788942835868388
0.4876490784113051 0.45425024798142294 -0.1788942835868388
0.4857450573813165 0.4414451834720493 -0.1788942835868388
0.5224340779976349 0.4956365512486472 -0.1788942835868388
0.4764237236575813 0.4996329030808211 -0.1788942835868388
0.5550221302416701 0.4445836796753272 -0.1788942835868388
0.5562461437609485 0.49265497985553325 -0.1788942835868388
0.4159972100904712 0.3751182970427769 -0.17837120088629246
0.4060167921640476 0.5580403174238223 -0.17753426856541837
0.4922312828680908 0.5112558006869602 -0.17753426856541837
0.41287963719521514 0.3767817000305141 -0.17753426856541837
0.40327583881318496 0.45151975628457125 -0.17753426856541837
0.4657005282963818 0.4440187503587371 -0.17753426856541837
0.4294299738405006 0.4932199091721233 -0.17753426856541837
0.40327583881318496 0.4916192761084515 -0.17753426856541837
0.36417017612034264 0.4577967486911271 -0.17753426856541837
0.2993288445606217 0.4026847553615676 -0.17753426856541837
0.31698811653106523 0.4459332330427367 -0.17753426856541837
0.2442168512310622 0.4440187503587371 -0.17753426856541837
0.3113702083271979 0.51396536907579 -0.17753426856541837
0.31503178723102204 0.5176060246715924 -0.17753426856541837
0.3080015557356796 0.5165912442325324 -0.17753426856541837
0.32413342622052793 0.5232657794915034 -0.17680195278465355
0.3912135517385869 0.5486875987380542 -0.17680195278465355
0.2717414629338092 0.469419646297266 -0.17680195278465355
0.2977177498429391 0.4913263497961457 -0.17680195278465355
0.37726816694202225 0.40234998243321785 -0.17680195278465355
0.35535100178913176 0.4149039672463294 -0.17680195278465355
0.41910432133171627 0.39661699603523026 -0.17680195278465355
0.42100834236170487 0.50007229254928 -0.17680195278465355
0.3793500360901966 0.44557753680636514 -0.17680195278465355
0.3857734916529053 0.44675970370959983 -0.17680195278465355
0.4026899861885731 0.47324861166526505 -0.17680195278465355
0.409218058291391 0.4576084389189304 -0.17680195278465355
0.5224340779976349 0.44751294279838655 -0.17680195278465355
0.5122548886450037 0.4877484641244089 -0.17680195278465355
0.502400010566711 0.44852772323744633 -0.17680195278465355
0.476319107117472 0.49619101891122624 -0.17680195278465355
0.48286810252831186 0.44826618188717327 -0.17680195278465355
0.505381581959825 0.44602738792883506 -0.17680195278465355
0.5067415969812455 0.4965781001096306 -0.17680195278465355
0.5402293514702203 0.4947054640416748 -0.17680195278465355
0.5577107753224781 0.44556707515235416 -0.17680195278465355
0.5558276776005114 0.49394176329887723 -0.17680195278465355
0.3981287050398092 0.3861030337542494 -0.17627887008410723
0.31531425188931705 0.5007209150979575 -0.1754419377632331
0.27177284789584194 0.5155660021394617 -0.1754419377632331
0.2647740013625323 0.4577967486911271 -0.1754419377632331
0.2993288445606217 0.4026847553615676 -0.1754419377632331
0.36822929787658193 0.4302407520263474 -0.1754419377632331
0.37145148731194727 0.5002606023214767 -0.1754419377632331
0.40210413356396113 0.4909497302517523 -0.1754419377632331
0.4817487055491428 0.4732276883572432 -0.1754419377632331
0.47845328453570085 0.43425802716654305 -0.1754419377632331
0.3964862253600938 0.44761755933849573 -0.1754419377632331
0.41310979358345556 0.3751182970427769 -0.1754419377632331
0.5060197428544916 0.5051566563985901 -0.1754419377632331
0.39976072306551375 0.5680311970042569 -0.1754419377632331
0.3475256845889589 0.5310178651135998 -0.17470962198246826
0.41335041162570685 0.5540335039376376 -0.17470962198246826
0.27224362232633365 0.4752781725433848 -0.17470962198246826
0.27380240877396167 0.46663684633035973 -0.17470962198246826
0.27733844782965483 0.47296614700697004 -0.17470962198246826
0.4184975453990826 0.387442125467648 -0.17470962198246826
0.3820491428250156 0.3957486787523234 -0.17470962198246826
0.37947557593832765 0.48481920100134956 -0.17470962198246826
0.38058451126348597 0.4987750474519251 -0.17470962198246826
0.4216046566403277 0.4431190481137975 -0.17470962198246826
0.4123251695326361 0.5014532308787222 -0.17470962198246826
0.40251213807038727 0.48069730932104454 -0.17470962198246826
0.40251213807038727 0.48069730932104454 -0.17470962198246826
0.5122548886450037 0.4877484641244089 -0.17470962198246826
0.502400010566711 0.44852772323744633 -0.17470962198246826
0.476319107117472 0.49619101891122624 -0.17470962198246826
0.48286810252831186 0.44826618188717327 -0.17470962198246826
0.505381581959825 0.44602738792883506 -0.17470962198246826
0.5067415969812455 0.4965781001096306 -0.17470962198246826
0.5313997154849986 0.4947054640416748 -0.17470962198246826
0.5577107753224781 0.44556707515235416 -0.17470962198246826
0.5558276776005114 0.49394176329887723 -0.17470962198246826
0.3981182433857984 0.3855381044376594 -0.174186539281922
0.5060197428544916 0.5051566563985901 -0.1733496069610479
0.4095632928737516 0.3805897420904913 -0.1733496069610479
0.3964862253600938 0.45671919832800156 -0.1733496069610479
0.4233412912061414 0.4302407520263474 -0.1733496069610479
0.4817487055491428 0.47157474702351687 -0.1733496069610479
0.47521017179231384 0.5091216232687311 -0.1733496069610479
0.3964862253600938 0.49552147305452704 -0.1733496069610479
0.3635320152256761 0.47157474702351687 -0.1733496069610479
0.31575364135777595 0.4426796586453386 -0.1733496069610479
0.31799243531611415 0.4164627536939574 -0.1733496069610479
0.2442168512310622 0.49913074368829663 -0.1733496069610479
0.3268953028794124 0.5431219988042415 -0.1733496069610479
0.3268953028794124 0.49913074368829663 -0.1733496069610479
0.39976072306551375 0.5588144798206308 -0.1733496069610479
0.27142761331348136 0.47347876805350547 -0.17261729118028304
0.2860216206587236 0.49036387762714045 -0.17261729118028304
0.2959497303150926 0.437239598559657 -0.17261729118028304
0.4119694732962647 0.5497756107551905 -0.17261729118028304
0.4068851094469545 0.5435927732347332 -0.17261729118028304
0.39847393962216976 0.470695968086599 -0.17261729118028304
0.3789629548917924 0.47848990032473915 -0.17261729118028304
0.3879181307251452 0.5058575872173222 -0.17261729118028304
0.42638563252332107 0.4400119368725524 -0.17261729118028304
0.39133909158671804 0.5021541616974543 -0.17261729118028304
0.3911193968524886 0.4022244425850867 -0.17261729118028304
0.4103269936165492 0.3874944337377026 -0.17261729118028304
0.525384264428716 0.4947054640416748 -0.17261729118028304
0.511627189404348 0.4547628690279584 -0.17261729118028304
0.4975353414516303 0.44703170671388387 -0.17261729118028304
0.5600646474749366 0.49374299187266957 -0.17261729118028304
0.47892405896619256 0.5002501406674658 -0.17261729118028304
0.4882349310359169 0.4560287291632804 -0.17261729118028304
0.4836527265791312 0.4414765684340821 -0.17261729118028304
0.4051693981891626 0.5622249790281929 -0.1720942084797367
0.4051693981891626 0.3751182970427769 -0.1720942084797367
0.4139467259043297 0.48826108517094424 -0.1712572761588626
0.4657005282963818 0.4440187503587371 -0.1712572761588626
0.42034925815901664 0.4902278761249984 -0.1712572761588626
0.5060197428544916 0.5051566563985901 -0.1712572761588626
0.5037181789720878 0.43602604669438955 -0.1712572761588626
0.3835346976945671 0.3751182970427769 -0.1712572761588626
0.3695370046279477 0.49913074368829663 -0.1712572761588626
0.3250122051574456 0.5018926203471811 -0.1712572761588626
0.39435204794186474 0.5680311970042569 -0.1712572761588626
0.29094905969786977 0.5129087420206864 -0.1712572761588626
0.2304388528986724 0.47157474702351687 -0.1712572761588626
0.31426808648822446 0.4351054211414279 -0.1712572761588626
0.270360524604367 0.4759477184000841 -0.17052496037809778
0.2704860644524981 0.47644987779260844 -0.17052496037809778
0.2704860644524981 0.47644987779260844 -0.17052496037809778
0.2971842054883818 0.4468433969416872 -0.17052496037809778
0.37817833084097285 0.547861128071191 -0.17052496037809778
0.41381072440218775 0.5563559911280631 -0.17052496037809778
0.3784503338452569 0.45055728411556606 -0.17052496037809778
0.42184527468257893 0.5034514067948092 -0.17052496037809778
0.39324311261670664 0.4353355775296684 -0.17052496037809778
0.38253037890951813 0.44956342698452806 -0.17052496037809778
0.41087099962511736 0.3968366907694597 -0.17052496037809778
0.4049497034549331 0.39067477655702415 -0.17052496037809778
0.5122548886450037 0.4547733306819694 -0.17052496037809778
0.49956490232975004 0.4482034119631077 -0.17052496037809778
0.4922835911381454 0.46252541630406574 -0.17052496037809778
0.4781394349153731 0.4431085864597865 -0.17052496037809778
0.5204672870435807 0.4927177497795988 -0.17052496037809778
0.4781394349153731 0.5000409075872472 -0.17052496037809778
0.48805708291773126 0.4584976795098591 -0.17052496037809778
0.38894337281821595 0.5680311970042569 -0.17000187767755148
0.39623514566383156 0.5603732662682589 -0.17000187767755148
0.38894337281821595 0.3751182970427769 -0.17000187767755148
0.39910163886282535 0.5680311970042569 -0.16916494535667737
0.3649129535551184 0.5542427370178561 -0.16916494535667737
0.30239410918582316 0.518924193076969 -0.16916494535667737
0.2304388528986724 0.48535274535590667 -0.16916494535667737
0.30239410918582316 0.4164627536939574 -0.16916494535667737
0.3056581452372321 0.4429307383416008 -0.16916494535667737
0.37846079549926787 0.3873061239655059 -0.16916494535667737
0.3691917700455873 0.4440187503587371 -0.16916494535667737
0.36822929787658193 0.5129087420206864 -0.16916494535667737
0.4687344079595505 0.5064225165339122 -0.16916494535667737
0.4751369402142373 0.48178532133818086 -0.16916494535667737
0.400294267420071 0.45344470062258163 -0.16916494535667737
0.4125553259208765 0.45866506597403395 -0.16916494535667737
0.4922312828680908 0.43522049933554824 -0.16916494535667737
0.3732718151098485 0.5426616860277608 -0.16843262957591254
0.32391373148629843 0.5274295177878521 -0.16843262957591254
0.40024195915001626 0.5524433325279768 -0.16843262957591254
0.2671069502069689 0.46822701774002057 -0.16843262957591254
0.2680066524519085 0.4682374793940314 -0.16843262957591254
0.2570951473185125 0.47157474702351687 -0.16843262957591254
0.40394538466988417 0.39337388329184325 -0.16843262957591254
0.32279433450712935 0.4273324122113098 -0.16843262957591254
0.4014555110152837 0.398929021571645 -0.16843262957591254
0.41835108224292966 0.500773223368012 -0.16843262957591254
0.37168164370018775 0.45086067208188285 -0.16843262957591254
0.39257356676000743 0.4403048631848583 -0.16843262957591254
0.49375868435368603 0.4930943693239922 -0.16843262957591254
0.5003913729966133 0.4947263873496966 -0.16843262957591254
0.4720089056649703 0.4432027413458849 -0.16843262957591254
0.5213669892885203 0.44886249616579593 -0.16843262957591254
0.47892405896619256 0.5002501406674658 -0.16843262957591254
0.48511735814066087 0.4507874405038065 -0.16843262957591254
0.5090536225176603 0.457932750193269 -0.16843262957591254
0.47845328453570085 0.4731753800871886 -0.16790954687536622
0.3727173474472693 0.5680311970042569 -0.16790954687536622
0.29157675893852536 0.5266867403530764 -0.16790954687536622
0.307802784309472 0.42677794454873075 -0.16790954687536622
0.3835346976945671 0.38255653304454545 -0.16790954687536622
0.5037181789720878 0.5071234473526443 -0.16707261455449213
0.4155578206220123 0.4875706160062231 -0.16707261455449213
0.4294299738405006 0.4499191232208996 -0.16707261455449213
0.40632018013036447 0.4577967486911271 -0.16707261455449213
0.3820072962089719 0.5129087420206864 -0.16707261455449213
0.3820072962089719 0.4302407520263474 -0.16707261455449213
0.36822929787658193 0.38557995105370313 -0.16707261455449213
0.3302116472008759 0.4026847553615676 -0.16707261455449213
0.30239410918582316 0.4211914213068961 -0.16707261455449213
0.25799484956345214 0.4302407520263474 -0.16707261455449213
0.28201480717253874 0.5266867403530764 -0.16707261455449213
0.3268953028794124 0.49913074368829663 -0.16707261455449213
0.32569221266815596 0.5404647386854662 -0.16707261455449213
0.36822929787658193 0.5663677940165197 -0.16707261455449213
0.35253681686019256 0.5366566966254891 -0.1663402987737273
0.33115319606185933 0.5216546847738209 -0.1663402987737273
0.2663432494641713 0.4695974944154519 -0.1663402987737273
0.26617586299999646 0.47157474702351687 -0.1663402987737273
0.28975643114062427 0.44475106613950205 -0.1663402987737273
0.2991300731344142 0.44300396991967733 -0.1663402987737273
0.39803455015371086 0.39448281861700135 -0.1663402987737273
0.33581909375073243 0.4190153972726234 -0.1663402987737273
0.4033176854292287 0.3967111509213286 -0.1663402987737273
0.41967971230231726 0.5004279887856514 -0.1663402987737273
0.3736379730002309 0.44899849766793803 -0.1663402987737273
0.3918203276712207 0.4402734782228255 -0.1663402987737273
0.49120604077502006 0.48382534387031156 -0.1663402987737273
0.4972842617553682 0.4970070279240785 -0.1663402987737273
0.4720089056649703 0.4432027413458849 -0.1663402987737273
0.4831191822245741 0.5017043105749844 -0.1663402987737273
0.4861426002337316 0.4660300703977259 -0.1663402987737273
0.4962590196622973 0.46091432158638296 -0.1663402987737273
0.5050258857234536 0.48330226116976516 -0.1663402987737273
0.34567397182902504 0.5542427370178561 -0.16581721607318098
