0.17374195719523663 0.42713197565706157 -0.139699060007127
-0.025392193873038822 0.36377747209070316 -0.139699060007127
-0.1710077003761258 0.3656531909324823 -0.139699060007127
0.2081581317647946 0.3726801376382516 -0.13904582458959203
0.41426323793162206 0.4307341023880402 -0.13904582458959203
0.40754424506554787 0.4251256097317755 -0.13904582458959203
0.28983122282574164 0.3062554276094786 -0.13904582458959203
0.09247013931934686 0.302746620223862 -0.13904582458959203
0.07927478388513994 0.44900603020994767 -0.13904582458959203
0.27872622072764675 0.4499298917290329 -0.13904582458959203
0.032083190935504546 0.28385878472256454 -0.13904582458959203
0.5358116852658125 0.4529627704533026 -0.13904582458959203
-0.1494882593356157 0.38709797649670247 -0.13904582458959203
0.2682557901780144 0.28676101636332707 -0.13904582458959203
0.22583281577638442 0.44736360973157396 -0.13904582458959203
-0.12363880067030229 0.37275479311454124 -0.13904582458959203
0.1366101896756402 0.2752640730147112 -0.13904582458959203
0.1402029844720826 0.2800886831699339 -0.13904582458959203
0.2034735006276151 0.4762832748593019 -0.13904582458959203
0.533562689042585 0.26484030213775983 -0.13904582458959203
0.08937193705332366 0.48050130926967066 -0.13904582458959203
0.302569313467674 0.4851486126687054 -0.13904582458959203
0.3110053822884116 0.48793886109503354 -0.13904582458959203
0.6642937599604101 0.3968218522834377 -0.13904582458959203
0.5415508250055844 0.4494912908058309 -0.13904582458959203
0.7139396516930697 0.44176444900984546 -0.13783267309988417
0.46071760805289663 0.23045212337181037 -0.13783267309988417
0.5131910759500291 0.32878271757989974 -0.13783267309988417
0.4504618119975973 0.46398378514057154 -0.13783267309988417
0.17314471338491885 0.439394137637647 -0.13783267309988417
-0.03689846915619101 0.3801643491362953 -0.13783267309988417
0.29501044649334046 0.4562662752791224 -0.13717943768234916
0.07404890054485994 0.4663820923163786 -0.13717943768234916
0.13965240033444598 0.2963449131320191 -0.13717943768234916
0.296382240870164 0.28597713386228507 -0.13717943768234916
0.09708011498023669 0.47245718169945405 -0.13717943768234916
0.14162143852158718 0.2835321670137969 -0.13717943768234916
0.2996390860233028 0.4684257859798095 -0.13717943768234916
0.029544904741654224 0.45412926227032935 -0.13717943768234916
0.10011299370450635 0.28636907511280607 -0.13717943768234916
-0.15462082333053362 0.3873686025982528 -0.13717943768234916
0.2953837238747891 0.47660989256806935 -0.13717943768234916
-0.13845791271381044 0.4742022534577261 -0.13717943768234916
0.2951504255113837 0.27374296768530826 -0.13717943768234916
0.5408322660462959 0.32661770876749807 -0.13717943768234916
0.09147162232397195 0.278959519091052 -0.13717943768234916
-0.15812963071615008 0.4704694796432405 -0.13717943768234916
-0.14717393957063463 0.275040106585842 -0.13717943768234916
0.6665334242491016 0.40327021904796173 -0.13717943768234916
0.546328775488126 0.47674987158611254 -0.13717943768234916
0.4407939278180793 0.4363145992406963 -0.13717943768234916
0.44263231892171356 0.44193242383149733 -0.13717943768234916
0.41137967015993193 0.4042127444361194 -0.13717943768234916
-0.03942742341550507 0.32095322450401603 -0.13717943768234916
0.6279085472037107 0.5032152379308162 -0.13596628619264134
0.4563222668863397 0.439394137637647 -0.13596628619264134
0.4009372354139082 0.32145714896897165 -0.13596628619264134
-0.010097153168183739 0.35336303314828804 -0.13596628619264134
0.22217469743818846 0.30536889382853827 -0.13531305077510633
0.025765471254487582 0.30101088040012625 -0.13531305077510633
0.025345534200357928 0.28321488123956573 -0.13531305077510633
0.5334600377626865 0.4478582022619934 -0.13531305077510633
-0.14489694754379837 0.3943022299586599 -0.13531305077510633
0.16565116995233886 0.28628508770198013 -0.13531305077510633
0.38539956441111156 0.48052930507327934 -0.13531305077510633
0.06695663029733707 0.47049747544684917 -0.13531305077510633
0.21124700209628156 0.4515256525347256 -0.13531305077510633
-0.15656186571406616 0.38387845908170853 -0.13531305077510633
0.2953370642021081 0.4769365102768369 -0.13531305077510633
-0.1551527435990977 0.46648474359627695 -0.13531305077510633
0.35362432731530213 0.26761188669501557 -0.13531305077510633
0.5382939798524454 0.3101375123765437 -0.13531305077510633
0.07227583298297927 0.27935146034157304 -0.13531305077510633
-0.16029463952855177 0.3681168216500428 -0.13531305077510633
-0.14728592278506922 0.2750681023894507 -0.13531305077510633
0.6155344020086907 0.30676868400897045 -0.13531305077510633
0.5465154141788502 0.4466170549686768 -0.13531305077510633
0.41596165001721325 0.4310700520313439 -0.13531305077510633
0.40497796306808903 0.4248549836302253 -0.13531305077510633
0.20630107679208798 0.3682194729299411 -0.13531305077510633
-0.07307837935309366 0.3546041804416045 -0.13531305077510633
0.7385199672614581 0.3387025639918955 -0.13409989928539848
0.5240441158156464 0.45686351908944 -0.13409989928539848
0.3877325480451651 0.2500958455705414 -0.13409989928539848
-0.023516475031259823 0.3803136600888748 -0.13409989928539848
0.2167901712107929 0.3056115241264798 -0.13344666386786347
0.02290989928640592 0.30347451111768675 -0.13344666386786347
0.030394110784449795 0.28193640620810434 -0.13344666386786347
0.5285141124584929 0.4467850297903287 -0.13344666386786347
-0.14928295677581904 0.39380763742824054 -0.13344666386786347
0.1595947444383358 0.30597546957339217 -0.13344666386786347
0.5326294955889633 0.48319823835063663 -0.13344666386786347
0.07611125807736333 0.448455446072311 -0.13344666386786347
0.09212485774150689 0.4542132496811553 -0.13344666386786347
0.2934146856876479 0.4542132496811553 -0.13344666386786347
0.07305038354948502 0.48170512882484234 -0.13344666386786347
0.16020132018318972 0.4779163634031393 -0.13344666386786347
0.5331147561848467 0.49207290809457643 -0.13344666386786347
0.1648019639095434 0.2776157205178371 -0.13344666386786347
0.06693796642826469 0.27372430381623575 -0.13344666386786347
0.5331427519884552 0.31462617288846284 -0.13344666386786347
-0.15510608392641667 0.4737543205999878 -0.13344666386786347
-0.15345433151350682 0.47924149810728184 -0.13344666386786347
0.6850386504344144 0.3755917012135504 -0.13344666386786347
0.3902335065008706 0.4191158438904536 -0.13344666386786347
0.4140019437646082 0.4232592228245326 -0.13344666386786347
0.4509470725934803 0.42937163994575295 -0.13344666386786347
0.1626369550971416 0.3915399773359404 -0.13344666386786347
0.39255715820038783 0.5055762173684784 -0.13298006714105276
0.6893593361246815 0.46634476457823376 -0.13223351237815564
0.49270747964303896 0.47627394292476577 -0.13223351237815564
0.38208672765075546 0.3518792555570299 -0.13223351237815564
0.0010638405371284625 0.3466627041512862 -0.13223351237815564
0.16149845908372346 0.46071760805289663 -0.13158027696062063
0.0072415812001023405 0.46836046243805596 -0.13158027696062063
0.4830115996599125 0.260967549305231 -0.13158027696062063
0.09675349727146923 0.4746221905118558 -0.13158027696062063
0.06928961393139063 0.2904284666360593 -0.13158027696062063
0.46360117582458676 0.26526957112642574 -0.13158027696062063
0.20215769785800897 0.4721398959252227 -0.13158027696062063
-0.12545852790486414 0.37381863365166973 -0.13158027696062063
0.15987470247442226 0.2872929366318913 -0.13158027696062063
-0.1458021451938111 0.38708864456216635 -0.13158027696062063
0.27103670666980606 0.47926016197635424 -0.13158027696062063
0.09414055560132924 0.48203174653360986 -0.13158027696062063
0.5440891111994345 0.3089056970177635 -0.13158027696062063
0.13871920688082462 0.2774944053688664 -0.13158027696062063
0.22796982878517746 0.2734910054528305 -0.13158027696062063
0.48650174317645656 0.4992398338183888 -0.13158027696062063
0.5860734846778624 0.4813038556397851 -0.13158027696062063
0.642167743175046 0.44957527821665677 -0.13158027696062063
0.6020777524074697 0.2906057733922474 -0.13158027696062063
0.5935390323068338 0.29007385312368317 -0.13158027696062063
0.4158683306718509 0.32467666638396553 -0.13158027696062063
0.38660338396628313 0.33086373898147553 -0.13158027696062063
0.22636473604494864 0.4166615451074292 -0.13158027696062063
0.4166802089765017 0.5086650876999653 -0.13111368023380993
0.7508101250456523 0.3680235023046806 -0.13036712547091278
0.45451187158631423 0.45169362735637747 -0.13036712547091278
0.41185559882127887 0.24590580696378117 -0.13036712547091278
-0.023516475031259823 0.3902335065008704 -0.13036712547091278
0.21360798153394375 0.3039131120408888 -0.1297138900533778
0.02572814351634268 0.2994431153980422 -0.1297138900533778
0.5307351128781118 0.31030548719819556 -0.1297138900533778
0.02782782878699083 0.4715426521149051 -0.1297138900533778
0.1500481754077887 0.3080938187131128 -0.1297138900533778
0.5328441300832966 0.44879139571561477 -0.1297138900533778
0.09769602265962686 0.4607735996601139 -0.1297138900533778
0.02050226017606269 0.3075059068373313 -0.1297138900533778
0.09309537893327316 0.46820181955094037 -0.1297138900533778
0.29487046747529727 0.46698866806123257 -0.1297138900533778
0.5376220805658379 0.31415024422711585 -0.1297138900533778
0.5341879286565112 0.26140615022843305 -0.1297138900533778
0.2712326772950666 0.4819010994501029 -0.1297138900533778
0.1372540931586389 0.4802680109062654 -0.1297138900533778
0.0029862190515886227 0.47992272932842545 -0.1297138900533778
-0.15498476877744585 0.3609498959262302 -0.1297138900533778
0.024757622324576407 0.27662653545699845 -0.1297138900533778
0.23076940914604172 0.27353766512551153 -0.1297138900533778
0.2682277943744057 0.27353766512551153 -0.1297138900533778
0.019279776751818623 0.2742562240848 -0.1297138900533778
0.023264512798782163 0.4811078850145247 -0.1297138900533778
0.2235651556840844 0.481733124628451 -0.1297138900533778
0.6274886101495812 0.2979966655449291 -0.1297138900533778
0.6709660931538033 0.3330194158593411 -0.1297138900533778
0.5517226336500579 0.47660989256806935 -0.1297138900533778
0.3188068795606869 0.3351004372609169 -0.1297138900533778
0.40482865211550956 0.33424189928358505 -0.1297138900533778
0.4048379840500458 0.42895170289162327 -0.1297138900533778
0.16533388417810752 0.3898135694467409 -0.1297138900533778
0.43116337137670613 0.24523390767717373 -0.12924729332656706
0.6893593361246815 0.439394137637647 -0.12850073856366995
0.5172877952114274 0.40252366428506464 -0.12850073856366995
0.17314471338491885 0.4315739764962995 -0.12850073856366995
-0.027417223667397433 0.3181629760776879 -0.12850073856366995
0.13972705581073566 0.4610442257616641 -0.12784750314613494
0.01940109190078946 0.2815164691539747 -0.12784750314613494
0.22764321107641 0.2872929366318913 -0.12784750314613494
-0.14868571296550126 0.36533590515825093 -0.12784750314613494
0.5420827452741485 0.3089150289522996 -0.12784750314613494
0.06694729836280096 0.4773377834618941 -0.12784750314613494
0.09249813512295552 0.3043237171604823 -0.12784750314613494
0.5329934410358759 0.3070299781759844 -0.12784750314613494
0.14324519513088851 0.45017252202697444 -0.12784750314613494
0.5432679009602477 0.26712662609913235 -0.12784750314613494
0.350442137638453 0.2661747687764385 -0.12784750314613494
0.3533257054101433 0.48893737809040844 -0.12784750314613494
0.27473215274614693 0.478158993701081 -0.12784750314613494
0.09387926143431519 0.47845761560623984 -0.12784750314613494
-0.15310904993566685 0.4709454083045873 -0.12784750314613494
0.031373963910752325 0.2740229257213947 -0.12784750314613494
0.20829811078283783 0.2765798757843174 -0.12784750314613494
0.5111660461556709 0.25210221149582746 -0.12784750314613494
0.5115393235371193 0.24850941669938492 -0.12784750314613494
0.5517133017155216 0.30755256651001234 -0.12784750314613494
0.5559779957985714 0.44773688711302256 -0.12784750314613494
0.42254999579978036 0.43532541417985765 -0.12784750314613494
0.40712430801141836 0.42604013931632445 -0.12784750314613494
0.4100452035212533 0.4201330247549009 -0.12784750314613494
-0.03488277129636879 0.3186389047390349 -0.12784750314613494
0.5664484263482039 0.5131444162773481 -0.12663435165642709
0.5156360427985173 0.3164925597957057 -0.12663435165642709
0.4926421561012854 0.5159439966382124 -0.12663435165642709
-0.03878351993250626 0.3295292723427969 -0.12663435165642709
0.15520873520631512 0.3025319857295291 -0.1259811162388921
0.015547002937332879 0.30325987662335385 -0.1259811162388921
0.15515274359909784 0.27762505245237334 -0.1259811162388921
0.2875448988643691 0.47842961980263116 -0.1259811162388921
-0.09404723625596705 0.2837747973117386 -0.1259811162388921
0.23088139236047628 0.2804153008787015 -0.1259811162388921
0.2758893126286376 0.4517216231599861 -0.1259811162388921
0.012710094838323867 0.44909934955530983 -0.1259811162388921
0.08439801594552147 0.4523468627739124 -0.1259811162388921
0.2757586655451305 0.4702175174107627 -0.1259811162388921
0.5477285656685582 0.27190457658167405 -0.1259811162388921
0.3745931842181755 0.2650082769594117 -0.1259811162388921
-0.14842441879848736 0.2835788266864781 -0.1259811162388921
0.27230584976673133 0.2731830516131354 -0.1259811162388921
0.14118283759838515 0.48158381367587155 -0.1259811162388921
0.41161296852333734 0.2534273461999698 -0.1259811162388921
0.33075175576704097 0.2618914108243161 -0.1259811162388921
0.5529264532052294 0.4866043944563549 -0.1259811162388921
0.5513960159412904 0.30528490641771233 -0.1259811162388921
0.4139366202228546 0.431331346198358 -0.1259811162388921
0.44052330171652915 0.4406446168654997 -0.1259811162388921
0.39852959630356494 0.41055845992074513 -0.1259811162388921
-0.03488277129636879 0.3186389047390349 -0.1259811162388921
0.640198704987905 0.2696929080965913 -0.12476796474918424
0.49270747964303896 0.46634476457823376 -0.12476796474918424
0.176373562734449 0.439394137637647 -0.12476796474918424
-0.040575251363459464 0.3277375409118438 -0.12476796474918424
-0.15905349223523532 0.308364444814663 -0.12411472933164924
-0.07084804699893843 0.35683451279575973 -0.12411472933164924
0.17899583633912514 0.4310420562277353 -0.12411472933164924
0.4404579781747756 0.31923614854935267 -0.12411472933164924
0.4046886730974663 0.33004252874228873 -0.12411472933164924
0.2940585891706467 0.2978473545923496 -0.12411472933164924
0.08630173059090925 0.2803219815333393 -0.12411472933164924
0.0944298455719518 0.46257466302560324 -0.12411472933164924
0.2802379941225134 0.4535506823290841 -0.12411472933164924
0.14709928409434497 0.2732763709584976 -0.12411472933164924
0.2249369500609078 0.48203174653360986 -0.12411472933164924
0.539833749050921 0.31775237095809455 -0.12411472933164924
0.5317336298734867 0.31419690389979693 -0.12411472933164924
0.2775317331070113 0.4816957968903061 -0.12411472933164924
0.22346250440418594 0.27766238019051825 -0.12411472933164924
0.07906948132534317 0.2711860176223856 -0.12411472933164924
0.29566368191087555 0.4854099068357195 -0.12411472933164924
0.08632972639451789 0.47950279227429576 -0.12411472933164924
0.5425400100664229 0.4500885346161485 -0.12411472933164924
0.14529822072885565 0.30535022995946587 -0.12411472933164924
0.6104858254245988 0.2791928174544574 -0.12411472933164924
0.09468180780442959 0.47557404783454965 -0.12411472933164924
0.5597201015475934 0.2711300260151683 -0.12411472933164924
0.5543542391892701 0.4868656886233688 -0.12411472933164924
0.7631002828298462 0.3902335065008704 -0.1229015778419414
0.5152814292861413 0.3042024020115115 -0.1229015778419414
0.44353751657172613 0.5172038078006013 -0.1229015778419414
-0.06038694838384219 0.37794334871667634 -0.1229015778419414
0.543230573222103 0.49576835417091725 -0.1222483424244064
0.4045300302103507 0.26056627612017375 -0.1222483424244064
0.5423347075066264 0.49574969030184474 -0.1222483424244064
0.5456102165288376 0.3089150289522996 -0.1222483424244064
0.3446750020950726 0.4959736567307139 -0.1222483424244064
0.7053449399852164 0.3736973185026989 -0.1222483424244064
0.5545408778799945 0.3082617935347647 -0.1222483424244064
0.6637151800191646 0.4164562425476324 -0.1222483424244064
0.4404113185020946 0.3191894888766715 -0.1222483424244064
0.3106601007105718 0.4154483936177214 -0.1222483424244064
0.29501044649334046 0.2868356718396168 -0.1222483424244064
0.2095019303380095 0.3031478934089193 -0.1222483424244064
0.07218251363761707 0.2818244229936698 -0.1222483424244064
0.0010731724716647214 0.3546041804416045 -0.1222483424244064
-0.13030180192915924 0.38621144271576213 -0.1222483424244064
0.09179824003273941 0.45243085018473833 -0.1222483424244064
0.18135681577678733 0.435297418376249 -0.1222483424244064
0.16554851867244053 0.39032682584623263 -0.1222483424244064
0.4504618119975973 0.5172971271459634 -0.12178174569759569
0.17158628031737105 0.3902335065008704 -0.12103519093469854
0.4566395526605709 0.32878271757989974 -0.12103519093469854
0.46011103230804273 0.5190701947078441 -0.12103519093469854
0.6033188997007863 0.23045212337181037 -0.12103519093469854
0.2081581317647946 0.3726801376382516 -0.12038195551716356
0.18084355937729563 0.4355120528705819 -0.12038195551716356
0.08021730927329757 0.47970809483409255 -0.12038195551716356
-0.14189206462313736 0.3889736953384816 -0.12038195551716356
-0.03719709106134983 0.3231835568581713 -0.12038195551716356
0.06935493747314418 0.29030715148708847 -0.12038195551716356
0.2076822031034478 0.2864903902617769 -0.12038195551716356
0.28901934452109096 0.30471565841100334 -0.12038195551716356
0.5527771422526501 0.27937945614518167 -0.12038195551716356
0.5298952387698528 0.44194175576603356 -0.12038195551716356
0.41407659924089796 0.25783201930106303 -0.12038195551716356
0.5337773235369179 0.44546922702072256 -0.12038195551716356
0.5925218514423863 0.48792952916049726 -0.12038195551716356
0.5577697272295247 0.27109269827702337 -0.12038195551716356
0.5554180797263986 0.44664505077228545 -0.12038195551716356
0.4164002509404153 0.4325071699499209 -0.12038195551716356
0.4176880579064129 0.42783187074727763 -0.12038195551716356
0.41093173730219373 0.4046513453593214 -0.12038195551716356
-0.037038448174234226 0.3803136600888748 -0.11916880402745571
0.49270747964303896 0.2796127545085869 -0.11916880402745571
0.38208672765075546 0.3164925597957057 -0.11916880402745571
0.6893593361246815 0.2895419328551189 -0.11916880402745571
0.5465060822443142 0.26051028451295644 -0.11851556860992071
0.5257611917703098 0.2550231070056625 -0.11851556860992071
0.4076468963454463 0.4975134259291892 -0.11851556860992071
0.4568448552203678 0.24623242467254866 -0.11851556860992071
0.5226349937006779 0.3221383801901152 -0.11851556860992071
0.5534023818665762 0.4434535291609002 -0.11851556860992071
0.6400493940353256 0.4424550121655253 -0.11851556860992071
0.35893419806640803 0.4172121292450658 -0.11851556860992071
0.39472216701278956 0.3295572681464055 -0.11851556860992071
0.30883104154147384 0.4263480931560195 -0.11851556860992071
0.20857806881892427 0.2835414989483332 -0.11851556860992071
0.15485412169393903 0.30415574233883047 -0.11851556860992071
0.007157593789276409 0.27852091816784996 -0.11851556860992071
-0.137216765420494 0.3687420612639691 -0.11851556860992071
0.02768784976894761 0.45643425010077426 -0.11851556860992071
0.16448467813531206 0.46295727234158796 -0.11851556860992071
0.22897767771508865 0.45643425010077426 -0.11851556860992071
0.28592114225506793 0.45081642550997325 -0.11851556860992071
0.7016494939088758 0.4148138220692587 -0.11730241712021286
0.4807999311748295 0.23651788082034966 -0.11730241712021286
0.5360263197601454 0.46398378514057154 -0.11730241712021286
0.16576315316677342 0.379847063362064 -0.11730241712021286
-0.051372299621859296 0.37794334871667634 -0.11730241712021286
0.5342812480018735 0.4417737809443817 -0.11664918170267786
0.4895159580316538 0.5049229819509433 -0.11664918170267786
0.42254066386524414 0.2560962794773271 -0.11664918170267786
0.5339079706204247 0.43797568358814254 -0.11664918170267786
0.5333947142209331 0.5081238354968648 -0.11664918170267786
0.5551567855593846 0.3125171556832784 -0.11664918170267786
0.5588522316357254 0.4917369584512727 -0.11664918170267786
0.41359133864501463 0.3330007519902686 -0.11664918170267786
0.41886388165797567 0.43017418631586735 -0.11664918170267786
0.2883287813654111 0.29993770792846164 -0.11664918170267786
0.2320758799811117 0.28866473100871487 -0.11664918170267786
0.07787499370470774 0.30306390599809335 -0.11664918170267786
-4.665967268102872E-5 0.3534843482972589 -0.11664918170267786
-0.13492110952458533 0.38928164917817665 -0.11664918170267786
0.0882801007125867 0.48033333444801884 -0.11664918170267786
0.22870705161353846 0.46507562148130865 -0.11664918170267786
0.2944971900938488 0.4605869609693895 -0.11664918170267786
0.47458486277371087 0.5254345740615424 -0.11618258497586714
0.16093854301155072 0.39770838606437803 -0.11618258497586714
-0.06585546202206384 0.3656531909324823 -0.11618258497586714
0.5787385841323979 0.5031405824545264 -0.11543603021297001
0.5291953436796366 0.32878271757989974 -0.11543603021297001
0.5373701183333602 0.29959242635062167 -0.11543603021297001
0.22189473940210203 0.4205249660054219 -0.11543603021297001
-0.06217867981479539 0.341072875364094 -0.11543603021297001
0.547765893406703 0.2587092211474671 -0.11478279479543502
0.44453603356710103 0.504036448170003 -0.11478279479543502
0.49765340494723254 0.2506837574463229 -0.11478279479543502
0.5419520981906416 0.49436856399048507 -0.11478279479543502
0.647393626515326 0.4567142081368607 -0.11478279479543502
0.5616424800620535 0.26970224003112747 -0.11478279479543502
0.562454358366704 0.45242151825020205 -0.11478279479543502
0.4031768997025997 0.33293542844851515 -0.11478279479543502
0.44664505077228545 0.32263297272053454 -0.11478279479543502
0.41079175828415054 0.33356066806244145 -0.11478279479543502
0.07921879227792264 0.45251483759556427 -0.11478279479543502
0.18135681577678733 0.435297418376249 -0.11478279479543502
0.16077990012443497 0.3870699806930938 -0.11478279479543502
0.2891406596700618 0.3030359101944847 -0.11478279479543502
0.14917097356138448 0.2999750356666064 -0.11478279479543502
0.07757637179954892 0.27913682584724014 -0.11478279479543502
-0.032577783465923875 0.3882551363791931 -0.11478279479543502
0.49871724548436097 0.23655520855849457 -0.11431619806862431
0.17795065967106918 0.37794334871667634 -0.11431619806862431
-0.02724924884574557 0.3164925597957057 -0.11431619806862431
0.6279085472037107 0.25267145950253644 -0.11356964330572716
0.49871724548436097 0.5199847242923932 -0.11356964330572716
0.38208672765075546 0.45169362735637747 -0.11356964330572716
0.0010638405371284625 0.341072875364094 -0.11356964330572716
0.7039731456083931 0.3819654125017847 -0.11291640788819217
0.45210423247597087 0.5033458850143231 -0.11291640788819217
0.4562849391481949 0.25235417372830526 -0.11291640788819217
0.4868190289506878 0.5105781342798892 -0.11291640788819217
0.6372498136744612 0.29026049181440744 -0.11291640788819217
0.49521777003328066 0.25772003608662847 -0.11291640788819217
0.6765932496791405 0.3467560234966484 -0.11291640788819217
0.4133207125434645 0.3204399681045242 -0.11291640788819217
0.31607262274157605 0.32926797817578296 -0.11291640788819217
0.40584583297995697 0.43120069911485087 -0.11291640788819217
0.22209071002736253 0.3024853260568481 -0.11291640788819217
0.006373711288234384 0.2843813730565925 -0.11291640788819217
-0.1466420193020704 0.3670623130474506 -0.11291640788819217
0.08911064288630975 0.4576940612631632 -0.11291640788819217
0.21921647419020848 0.4561169643265429 -0.11291640788819217
0.2858651506478506 0.45246817792288324 -0.11291640788819217
0.3825719882466387 0.3902335065008704 -0.11170325639848432
0.49871724548436097 0.23045212337181037 -0.11170325639848432
0.6033188997007863 0.5254345740615424 -0.11170325639848432
0.5519745958825355 0.2575054015922954 -0.11105002098094933
0.5449103214386213 0.25602162400103745 -0.11105002098094933
0.495759022236381 0.5022167209354413 -0.11105002098094933
0.6852252891251385 0.41745475954300737 -0.11105002098094933
0.4909530759502308 0.23818829710233203 -0.11105002098094933
0.5600000595836799 0.4895252899661898 -0.11105002098094933
0.7019854435521794 0.38139616449507563 -0.11105002098094933
0.4080388375959673 0.3318249282387057 -0.11105002098094933
0.44609446663464886 0.3145328535431006 -0.11105002098094933
0.4106891070042521 0.3332433822882101 -0.11105002098094933
0.13717943768234922 0.4647490037725412 -0.11105002098094933
0.20437869827762797 0.3731094066269174 -0.11105002098094933
0.2314506403671854 0.2912310130061737 -0.11105002098094933
0.030151480486508262 0.2911283617262754 -0.11105002098094933
-0.1554047058315755 0.37298809147794654 -0.11105002098094933
0.5295779529956214 0.5254345740615424 -0.10983686949124147
0.45582767435592036 0.4379196919809253 -0.10983686949124147
0.640198704987905 0.2796127545085869 -0.10983686949124147
0.5532064112413159 0.4985865984008539 -0.10918363407370647
0.46801518086021626 0.24752023163854625 -0.10918363407370647
0.48614712966408036 0.5106807855597875 -0.10918363407370647
0.5561553025547595 0.2695435971440118 -0.10918363407370647
0.48653907091460136 0.49928649349106985 -0.10918363407370647
0.6828456458184039 0.42710397985345294 -0.10918363407370647
0.6790288845930924 0.3401116861068638 -0.10918363407370647
0.38660338396628313 0.33440054217070075 -0.10918363407370647
0.4220647352038973 0.43579201090666836 -0.10918363407370647
0.31240517246884386 0.3256845153138767 -0.10918363407370647
0.0849672639522306 0.45720880066728004 -0.10918363407370647
0.21928179773196205 0.4108757456949763 -0.10918363407370647
0.2279604968506412 0.29701681241862654 -0.10918363407370647
-0.06771251699477046 0.3546041804416045 -0.10918363407370647
0.5131910759500291 0.5254345740615424 -0.10871703734689578
0.38208672765075546 0.41141699789807684 -0.10797048258399863
0.5276649064156975 0.23045212337181037 -0.10797048258399863
0.6893593361246815 0.46634476457823376 -0.10797048258399863
0.6444540671364185 0.3015054729305456 -0.10731724716646364
0.5330587645776295 0.3136836475003052 -0.10731724716646364
0.489049361304843 0.24098787746319628 -0.10731724716646364
0.5269370155218728 0.3179856693214999 -0.10731724716646364
0.506864024334476 0.5159626605072848 -0.10731724716646364
0.5652632706621047 0.30606878891875433 -0.10731724716646364
0.5605693075903888 0.494452551401311 -0.10731724716646364
0.4148418178728675 0.3218957498921737 -0.10731724716646364
0.4458705002057797 0.31214387830182977 -0.10731724716646364
0.3133943575296825 0.32532056986696434 -0.10731724716646364
0.283616154424623 0.30238267477694974 -0.10731724716646364
-0.13466914729210755 0.36946062022325754 -0.10731724716646364
0.59354836424137 0.5008542584931539 -0.10610409567675577
0.5276649064156975 0.23045212337181037 -0.10610409567675577
0.3823386898832333 0.36602646831393076 -0.10610409567675577
0.5627436483373267 0.3068620033543325 -0.10545086025922078
0.5310710625214156 0.3134783449405084 -0.10545086025922078
0.5159066689000674 0.2449352857720149 -0.10545086025922078
0.5326481594580359 0.3095682643698347 -0.10545086025922078
0.4519549215233915 0.49804534619775354 -0.10545086025922078
0.5461887964700827 0.3374240889604342 -0.10545086025922078
0.3197027452761633 0.3390851733078803 -0.10545086025922078
0.4399727175788922 0.31876955182254196 -0.10545086025922078
0.40580850524181206 0.323743472930344 -0.10545086025922078
0.17430187326740937 0.3926691414148224 -0.10545086025922078
-0.1331760377663133 0.3737533101099162 -0.10545086025922078
0.38208672765075546 0.40400744187632276 -0.10423770876951294
0.5276649064156975 0.23594863281364067 -0.10423770876951294
0.6770691783404873 0.46398378514057154 -0.10423770876951294
0.7110654158559158 0.3763569198455199 -0.10358447335197794
0.531211041539459 0.31342235333329116 -0.10358447335197794
0.5327974704106152 0.446365092736199 -0.10358447335197794
0.5029446118292661 0.5161119714598643 -0.10358447335197794
0.7139769794312147 0.3658864892958875 -0.10358447335197794
0.546328775488126 0.33727477800785466 -0.10358447335197794
0.319077505662237 0.34042897188109517 -0.10358447335197794
0.43991672597167497 0.31873222408439705 -0.10358447335197794
0.4052952488423202 0.324042094835503 -0.10358447335197794
0.2096605732251251 0.39070010322768123 -0.10358447335197794
0.525425242127006 0.5243707335244139 -0.10311787662516722
0.6416171590374093 0.2796127545085869 -0.10237132186227009
0.47448221149381253 0.439394137637647 -0.10237132186227009
0.39196924632460634 0.4154483936177214 -0.1017180864447351
0.41425390599708584 0.3229875862329108 -0.1017180864447351
0.3136649836312328 0.4275332488421187 -0.1017180864447351
0.5600373873218246 0.44404144103668175 -0.1017180864447351
0.513443038182507 0.507787885853561 -0.1017180864447351
0.48853610490535115 0.2449912773792322 -0.1017180864447351
0.4812385320980318 0.5047830029329002 -0.1017180864447351
0.7058861921883168 0.40397011413817785 -0.1017180864447351
0.5693039983162853 0.262059385645968 -0.1017180864447351
0.5681468384337949 0.44733561392796545 -0.1017180864447351
0.5172877952114274 0.40252366428506464 -0.10050493495502724
0.6975434427129412 0.32878271757989974 -0.10050493495502724
0.38660338396628313 0.3386745681882869 -0.09985169953749225
0.4398234066263129 0.3186389047390349 -0.09985169953749225
0.4059671481289277 0.3153447318477513 -0.09985169953749225
0.5651699513167426 0.30903634410127045 -0.09985169953749225
0.490533138896101 0.24568184053491204 -0.09985169953749225
0.5353170927353932 0.5050256332308417 -0.09985169953749225
0.7167952236611513 0.3746398438908565 -0.09985169953749225
0.5236055148924443 0.23579932186106117 -0.09985169953749225
0.572122242546222 0.48818149139297506 -0.09985169953749225
0.5701998640317619 0.3037731330228457 -0.09985169953749225
0.6279085472037107 0.25267145950253644 -0.09863854804778441
0.3825719882466387 0.41141699789807684 -0.09863854804778441
0.319077505662237 0.387947182539498 -0.0979853126302494
0.41552304909401117 0.32138249349268183 -0.0979853126302494
0.45001387913985896 0.3256285237066594 -0.0979853126302494
0.5581803323491179 0.25559235501237154 -0.0979853126302494
0.5057441921901301 0.24328353335910494 -0.0979853126302494
0.5492123432598162 0.5027766370076142 -0.0979853126302494
0.7175231145549761 0.3737346462408438 -0.0979853126302494
0.5268343642419745 0.23995203272967647 -0.0979853126302494
0.6823790490915931 0.41491647334915716 -0.0979853126302494
0.7139396516930697 0.45169362735637747 -0.09677216114054155
0.7012668845928907 0.32878271757989974 -0.09677216114054155
0.3823386898832333 0.36602646831393076 -0.09677216114054155
0.4145338640331723 0.4342615736427292 -0.09611892572300655
0.3956833562700197 0.34042897188109517 -0.09611892572300655
0.4050806143479873 0.32345418295972145 -0.09611892572300655
0.5699479017992843 0.27128866890228387 -0.09611892572300655
0.5068360285308674 0.24313422240652557 -0.09611892572300655
0.5657671951270602 0.2691049962208098 -0.09611892572300655
0.5341039412456854 0.45038715652130745 -0.09611892572300655
0.48925466386463967 0.5172877952114271 -0.09611892572300655
0.69983909860885 0.3997427477932728 -0.09611892572300655
0.7631002828298462 0.37794334871667634 -0.09490577423329871
0.5295779529956214 0.42886771548079733 -0.09490577423329871
0.316203269825083 0.33772271086559297 -0.0942525388157637
0.3175470683982979 0.33229152496551634 -0.0942525388157637
0.3571331347009187 0.33130233990467756 -0.0942525388157637
0.41025050608105 0.33361665966965875 -0.0942525388157637
0.5706291330204277 0.44916467309706337 -0.0942525388157637
0.5320322517786458 0.44769022744034154 -0.0942525388157637
0.5003783298318071 0.5157200302093433 -0.0942525388157637
0.6473469668426449 0.46759524380608647 -0.0942525388157637
0.5713196961761077 0.2612288434722449 -0.0942525388157637
0.5656085522399447 0.4378823642427804 -0.0942525388157637
0.6893593361246815 0.2796127545085869 -0.09303938732605585
0.43374831724323737 0.45169362735637747 -0.09303938732605585
0.319077505662237 0.34042897188109517 -0.09238615190852087
0.31584865631270687 0.33320605455006536 -0.09238615190852087
0.4172587889177468 0.32653372135667214 -0.09238615190852087
0.410203846408369 0.4222233780910129 -0.09238615190852087
0.5202180226557986 0.2428262685668305 -0.09238615190852087
0.5313883482956471 0.30700198237237575 -0.09238615190852087
0.5685574435533883 0.45076043390275594 -0.09238615190852087
0.5490816961763091 0.5120525799366111 -0.09238615190852087
0.5774881049045453 0.44939797146046867 -0.09238615190852087
0.5794571430916864 0.28880471002675795 -0.09238615190852087
0.7385199672614581 0.3656531909324823 -0.09117300041881302
0.5172877952114274 0.40252366428506464 -0.09117300041881302
0.20868072009882271 0.37201757028618027 -0.09051976500127801
0.3113599958007879 0.33542705496968434 -0.09051976500127801
0.41532707846875055 0.32119585480195756 -0.09051976500127801
0.315111433484346 0.4319565858122843 -0.09051976500127801
0.6112697079256408 0.4825356709985654 -0.09051976500127801
0.5408042702426871 0.32244633402981027 -0.09051976500127801
0.5654312454837566 0.448016845149109 -0.09051976500127801
0.5106807855597877 0.5191821779222786 -0.09051976500127801
0.586894694917049 0.45307475366773714 -0.09051976500127801
0.6156090574849805 0.5008542584931539 -0.08930661351157017
0.5191075224459891 0.32518992278345726 -0.08930661351157017
0.3825719882466387 0.3444603676007397 -0.08930661351157017
0.41947045740282984 0.4357640151030597 -0.08865337809403517
0.40375547964384495 0.42463101720135615 -0.08865337809403517
0.4089533671805163 0.4323485270628053 -0.08865337809403517
0.5760696508550406 0.30573283927545064 -0.08865337809403517
0.5345238782998148 0.3131050675590599 -0.08865337809403517
0.7234208971818635 0.37797134452028497 -0.08865337809403517
0.6245863785088185 0.27149397146208065 -0.08865337809403517
0.568669426767823 0.4145711917713172 -0.08865337809403517
0.5963666084713066 0.47349302643297386 -0.08865337809403517
0.5571444876155982 0.29190291229278115 -0.08744022660432732
0.5228402962604748 0.39339703230864714 -0.08744022660432732
0.7262298094772639 0.3042024020115115 -0.08744022660432732
0.3162405975632279 0.3376480553893033 -0.08678699118679233
0.31254515148688705 0.4185092681455995 -0.08678699118679233
0.4152244271888522 0.3211025354565955 -0.08678699118679233
0.3151207654188821 0.4319565858122843 -0.08678699118679233
0.6812498850127113 0.3233795274834318 -0.08678699118679233
0.530959079306981 0.5087770709143999 -0.08678699118679233
0.6734110600022913 0.44527325639546206 -0.08678699118679233
0.649567967262264 0.28669569282157353 -0.08678699118679233
0.5880798506031484 0.29723144691295944 -0.08678699118679233
0.60626779101423 0.4152990826651419 -0.08678699118679233
0.5180156861052518 0.35336303314828804 -0.08632039445998162
0.7063154611769829 0.3299398774623903 -0.08557383969708447
0.5315469911827626 0.40568719009284127 -0.08557383969708447
0.20714095090034731 0.3683221242098394 -0.08492060427954948
0.31437421065598503 0.42112220981573956 -0.08492060427954948
0.41891054133065697 0.3199267117050325 -0.08492060427954948
0.449668597562019 0.3253019059978918 -0.08492060427954948
0.5750151422524484 0.25849458665313424 -0.08492060427954948
0.5679415358739982 0.2552377414999954 -0.08492060427954948
0.5605133159831714 0.2567401829603259 -0.08492060427954948
0.533656008387947 0.3889643634039453 -0.08492060427954948
0.5385646059539958 0.5157760218165606 -0.08492060427954948
0.5684827880770985 0.3611925262241718 -0.08492060427954948
0.603570861933264 0.45528642215281984 -0.08492060427954948
0.688463470409205 0.4210008946667688 -0.08492060427954948
0.7385199672614581 0.32878271757989974 -0.08370745278984162
0.5291486840069556 0.4148138220692587 -0.08370745278984162
-0.06966289131283913 0.35177660427713164 -0.08305421737230664
0.32084124128958147 0.4245843575286751 -0.08305421737230664
0.412471506500669 0.32616044397522354 -0.08305421737230664
0.4052112614314943 0.3228942668875486 -0.08305421737230664
0.5371274880354187 0.3130864036899874 -0.08305421737230664
0.5657391993234515 0.3681448174536514 -0.08305421737230664
0.5804929878252063 0.2594091162376832 -0.08305421737230664
0.7186522786338578 0.3623776819102709 -0.08305421737230664
0.6678398950841714 0.4564995736425278 -0.08305421737230664
0.6077235728018793 0.28751690306076044 -0.08305421737230664
0.6893593361246815 0.2796127545085869 -0.08184106588259878
0.5318456130879213 0.40724562316038904 -0.08184106588259878
0.20714095090034731 0.3683221242098394 -0.08118783046506378
0.3125731472904957 0.4185745916873531 -0.08118783046506378
0.41695083507805186 0.32040264036637944 -0.08118783046506378
0.438526267725779 0.3082431296656923 -0.08118783046506378
0.5436878380143773 0.43879689382732934 -0.08118783046506378
0.565888510276031 0.41593365421360445 -0.08118783046506378
0.5986529324326793 0.27412557700129303 -0.08118783046506378
0.6747081989028253 0.30946561308993636 -0.08118783046506378
0.7119239538332476 0.3453002417089989 -0.08118783046506378
0.6056985430075209 0.27519874947295764 -0.08118783046506378
0.7385199672614581 0.3656531909324823 -0.07997467897535594
0.5319855921059647 0.34619610742447554 -0.07997467897535594
0.38208672765075546 0.3164925597957057 -0.07997467897535594
0.41922782710488815 0.4359973134664651 -0.07932144355782095
0.3935183474576179 0.3345591850578164 -0.07932144355782095
0.30878438186879265 0.4247616642848631 -0.07932144355782095
0.3983429576128407 0.3495089441848316 -0.07932144355782095
0.5310430667178071 0.40131051279535684 -0.07932144355782095
0.600211365500227 0.26937562232235995 -0.07932144355782095
0.5577790591640609 0.25516308602370574 -0.07932144355782095
0.5248186663821521 0.23530472933064187 -0.07932144355782095
0.6284404674722751 0.2839147763297818 -0.07932144355782095
0.7385199672614581 0.3656531909324823 -0.07810829206811308
0.3825719882466387 0.3902335065008704 -0.07810829206811308
-0.03600260344071441 0.391082712543666 -0.07745505665057809
0.4494819588712946 0.43076209819164885 -0.07745505665057809
0.5355690549678709 0.45095640452801644 -0.07745505665057809
0.5998100923151697 0.49044915148527507 -0.07745505665057809
0.6125481829571022 0.47229853881233846 -0.07745505665057809
0.5419894259287864 0.5130324330629136 -0.07745505665057809
0.5264237591223809 0.5205539722991023 -0.07745505665057809
0.6410945707033815 0.3123865085997713 -0.07745505665057809
0.7508101250456523 0.4148138220692587 -0.07624190516087025
0.3825719882466387 0.3444603676007397 -0.07624190516087025
0.41263014938778464 0.4290916819096665 -0.07558866974333525
0.5330587645776295 0.44855809735220936 -0.07558866974333525
0.5452182752783166 0.3551640965137774 -0.07558866974333525
0.7186056189611768 0.3638707914360653 -0.07558866974333525
0.6760146697378951 0.30844843222548896 -0.07558866974333525
0.7247366999514696 0.3598673915200294 -0.07558866974333525
0.6326118422099626 0.4269546689008734 -0.07558866974333525
0.6156090574849805 0.5008542584931539 -0.07437551825362741
0.5952187805233524 0.47668454804435917 -0.07437551825362741
0.39928548300099836 0.32139182542721806 -0.07437551825362741
0.4177440495136302 0.4312380268529958 -0.0737222828360924
0.5421200730122935 0.41074509861146935 -0.0737222828360924
0.545498233314403 0.3528684406178687 -0.0737222828360924
0.6895646386844781 0.42975424926173783 -0.0737222828360924
0.713342407882752 0.40724562316038904 -0.0737222828360924
0.6665894158563188 0.4612401963869246 -0.0737222828360924
0.7055689064140855 0.34912633486884687 -0.0737222828360924
0.5827326521138976 0.3656531909324823 -0.07250913134638456
0.7508101250456523 0.4148138220692587 -0.07250913134638456
-0.05362129584508692 0.3734640201392935 -0.07185589592884957
0.44834346285787663 0.4484181183341663 -0.07185589592884957
0.5400017238725728 0.34799717078996484 -0.07185589592884957
0.5366888871122166 0.5132377356227101 -0.07185589592884957
0.6242784246691233 0.4803799941207 -0.07185589592884957
0.6496052950004088 0.4698349080947778 -0.07185589592884957
0.5848696651226908 0.5060708098988976 -0.07185589592884957
0.6865130960911361 0.41905052034870005 -0.07185589592884957
0.584533715479387 0.24274228115600457 -0.07064274443914169
0.5984382979383464 0.46398378514057154 -0.07064274443914169
0.4123315274826258 0.43206856902671886 -0.0699895090216067
0.5379580302091417 0.4432015669284224 -0.0699895090216067
0.5317802895461681 0.4112676869454973 -0.0699895090216067
0.6526101779210697 0.2921455425907227 -0.0699895090216067
0.5344212270199166 0.506864024334476 -0.0699895090216067
0.6280485262217541 0.46507562148130865 -0.0699895090216067
0.6398627553446012 0.46257466302560324 -0.0699895090216067
0.7125398615126375 0.42710397985345294 -0.06877635753189885
0.6033188997007863 0.3042024020115115 -0.06877635753189885
0.38208672765075546 0.3164925597957057 -0.06877635753189885
0.4408219236216878 0.312237197647192 -0.06812312211436386
0.5416441443509464 0.4371171456108107 -0.06812312211436386
0.546076813255648 0.4074042660475046 -0.06812312211436386
0.630624140153749 0.2783716072152705 -0.06812312211436386
0.6805966495951764 0.3095496005007623 -0.06812312211436386
0.7335927058263368 0.36924598572892464 -0.06812312211436386
0.7508101250456523 0.341072875364094 -0.06690997062465602
0.6770691783404873 0.47863492236242794 -0.06690997062465602
0.5204419890846678 0.439394137637647 -0.06690997062465602
0.4120888971846843 0.43659455727678276 -0.06625673520712101
0.42073026856521867 0.3266830323092516 -0.06625673520712101
0.5357370297895226 0.44751292068415344 -0.06625673520712101
0.6369885195074473 0.2817311036483076 -0.06625673520712101
0.5935950239140511 0.4958896693198881 -0.06625673520712101
0.5334507058281505 0.5047923348674362 -0.06625673520712101
0.7262484733463364 0.3763569198455199 -0.06625673520712101
0.7138836600858524 0.32878271757989974 -0.06504358371741317
0.45582767435592036 0.3164925597957057 -0.06504358371741317
0.39905218463759295 0.439394137637647 -0.06504358371741317
0.43889021317269156 0.3177617028926308 -0.06439034829987818
0.5462074603391552 0.34059694670274704 -0.06439034829987818
0.5379860260127505 0.30508893579245183 -0.06439034829987818
0.6494373201787571 0.4661861216911181 -0.06439034829987818
0.6131640906364924 0.2721752026832242 -0.06439034829987818
0.552991776746983 0.24010134368225594 -0.06439034829987818
0.6772464850966754 0.4310887159004163 -0.06439034829987818
0.6893593361246815 0.47627394292476577 -0.06317719681017034
0.6033188997007863 0.37794334871667634 -0.06317719681017034
-0.03458414939120997 0.3896642584941614 -0.06252396139263534
0.4212528568992465 0.4295769425055497 -0.06252396139263534
0.5422693839648728 0.33964508938005317 -0.06252396139263534
0.5467767083458643 0.5128737901757979 -0.06252396139263534
0.6576587545051619 0.45762873772140966 -0.06252396139263534
0.5534117138011125 0.512229886692799 -0.06252396139263534
0.575817688622563 0.4948911523245132 -0.06252396139263534
0.6524888627720992 0.2649616172867307 -0.06131080990292746
0.5866987242917887 0.5131444162773481 -0.06131080990292746
0.5236801703687339 0.4294182996184341 -0.06131080990292746
0.4120888971846843 0.4323018673901243 -0.06065757448539247
0.42002104154046643 0.32680434745822234 -0.06065757448539247
0.539535127145762 0.434336229119019 -0.06065757448539247
0.5511907133814935 0.24560718505862236 -0.06065757448539247
0.6586106118278555 0.29607428703046895 -0.06065757448539247
0.7351138111557398 0.37759806713883637 -0.06065757448539247
0.6445847142199256 0.4802680109062654 -0.06065757448539247
0.7042810994480879 0.3164925597957057 -0.06019097775858178
0.7508101250456523 0.341072875364094 -0.05944442299568463
0.5238201493867772 0.4294742912256514 -0.05944442299568463
0.3988935417504773 0.4148138220692587 -0.05944442299568463
0.4387502341546482 0.3176217238745876 -0.05879118757814963
0.5470006747747335 0.321475812838044 -0.05879118757814963
0.5766575627308222 0.30347451111768675 -0.05879118757814963
0.6659268485042477 0.3020187293300374 -0.05879118757814963
0.5608492656264752 0.5068453604654034 -0.05879118757814963
0.6165795786767466 0.4791575106964559 -0.05879118757814963
0.6770318506023425 0.44074726814539816 -0.05879118757814963
0.7016494939088758 0.45169362735637747 -0.05832459085133891
0.7206773084282164 0.3303971422546648 -0.05757803608844179
0.5211885438475647 0.439394137637647 -0.05757803608844179
0.3988468820777963 0.42104755433944985 -0.05757803608844179
0.440691276538181 0.3172391145586028 -0.056924800670906786
0.5348878237467274 0.31199456734925046 -0.056924800670906786
0.5779640335658921 0.4493046521151066 -0.056924800670906786
0.5495016332304389 0.5092809953793556 -0.056924800670906786
0.6165142551349931 0.483515524124868 -0.056924800670906786
0.6310534091424148 0.47128135794789106 -0.056924800670906786
0.6965355937830303 0.33070509609435994 -0.056924800670906786
0.711028088117771 0.439394137637647 -0.05645820394409607
0.6787955862296869 0.29190291229278115 -0.05645820394409607
0.45363466973990985 0.3042024020115115 -0.05645820394409607
0.20868072009882271 0.37201757028618027 -0.055058413763663945
0.40465134535932157 0.44089657909797747 -0.055058413763663945
0.536614231635927 0.3080284951713593 -0.055058413763663945
0.5558846764532094 0.5084691170747048 -0.055058413763663945
0.6872596508540334 0.4265907234539611 -0.055058413763663945
0.5966838942455379 0.26349650356454507 -0.055058413763663945
0.6767145648281111 0.32103721191484197 -0.055058413763663945
0.6901152228221148 0.33625759714340736 -0.055058413763663945
0.7101508862713669 0.439394137637647 -0.05459181703685323
0.5664484263482039 0.23613527150436492 -0.05459181703685323
0.5221777289084036 0.2796127545085869 -0.05459181703685323
0.436603889211319 0.4380690029335046 -0.05319202685642111
0.4488473873228322 0.32451802349684994 -0.05319202685642111
0.5374821015477949 0.45169362735637747 -0.05319202685642111
0.6365499185842453 0.27814764078640136 -0.05319202685642111
0.6893220083865365 0.322782283673114 -0.05319202685642111
0.546328775488126 0.23947610406832964 -0.05319202685642111
0.6621660788861531 0.3046316710001774 -0.05319202685642111
0.7218438002452432 0.38190942089456736 -0.05319202685642111
0.43176061518702374 0.45169362735637747 -0.05197887536671324
0.5843470767886626 0.4148138220692587 -0.05197887536671324
0.7508101250456523 0.3509927217760896 -0.05197887536671324
0.42055296180903057 0.43721979689070917 -0.051325639949178235
0.5710863978127023 0.3103148191327318 -0.051325639949178235
0.5369128535410858 0.447970185476428 -0.051325639949178235
0.5601680344053318 0.24807081577618287 -0.051325639949178235
0.6991112077150253 0.41942379773014854 -0.051325639949178235
0.5527118187108966 0.2505064506901348 -0.051325639949178235
0.6243624120799494 0.27959409063951457 -0.051325639949178235
0.7240181409921812 0.36592381703403243 -0.051325639949178235
0.7385199672614581 0.40252366428506464 -0.050112488459470396
0.6033188997007863 0.439394137637647 -0.050112488459470396
0.4337763130468461 0.4540452748595034 -0.050112488459470396
0.42071160469614616 0.43351501887983207 -0.049459253041935394
0.5354757356225087 0.3117706009203813 -0.049459253041935394
0.5334040461554691 0.3343165547598748 -0.049459253041935394
0.6737376777110589 0.3035584985285127 -0.049459253041935394
0.6934653873206158 0.4364545782587395 -0.049459253041935394
0.6538233294107778 0.2837747973117386 -0.049459253041935394
0.6986166151846059 0.4092333252166026 -0.049459253041935394
0.560578639524925 0.5189208837552647 -0.049459253041935394
0.38208672765075546 0.32878271757989974 -0.048246101552227555
0.5295779529956214 0.3913999983178972 -0.048246101552227555
0.693521378927833 0.45367199747805476 -0.048246101552227555
0.4364545782587397 0.31767771548180485 -0.04759286613469255
0.5448729937004766 0.372876108263512 -0.04759286613469255
0.5378367150601711 0.4109224053676575 -0.04759286613469255
0.6668693738924053 0.29764205203255284 -0.04759286613469255
0.7021160906356863 0.3149061309245493 -0.04759286613469255
0.7321462559732238 0.3755543734754055 -0.04759286613469255
0.6627913185000796 0.4657568527024522 -0.04759286613469255
0.38208672765075546 0.40252366428506464 -0.046379714644984714
0.5224856827480986 0.43200324548496544 -0.046379714644984714
0.7377267528258799 0.35336303314828804 -0.046379714644984714
