0.42863501072737076 0.36839622620692797 -0.13860837155263636
0.5894951978683677 -0.00479543589938831 -0.13860837155263636
-0.23055330387032855 0.04707305800460721 -0.13860837155263636
-0.3165980708795412 0.4196109851047946 -0.13736710255365756
0.2179337357140437 0.4669116090925481 -0.13736710255365756
-0.22018457016552537 0.06963105327938254 -0.13736710255365756
-0.33361173129221117 0.3841024166073401 -0.13736710255365756
-0.332444938433171 0.09367857135293252 -0.13736710255365756
-0.21941498338615845 0.26058787608228634 -0.13736710255365756
0.4696051628203321 0.322179643811616 -0.1369533462206646
0.7093852329164032 0.18049292514151213 -0.1369533462206646
0.35504430934124565 0.06851391118030166 -0.1369533462206646
0.10993505767622531 -0.10288878732535559 -0.1369533462206646
-0.030055260028607526 0.03026627575843388 -0.1369533462206646
-0.2611133466251874 0.4529680206706858 -0.1369533462206646
0.3422095878918044 0.43079895634892384 -0.1369533462206646
-0.017220538579166375 0.474764704292754 -0.1369533462206646
0.13094560426560706 0.02324069322421365 -0.13571207722168577
-0.33639217384992376 0.3811812968964099 -0.13571207722168577
0.04751577728090978 0.45075856185250357 -0.13571207722168577
0.2857732240715668 0.05173195431410779 -0.13571207722168577
0.4388299667723169 0.16911462598420615 -0.13571207722168577
-0.1275859028417044 0.4248822407871247 -0.13571207722168577
0.7202835747274374 0.2567813178187512 -0.1352983208886928
0.20528106705111948 0.4815503081538385 -0.1352983208886928
0.4192261917151112 0.09329791552657908 -0.1352983208886928
0.10258674520227058 0.014138053898368919 -0.1352983208886928
-0.19693146425132185 0.03879793134474833 -0.1352983208886928
0.24807174700924975 0.006102905911645908 -0.1352983208886928
-0.2739563432012884 0.4529680206706858 -0.1352983208886928
0.06408258085394723 0.48566304610378824 -0.1352983208886928
0.4873222089990899 0.22500483144489314 -0.134057051889714
0.40593633829937786 0.138860762915762 -0.134057051889714
0.4642594309980633 0.2167793555449934 -0.134057051889714
-0.23802574324418105 0.21946049658278766 -0.134057051889714
0.3307319872145801 0.42662829251235507 -0.134057051889714
0.46889350192758433 0.24153025938463132 -0.134057051889714
0.09830850471912357 0.010488723041371129 -0.13364329555672105
0.4722283779715074 0.3465995425848597 -0.13364329555672105
-0.15841902477633862 0.027899589533714225 -0.13364329555672105
-0.33813822557515394 0.4351185724653701 -0.13364329555672105
-0.4132184497600537 0.46386636248172003 -0.13364329555672105
0.22240230411036754 0.48566304610378824 -0.13364329555672105
0.42778267268140524 0.3745611955685229 -0.13364329555672105
0.42601179557619545 0.10419625733761317 -0.13364329555672105
0.36639778311857196 0.07913917381156041 -0.13240202655774222
0.44828843654453565 0.1509920985991152 -0.13240202655774222
-0.08779081873444303 0.445627983323391 -0.13240202655774222
0.05174436700409764 0.02962081587896486 -0.13240202655774222
0.2818259886548141 0.04062673433657717 -0.13240202655774222
0.4837970050419901 0.2545056579872901 -0.13240202655774222
-0.19693146425132185 0.46386636248172003 -0.13198827022474927
-0.3210169885159059 0.03879793134474833 -0.13198827022474927
0.08547378326968241 0.007741380990297912 -0.13198827022474927
0.3523383429234718 0.025276374382538897 -0.13198827022474927
0.04696134379469918 0.006102905911645908 -0.13198827022474927
0.16443504185805596 0.596748346385734 -0.13198827022474927
0.2609064684586909 0.49656138791482246 -0.13198827022474927
0.7311819165384716 0.322179643811616 -0.13198827022474927
-0.326172392424998 0.4316512943948894 -0.13074700122577043
-0.3512874018376697 0.07101299943157899 -0.13074700122577043
0.23004852114407712 0.022438005938207387 -0.13074700122577043
0.2612209232717655 0.036778800439742756 -0.13074700122577043
-0.14143018974364835 0.44404743413135794 -0.13074700122577043
0.49951974569572205 0.2510218296634894 -0.13074700122577043
-0.19425032321352761 0.42959078785658433 -0.13074700122577043
-0.06856769950359078 0.48566304610378824 -0.1303332448927775
-0.35742754581928504 0.06452530013024968 -0.1303332448927775
-0.3680859089571833 0.04970454828244244 -0.1303332448927775
0.32937486644236336 0.03331152236926191 -0.1303332448927775
0.38072202736678784 0.06526178640297711 -0.1303332448927775
0.2138375480174135 0.49271345401798805 -0.1303332448927775
0.6330885651125043 0.45295974554402596 -0.1303332448927775
0.7420802583495056 0.2567813178187512 -0.1303332448927775
-0.24918061398167096 0.04912528941625226 -0.12909197589379867
-0.3414482762390975 0.055017179598071814 -0.12909197589379867
-0.3495247998591198 0.2756403314765697 -0.12909197589379867
0.4357929952881488 0.3457223791589146 -0.12909197589379867
-0.32433531430650936 0.06312680372473356 -0.12909197589379867
0.43958300329836414 0.15810043239993396 -0.12909197589379867
0.41773666891633654 0.06887801675333544 -0.12867821956080572
0.5049234034046098 0.1669630930526428 -0.12867821956080572
0.42863501072737076 0.4119895934510646 -0.12867821956080572
0.5676985142462995 0.4986549949597667 -0.12867821956080572
0.35076606885809863 0.027899589533714225 -0.12867821956080572
-0.023476534334019698 -0.00479543589938831 -0.12867821956080572
-0.08995890191932607 0.01770463348876808 -0.12867821956080572
-0.4132184497600537 0.44206140373299174 -0.12867821956080572
-0.017220538579166375 0.48566304610378824 -0.12867821956080572
-0.07609806476406233 0.46672128117937134 -0.12743695056182688
0.4704326754863179 0.2931504994888311 -0.12743695056182688
0.3682679617437 0.0763008053672289 -0.12743695056182688
0.5106828915598716 0.2525858286022028 -0.12743695056182688
-0.054640661335048316 0.45948882047865447 -0.12743695056182688
0.4587068210092979 0.540154755158959 -0.12702319422883393
-0.09423714240247308 0.4758239205052161 -0.12702319422883393
0.20100282656797236 0.5019981461303497 -0.12702319422883393
0.6548852487345728 0.4311630619219575 -0.12702319422883393
0.5005293111482247 0.34397632743368434 -0.12702319422883393
0.4696051628203321 0.10419625733761317 -0.12702319422883393
-0.2782345836844355 0.03394870712207103 -0.12702319422883393
-0.18837498328502772 0.025375675902457207 -0.12702319422883393
0.19672458608482535 -0.02659211952145663 -0.12702319422883393
-0.14365619881515032 0.45657597589438437 -0.1257819252298551
-0.33582946523705337 0.44612449092298256 -0.1257819252298551
-0.3467029816681079 0.42249900430908527 -0.1257819252298551
-0.3318408541870013 0.271577244286579 -0.1257819252298551
-0.3420358102319475 0.0645087498769299 -0.1257819252298551
0.47609286212166135 0.1908616588463153 -0.1257819252298551
0.6003935396794019 0.04089981351635252 -0.12536816889686217
-0.2715234559632899 -0.02659211952145663 -0.12536816889686217
0.11115150129522462 0.5021305481569075 -0.12536816889686217
0.4613300361604732 0.3901929098289962 -0.12536816889686217
0.5894951978683677 0.46386636248172003 -0.12536816889686217
0.3824101532053989 -0.11378712913638968 -0.12536816889686217
0.2523499874923969 -0.01569377771042241 -0.12536816889686217
-0.2782345836844355 0.0306717569647669 -0.12536816889686217
-0.047168221961195696 0.4885593404347388 -0.12536816889686217
-0.33861818292142576 0.2571454233917851 -0.12412689989788332
0.1783869054065781 0.4988204974929639 -0.12412689989788332
-0.351328777470969 0.2695332880015938 -0.12412689989788332
0.40288281656188996 0.08326846201483007 -0.12412689989788332
0.02964977882227439 0.014899365551075927 -0.12412689989788332
-0.05260498017672295 0.46710193700572483 -0.12412689989788332
0.509838828640566 0.28073780949904276 -0.12412689989788332
-0.11135837946172114 0.009090226635855002 -0.12371314356489038
-0.38313836435146664 0.19139126695254635 -0.12371314356489038
0.1368209441941068 -0.02659211952145663 -0.12371314356489038
0.40420683682746733 0.03879793134474833 -0.12371314356489038
-0.15164169604191416 0.47784305141022165 -0.12371314356489038
-0.3124605075496118 0.46027495751134107 -0.12371314356489038
0.2138375480174135 0.5183580715368906 -0.12371314356489038
0.48123171577743384 0.3766713528667869 -0.12371314356489038
0.5158217452156441 0.1560647512416087 -0.12371314356489038
-0.2443727653922929 0.03546305530082526 -0.12247187456591153
-0.3416303290256144 0.04042813129674055 -0.12247187456591153
-0.31386727908178785 0.24213434363080097 -0.12247187456591153
0.33277594349956535 0.4485573781609809 -0.12247187456591153
0.14575808098675452 -0.0016922634019412267 -0.12247187456591153
0.43594194756802623 0.1059423090628434 -0.12247187456591153
0.30369714841682116 0.46946862323044447 -0.12247187456591153
-0.2354439037263051 0.4716284312886676 -0.12205811823291861
0.05123958427784619 0.5038517745021581 -0.12205811823291861
0.41773666891633654 0.45295974554402596 -0.12205811823291861
-0.3638076684740363 0.46386636248172003 -0.12205811823291861
-0.0535483446159469 -0.07018548676559315 -0.12205811823291861
0.23951526604295573 -0.017961162415223754 -0.12205811823291861
-0.3722400225404325 0.027899589533714225 -0.12205811823291861
0.5158217452156441 0.3357012007738255 -0.12205811823291861
0.4149479512319642 0.03879793134474833 -0.12205811823291861
-0.21304313585806714 0.029811143792141583 -0.12081684923393977
-0.36481723392653903 0.0629778514448561 -0.12081684923393977
0.06574588131257882 0.01237545191981891 -0.12081684923393977
0.14494711857408824 -0.0025528765745665444 -0.12081684923393977
0.31562988106033774 0.029877344805420536 -0.12081684923393977
0.30097463174572775 0.47122295008233445 -0.12081684923393977
0.5233934861094148 0.23140150435296403 -0.12081684923393977
0.07691730230338839 0.510488426083365 -0.12040309290094682
-0.21404442618391004 0.47704863925087515 -0.12040309290094682
0.2095593075342665 0.5292564133479248 -0.12040309290094682
0.39783498929937594 0.4473988604286008 -0.12040309290094682
0.7311819165384716 0.21318795057461468 -0.12040309290094682
-0.3722400225404325 0.025276374382538897 -0.12040309290094682
0.4805035046313663 -0.04628692097192075 -0.12040309290094682
0.1068649856854177 -0.02659211952145663 -0.12040309290094682
0.4940250615935756 0.10157304218643796 -0.12040309290094682
-0.3663150318519735 0.0913863612681516 -0.119161823901968
0.22792181359249333 0.5064418891466939 -0.119161823901968
-0.35511051035452457 0.09477088807203393 -0.119161823901968
-0.34681883344134595 0.438469998762613 -0.119161823901968
-0.3543326484484978 0.2242600700455058 -0.119161823901968
0.14363964856183065 0.5008065278913302 -0.119161823901968
0.33784859614205887 0.030771058484685213 -0.119161823901968
0.0627089098284107 0.4824191964531236 -0.119161823901968
-0.39403670616250075 0.11509459914864728 -0.11874806756897505
0.004178938963228702 -0.014030477251790827 -0.11874806756897505
-0.3434839573974228 -0.02659211952145663 -0.11874806756897505
0.33365310692551037 0.003214886707355124 -0.11874806756897505
0.7202835747274374 0.21318795057461468 -0.11874806756897505
0.4748515931226827 0.3842265435072379 -0.11874806756897505
0.5676985142462995 0.5074597297258567 -0.11874806756897505
0.08975202375282955 0.5156934807524161 -0.11874806756897505
-0.3039040265833177 0.474764704292754 -0.11874806756897505
-0.307520256933676 0.2254682385378452 -0.11750679856999621
-0.3689878977631079 0.4008843734735339 -0.11750679856999621
0.25550281074980313 0.5088168504980735 -0.11750679856999621
-0.23738855849137194 0.02761823522727897 -0.11750679856999621
0.531064528523104 0.23799678030087154 -0.11750679856999621
0.3088525523259134 0.4805324675746757 -0.11750679856999621
0.18480012856796868 -0.014311831558225963 -0.11750679856999621
-0.0525553294167638 0.01799426292186311 -0.11750679856999621
0.3721572712738337 0.006102905911645908 -0.11709304223700327
0.1068649856854177 0.5292564133479248 -0.11709304223700327
0.6657835905456068 0.4093663782998893 -0.11709304223700327
0.36323668473450604 0.49656138791482246 -0.11709304223700327
0.49140184644240054 0.5531549791415974 -0.11709304223700327
-0.38341144353124196 0.30299790021406314 -0.11709304223700327
0.14000686795815254 -0.04838880314352494 -0.11709304223700327
0.0811955427865354 -0.02608733679520518 -0.11709304223700327
0.30369714841682116 -0.02659211952145663 -0.11709304223700327
0.5703217293974746 0.2785780014408195 -0.11709304223700327
-0.3485979856732156 0.26004171772273565 -0.11585177323802444
0.34074489047300943 0.011274860074057714 -0.11585177323802444
-0.37616243257720555 0.40625493067578233 -0.11585177323802444
0.24744283738310052 -0.004754060266088936 -0.11585177323802444
-0.3662736562186742 0.42340099311500995 -0.11585177323802444
0.38019241926055675 0.05007692898213599 -0.11585177323802444
0.5222266932503749 0.2988355115041541 -0.11585177323802444
-0.15984234656183433 0.2603313471558307 -0.11585177323802444
0.23616383974571287 0.49484843669623174 -0.11585177323802444
0.40639147026566996 0.027899589533714225 -0.11543801690503148
-0.39403670616250075 0.11509459914864728 -0.11543801690503148
0.11115150129522462 0.5251519505246348 -0.11543801690503148
0.439533352538405 0.45295974554402596 -0.11543801690503148
0.5977620494015666 0.2676796596297854 -0.11543801690503148
-0.33813822557515394 0.006102905911645908 -0.11543801690503148
0.10993505767622531 -0.10288878732535559 -0.11543801690503148
-0.3853891988029482 0.30037468506288784 -0.11543801690503148
0.04268310331155216 0.5292564133479248 -0.11543801690503148
-0.3525369459633084 0.2620608486277412 -0.11419674790605265
0.5328436807549737 0.1903320507400844 -0.11419674790605265
0.508374131221771 0.14633320228961463 -0.11419674790605265
0.41695053188364994 0.04913356454291216 -0.11419674790605265
-0.34893726586626983 0.04574076261236992 -0.11419674790605265
0.2505377347538877 -0.01754740608223083 -0.11419674790605265
-0.3684417394035572 0.10840002168082145 -0.11419674790605265
-0.35545806567423865 0.22378011269923392 -0.11419674790605265
0.23912633508994224 0.501567839544037 -0.11419674790605265
0.38977501593267344 0.445793485856588 -0.11419674790605265
-0.022773148567931625 0.1453815627237309 -0.11419674790605265
0.5023001882534345 0.5422566373305632 -0.11378299157305971
-0.08568066143617893 0.5183580715368906 -0.11378299157305971
0.2823059460010861 0.5195579649025703 -0.11378299157305971
0.5703217293974746 0.31390451715175716 -0.11378299157305971
0.7529786001605399 0.30037468506288784 -0.11378299157305971
-0.37664238992347737 0.474764704292754 -0.11378299157305971
-0.39403670616250075 0.06060289009347654 -0.11378299157305971
0.3678790307906867 0.006905593197652171 -0.11378299157305971
0.03412662234525802 -0.037490461332490725 -0.11378299157305971
0.4696051628203321 -0.07228736893719734 -0.11378299157305971
-0.3737047199592275 0.23612660167574342 -0.11254172257408088
-0.3736798945792479 0.23662310927533498 -0.11254172257408088
-0.3768823685966133 0.2394614777196666 -0.11254172257408088
-0.3801013928672984 0.285818737268196 -0.11254172257408088
0.44427500011450394 0.39977550650111293 -0.11254172257408088
-0.37021261650876697 0.26564397847146015 -0.11254172257408088
-0.3686155170634142 0.11004677188613336 -0.11254172257408088
0.185189059520982 -0.022901413031159463 -0.11254172257408088
0.5503372985139154 0.2692519336951586 -0.11254172257408088
-0.007166259687437795 0.17520511920586232 -0.11254172257408088
-0.30219935049138685 0.22773562324264657 -0.11254172257408088
0.48769458969878365 0.42026472011092353 -0.11212796624108792
0.2523499874923969 0.540154755158959 -0.11212796624108792
-0.358718465578223 0.5183580715368906 -0.11212796624108792
-0.2782345836844355 0.4851748136308566 -0.11212796624108792
-0.2715234559632899 -0.037490461332490725 -0.11212796624108792
0.162498662219649 -0.05928714495455904 -0.11212796624108792
0.48340807408897674 0.09077400189532206 -0.11212796624108792
0.7529786001605399 0.30037468506288784 -0.11212796624108792
-0.3552511875077421 0.006102905911645908 -0.11212796624108792
-0.1594285902288414 0.15049559099952364 -0.1108866972421091
-0.37667549043011683 0.258965951256954 -0.1108866972421091
-0.3792821553279724 0.24578367448779878 -0.1108866972421091
-0.38304733795820817 0.25584622850618716 -0.1108866972421091
-0.38222810041888217 0.3149885587441987 -0.1108866972421091
-0.35206526374369645 0.039832322177230685 -0.1108866972421091
0.47446266216966915 0.10690222375538702 -0.1108866972421091
-0.373671619452588 0.16865949401791397 -0.1108866972421091
-0.372910307799881 0.3059686706849524 -0.1108866972421091
-0.06345367122779802 0.49312721035098084 -0.1108866972421091
0.5187759654332137 0.3354943226073289 -0.1108866972421091
-0.25255686565889335 -0.00479543589938831 -0.11047294090911616
0.5023001882534345 -0.05049068531512903 -0.11047294090911616
0.45043169434943897 0.46648957763289517 -0.11047294090911616
0.14537742516040095 0.5429682982233112 -0.11047294090911616
-0.39403670616250075 0.14778962458174982 -0.11047294090911616
0.06836082133709424 0.540154755158959 -0.11047294090911616
0.5349952136865371 0.5292564133479248 -0.11047294090911616
0.5594233875864406 0.14778962458174982 -0.11047294090911616
0.4748515931226827 0.07659870992698384 -0.11047294090911616
0.12083339948725953 -0.04838880314352494 -0.11047294090911616
-0.3146037653545153 0.2464208592406079 -0.10923167191013732
-0.3784380924086667 0.2439796968759495 -0.10923167191013732
-0.3806723766068287 0.28514017688208765 -0.10923167191013732
-0.3840900039173503 0.37725061173297697 -0.10923167191013732
-0.18206933677021525 0.4852989405307544 -0.10923167191013732
-0.3716359382942628 0.24580849986777834 -0.10923167191013732
0.38411482929733 0.023819952090403836 -0.10923167191013732
0.2426267136670626 0.5176546857708029 -0.10923167191013732
0.5585462241604954 0.20974549788411329 -0.10923167191013732
0.38336179277128274 0.037854566905524495 -0.10923167191013732
0.4106697107488172 0.47277039876772814 -0.10881791557714439
-0.358718465578223 0.5183580715368906 -0.10881791557714439
-0.1798185023187337 0.5028918598096144 -0.10881791557714439
-0.39403670616250075 0.1368912827707156 -0.10881791557714439
0.5812200712085088 0.3248028589627914 -0.10881791557714439
0.7638769419715741 0.2676796596297854 -0.10881791557714439
0.5785968560573335 0.03879793134474833 -0.10881791557714439
0.278027705517939 -0.03998127445710827 -0.10881791557714439
-0.06856769950359078 -0.037490461332490725 -0.10881791557714439
0.39777706341275687 -0.05928714495455904 -0.10881791557714439
-0.37971246191428504 0.2382450341006673 -0.10757664657816556
-0.3846196120235813 0.2186743595501011 -0.10757664657816556
-0.3857615795026419 0.1895376385807379 -0.10757664657816556
-0.3859932830491179 0.23644105648881805 -0.10757664657816556
0.5759570906528385 0.2341902220373365 -0.10757664657816556
-0.3650654877263348 0.03329497211594223 -0.10757664657816556
-0.363236684734506 0.2231594781997446 -0.10757664657816556
-0.3708332510082564 0.2369375640884096 -0.10757664657816556
-0.0832891498314797 0.496933768614516 -0.10757664657816556
0.4552726434454565 0.08985546283607769 -0.10757664657816556
0.22240230411036754 -0.05928714495455904 -0.1071628902451726
-0.14558430332689748 -0.02659211952145663 -0.1071628902451726
-0.39387120362930356 0.08239957371554486 -0.1071628902451726
-0.32529522899905294 0.48840211302820147 -0.1071628902451726
-0.18837498328502772 0.5183580715368906 -0.1071628902451726
0.30369714841682116 0.540154755158959 -0.1071628902451726
0.4613300361604732 0.4555912358218612 -0.1071628902451726
0.7093852329164032 0.28947634325185373 -0.1071628902451726
0.45346039070694744 0.027899589533714225 -0.1071628902451726
0.43691013738722967 -0.05928714495455904 -0.1071628902451726
-0.31771521297862226 0.22569994208432131 -0.10592162124619377
-0.1705669107130115 0.49536976967580276 -0.10592162124619377
-0.38419758056392855 0.3137886653785191 -0.10592162124619377
-0.3895102118795579 0.2767822989556301 -0.10592162124619377
-0.36091137414308566 0.2208507178616439 -0.10592162124619377
0.20660508731669688 -0.03267433761645291 -0.10592162124619377
-0.04154941095915149 -0.013964276238511876 -0.10592162124619377
0.035309965457617845 0.5183497964102308 -0.10592162124619377
-0.37791675942909564 0.4265124407391169 -0.10592162124619377
0.49731856200419944 0.3776395426859903 -0.10592162124619377
0.5675743873464014 0.2466194622804445 -0.10592162124619377
0.2902004168345913 0.3587639787748521 -0.10592162124619377
0.028060954503581422 0.22452487409862126 -0.10592162124619377
-0.21910880369974375 0.47302692769418386 -0.10592162124619377
-0.327405386297317 0.21495055255316456 -0.10592162124619377
-0.33813822557515394 0.4896930327871395 -0.10550786491320083
0.5676985142462995 0.5074597297258567 -0.10550786491320083
0.52192051356396 0.10862345010063765 -0.10550786491320083
0.5676985142462995 -0.01569377771042241 -0.10550786491320083
0.5676985142462995 0.322179643811616 -0.10550786491320083
0.3422095878918044 0.5292564133479248 -0.10550786491320083
-0.025777019545460515 0.540154755158959 -0.10550786491320083
0.0811955427865354 -0.04946456960930656 -0.10550786491320083
-0.1798185023187337 -0.01779565988202661 -0.10550786491320083
-0.010550786491320132 0.3383244159250008 -0.104266595914222
0.3798034883075434 0.005680874451993088 -0.104266595914222
-0.04411470022370777 0.517869839063959 -0.104266595914222
-0.3894191854862995 0.2565578893989351 -0.104266595914222
-0.16240763582639062 0.15206786506489683 -0.104266595914222
-0.3695506063759783 0.2583122162508251 -0.104266595914222
0.48813317141175616 0.10129996300666261 -0.104266595914222
-0.22561305325439274 0.026724521548014298 -0.104266595914222
-0.36178026244237077 0.32248582349803084 -0.104266595914222
-0.3819550212391068 0.3712594200312392 -0.104266595914222
0.5013568238142105 0.3687106810200025 -0.104266595914222
-0.18143215201740612 0.4704699135562872 -0.104266595914222
-0.0026728659111344834 0.12618326887285822 -0.104266595914222
0.10469690250053468 0.3748673752549375 -0.104266595914222
0.2852932667252951 0.059510573374375125 -0.104266595914222
0.5894951978683677 -0.00479543589938831 -0.10385283958122904
0.7638769419715741 0.2676796596297854 -0.10385283958122904
0.545901830624231 0.3766713528667869 -0.10385283958122904
0.3122536293831154 0.540154755158959 -0.10385283958122904
-0.04346096521757885 0.5292564133479248 -0.10385283958122904
0.4940250615935756 0.44206140373299174 -0.10385283958122904
-0.3981908197457499 0.4015298333530029 -0.10385283958122904
0.2908624269673801 -0.04717235952452564 -0.10385283958122904
-0.06428945902044375 -0.03445348984832248 -0.10385283958122904
-0.06706990157815633 -0.04011367648366605 -0.10385283958122904
-0.3546471032615724 0.2702366737676818 -0.10261157058225022
0.20797875834223342 -0.05179815532738674 -0.10261157058225022
0.06896490558326401 0.5381356242539536 -0.10261157058225022
0.27221856660271804 0.5113821397626297 -0.10261157058225022
-0.10145305284987002 0.5007734273846906 -0.10261157058225022
-0.3807799532534068 0.28096123791885896 -0.10261157058225022
-0.3817895187059096 0.0486453320699805 -0.10261157058225022
0.4232644535251223 0.035140325361090755 -0.10261157058225022
0.5814517747549848 0.2605216750690075 -0.10261157058225022
-0.15477796904600072 0.4794484259822342 -0.10261157058225022
-0.008093073873342065 0.36591368820897024 -0.10261157058225022
0.08764186645456545 0.11776746505978176 -0.10261157058225022
-0.19417584707358887 0.01718330050919695 -0.10261157058225022
0.2700753087978146 0.10421280759093285 -0.10261157058225022
-0.3722400225404325 0.4991846030659978 -0.10219781424925727
0.3933084950164331 -0.07018548676559315 -0.10219781424925727
-0.25683510614204036 -0.013500869145559799 -0.10219781424925727
-0.40231183282235966 0.44206140373299174 -0.10219781424925727
-0.07284593998673779 0.540154755158959 -0.10219781424925727
0.1838898646353842 0.5568953363918536 -0.10219781424925727
0.4722283779715074 0.4773879194439294 -0.10219781424925727
0.7202835747274374 0.21318795057461468 -0.10219781424925727
0.45773863119009445 0.017001247722680007 -0.10219781424925727
0.20100282656797236 -0.06378053873086248 -0.10219781424925727
-0.1529326158008522 0.15217544171147504 -0.10095654525027843
0.44537559196026527 0.4499806999464766 -0.10095654525027843
0.6037366908499848 0.2625490811006729 -0.10095654525027843
0.010021178385089103 0.5142867092202402 -0.10095654525027843
-0.3789346000082583 0.02772581187385718 -0.10095654525027843
0.4031972713749644 0.019003828374365896 -0.10095654525027843
0.5933927825251613 0.26386482623959046 -0.10095654525027843
-0.3815412649061138 0.26770448500976496 -0.10095654525027843
0.3149844211808687 0.5200213719955222 -0.10095654525027843
0.3410841706660636 0.5061688099669187 -0.10095654525027843
-0.28276107796737826 0.46659715427947335 -0.10095654525027843
0.06865045077018929 -0.01957481211389618 -0.10095654525027843
0.028698139256390656 0.12336972580850616 -0.10095654525027843
0.13626651070789633 0.5203772024418962 -0.10095654525027843
0.36323668473450604 -0.04838880314352494 -0.10054278891728549
0.04192179165884515 -0.07280870191676847 -0.10054278891728549
-0.1755402618355867 -0.04838880314352494 -0.10054278891728549
-0.40271731402869276 0.2349598088167034 -0.10054278891728549
-0.047168221961195696 0.540154755158959 -0.10054278891728549
0.20528106705111948 0.5728497805920615 -0.10054278891728549
0.439533352538405 0.4991846030659978 -0.10054278891728549
0.5485250457754064 0.3901929098289962 -0.10054278891728549
0.5818241554546786 0.14778962458174982 -0.10054278891728549
0.38500026784993485 -0.02659211952145663 -0.10054278891728549
-0.3563600544801632 0.267174876903534 -0.09930151991830666
0.3722400225404325 0.5060281328137011 -0.09930151991830666
0.13546382342189006 -0.04182662770225679 -0.09930151991830666
0.2955957994168194 0.29403593804143596 -0.09930151991830666
0.03156960820736165 0.3857491668126519 -0.09930151991830666
-0.06037532411033051 8.399253559756895E-4 -0.09930151991830666
-0.36715909477127906 0.06653615590859535 -0.09930151991830666
-0.30253863068444103 0.4617893056900954 -0.09930151991830666
0.05594813134730592 0.5120938006553775 -0.09930151991830666
-0.3851161196231729 0.31985433322019563 -0.09930151991830666
0.2656481160347901 -0.03804489481870133 -0.09930151991830666
0.49231211037498485 0.4068590149219521 -0.09930151991830666
0.580963542282053 0.19554538053579548 -0.09930151991830666
-0.13173174129829363 0.4909922276727374 -0.09930151991830666
0.15198097623496837 -0.029380837205828982 -0.09930151991830666
0.4478084791982639 0.48566304610378824 -0.0988877635853137
0.592118413019543 0.34397632743368434 -0.0988877635853137
0.4962510706650777 0.03879793134474833 -0.0988877635853137
0.162498662219649 -0.08108382857662737 -0.0988877635853137
-0.19693146425132185 -0.037490461332490725 -0.0988877635853137
-0.2696698275914815 0.5292564133479248 -0.0988877635853137
0.0811955427865354 0.5619514387810273 -0.0988877635853137
9.5163956588373E-4 0.5728497805920615 -0.0988877635853137
0.020125108036776838 -0.07280870191676847 -0.0988877635853137
0.2854256687518527 0.4306996548290055 -0.09764649458633487
-0.3132549197089583 0.2452209658749284 -0.09764649458633487
-0.3865642667886482 0.027130002754347318 -0.09764649458633487
0.19994361035551042 0.5541810948474198 -0.09764649458633487
0.17351285580392123 0.5389134861599802 -0.09764649458633487
-0.38399897752409196 0.02900018137947542 -0.09764649458633487
0.5895448486283268 0.28777994228658266 -0.09764649458633487
-0.3805647999602505 0.25209759612927113 -0.09764649458633487
-0.14053647606438355 0.48530721565741425 -0.09764649458633487
0.42499395499703285 0.4684176821446423 -0.09764649458633487
-0.3447004010164221 0.027792012887136015 -0.09764649458633487
0.18556144022067567 -0.030009746831978323 -0.09764649458633487
0.29059762291426455 0.3885047839903851 -0.09764649458633487
0.030138011295206043 0.40184428816607765 -0.09764649458633487
0.16443504185805596 0.6055530811518238 -0.09723273825334193
0.545901830624231 0.3984680364888551 -0.09723273825334193
0.6032236329970735 0.19018309846020695 -0.09723273825334193
0.3208101103494094 0.551053096969993 -0.09723273825334193
-0.05573297805414962 0.551053096969993 -0.09723273825334193
-0.4108765889153136 0.006102905911645908 -0.09723273825334193
-0.09423714240247308 -0.04201695561543352 -0.09723273825334193
0.45476786071920505 -0.00479543589938831 -0.09723273825334193
0.1282644632278128 -0.08108382857662737 -0.09723273825334193
0.6330885651125043 0.03879793134474833 -0.09723273825334193
-0.3238139813269382 0.2258157938575593 -0.0959914692543631
0.1866289315597975 0.5126730595215677 -0.0959914692543631
0.5056433394240174 0.41136895895157505 -0.0959914692543631
-0.3175414353187652 0.5012368344776428 -0.0959914692543631
-0.16469157078451163 0.5020146963836695 -0.0959914692543631
-0.35910739653123636 0.27710502889536465 -0.0959914692543631
-0.3567738108131562 0.0327736391363711 -0.0959914692543631
0.2789710699571628 0.5115641925491465 -0.0959914692543631
-0.3674073485710748 0.4819557893601714 -0.0959914692543631
-0.3449734801961974 0.48850141454811974 -0.0959914692543631
-0.3714125098744466 0.22243126705367697 -0.0959914692543631
-0.21256317851179526 0.5020726222702885 -0.0959914692543631
0.4687445496477069 0.43834587186271523 -0.0959914692543631
0.03266192492646306 0.39969275523451414 -0.0959914692543631
-0.16247383683966943 0.27389427975133945 -0.0959914692543631
0.16677690270279602 0.5679260802294455 -0.09557771292137016
0.5048075516313717 0.4342745095460645 -0.09557771292137016
0.48123171577743384 0.027899589533714225 -0.09557771292137016
0.12398622274466578 -0.07260182375027195 -0.09557771292137016
0.6003935396794019 0.45295974554402596 -0.09491570278858145
0.7311819165384716 0.16958630820381812 -0.09491570278858145
0.43691013738722967 -0.05928714495455904 -0.09491570278858145
0.19244634560167834 0.026236289075082526 -0.09491570278858145
0.019429997397348665 0.3790380390915065 -0.09491570278858145
0.38503336835657426 0.540154755158959 -0.09491570278858145
0.3721572712738337 0.5283378742886806 -0.09491570278858145
0.7202835747274374 0.2567813178187512 -0.09491570278858145
0.4748515931226827 0.026732796674674077 -0.09491570278858145
0.1068649856854177 -0.07274250090348965 -0.09491570278858145
-0.3771223472697492 0.23820365846736805 -0.09433644392239132
0.28926532752202727 0.10822624402096441 -0.09433644392239132
-0.3341661647784217 0.2671583266502143 -0.09433644392239132
-0.36027418939027644 0.5012368344776428 -0.09433644392239132
0.32418636202663176 -0.04794194630389255 -0.09433644392239132
0.29633228568954684 -0.03666294866650489 -0.09433644392239132
-0.35760959860580194 -0.0038355212068446817 -0.09433644392239132
0.2553952341032249 -0.03202060261032399 -0.09433644392239132
-0.3934408970429909 0.2368217123151716 -0.09433644392239132
0.14023029637796872 0.526260817497056 -0.09433644392239132
0.6013038036119862 0.2631697156001623 -0.09433644392239132
0.49431469102667064 0.07457130389531837 -0.09433644392239132
0.4465341096926454 0.4642304680547537 -0.09433644392239132
-0.174638273029662 0.14710278906898153 -0.09433644392239132
0.043444414964259166 0.09321516425998044 -0.09433644392239132
0.1368209441941068 -0.07647458302708594 -0.09392268758939838
0.4962510706650777 0.027899589533714225 -0.09392268758939838
0.48769458969878365 0.474764704292754 -0.09392268758939838
0.1282644632278128 0.5728497805920615 -0.09392268758939838
0.5349952136865371 0.4952456427759047 -0.09326067745660967
0.03364666499898627 0.5647567067187195 -0.09326067745660967
0.3422095878918044 0.551053096969993 -0.09326067745660967
0.5812200712085088 0.3875696946778211 -0.09326067745660967
0.6330885651125043 0.19139126695254635 -0.09326067745660967
0.4791298336058297 0.006102905911645908 -0.09326067745660967
0.24379350652610274 -0.08108382857662737 -0.09326067745660967
0.23095878507666157 -0.08108382857662737 -0.09326067745660967
0.14965566564354796 0.11509459914864728 -0.09326067745660967
0.14109918467725394 0.3766713528667869 -0.09326067745660967
0.29720117398883195 0.06474872855006589 -0.09268141859041955
-0.35239626881009084 0.45678285406088065 -0.09268141859041955
-0.3679948825639248 0.2611671349484764 -0.09268141859041955
0.5977620494015666 0.18230517788002118 -0.09268141859041955
-0.0792343377681489 0.5375232648811239 -0.09268141859041955
-0.37477221129834926 0.20659267462670702 -0.09268141859041955
-0.3238801823402171 0.02502812058274324 -0.09268141859041955
0.22358564722272725 -0.039128936411142734 -0.09268141859041955
-0.22083830517165418 0.5137653762406692 -0.09268141859041955
0.2828190038539972 0.5206337313683519 -0.09268141859041955
-0.1102826129959394 -0.02592183426200803 -0.09268141859041955
0.17995090434529137 -0.0597753774274907 -0.09268141859041955
0.40064853236372794 0.49369819409051124 -0.09268141859041955
-0.15189822496836985 0.14529053633047237 -0.09268141859041955
0.024560575926461214 0.37546318437444737 -0.09268141859041955
0.04696134379469918 0.5728497805920615 -0.09226766225742661
0.4192261917151112 0.5183580715368906 -0.09226766225742661
0.6160583544465148 0.18962038984733642 -0.09226766225742661
0.2609064684586909 -0.07497678510165151 -0.09226766225742661
0.5703217293974746 0.10157304218643796 -0.09160565212463788
0.49140184644240054 0.017001247722680007 -0.09160565212463788
0.23523702555980858 -0.08388909651431951 -0.09160565212463788
0.011849981376917947 0.10288051219869557 -0.09160565212463788
0.6360841609633732 0.27127106460016415 -0.09160565212463788
0.6466101220747138 0.2920995584030289 -0.09160565212463788
0.46201687167324146 0.4884600389148205 -0.09160565212463788
0.14965566564354796 0.5732138861650954 -0.09160565212463788
0.4696051628203321 0.5640533209526316 -0.09160565212463788
0.28519396520537676 0.07308178109654372 -0.09102639325844777
-0.17151855027889523 0.4827253761395384 -0.09102639325844777
-0.3521645652636148 0.27035252554091976 -0.09102639325844777
0.6208910284158724 0.2756155060965901 -0.09102639325844777
-0.08822112532075563 0.5094374849975628 -0.09102639325844777
0.5550541207100349 0.3544774631650452 -0.09102639325844777
0.5242044485220811 0.09375304749287125 -0.09102639325844777
-0.07863025352197912 0.5324506122386304 -0.09102639325844777
-0.38009311774063853 0.27178412245307537 -0.09102639325844777
-0.34245784169160026 0.4663489004796776 -0.09102639325844777
0.21737102710117331 0.5326905909117663 -0.09102639325844777
-0.10231366602249535 -0.029372562079169204 -0.09102639325844777
0.07697522819000732 -0.031863375203786626 -0.09102639325844777
0.09998835543107495 0.07968533217111112 -0.09102639325844777
-0.13658924064763084 0.14275834757255557 -0.09102639325844777
0.2189267509132268 0.5756964241630529 -0.09061263692545482
0.5475982315895022 0.42026472011092353 -0.09061263692545482
0.46629511215638847 -0.00479543589938831 -0.09061263692545482
0.11542974177837163 -0.07811305810573807 -0.09061263692545482
0.5433199911063552 0.07802203171247954 -0.0899506267926661
0.4192261917151112 0.5144356615001177 -0.0899506267926661
0.08975202375282955 0.5690349472018664 -0.0899506267926661
0.509085792114519 0.44753126245515845 -0.0899506267926661
0.5946588769041196 0.14204668667980772 -0.0899506267926661
0.40211322978252295 -0.0321281792569022 -0.0899506267926661
0.21563325050260287 -0.08524621728653639 -0.0899506267926661
0.10993505767622531 0.06269649713842085 -0.0899506267926661
-0.3613996066160173 0.2770719283887253 -0.08937136792647599
-0.359777681790685 0.032004052357004195 -0.08937136792647599
0.29533099536370383 0.5023126009434243 -0.08937136792647599
0.16936701734733187 0.5637388661395569 -0.08937136792647599
0.11817708382944474 -0.0732224582497614 -0.08937136792647599
-0.04530631846272749 0.5209150856747871 -0.08937136792647599
-0.08783219436774228 0.53599236644905 -0.08937136792647599
0.0049071501092963505 0.5423476637238216 -0.08937136792647599
0.3148023683943519 0.007923433776814854 -0.08937136792647599
-0.08435664117060154 0.501634040557316 -0.08937136792647599
0.5294177783177922 0.09423300483914313 -0.08937136792647599
-0.3876234830011101 0.04710615851124669 -0.08937136792647599
0.16877120822782202 -0.04809917371042979 -0.08937136792647599
-0.15802181869666537 0.14811235452148433 -0.08937136792647599
0.02429577187334564 0.37651412546024954 -0.08937136792647599
0.09403026423597656 0.5728497805920615 -0.08895761159348305
0.45773863119009445 0.5074597297258567 -0.08895761159348305
0.5518764720726492 0.08716604667162352 -0.08895761159348305
0.20802840910219259 -0.08550274621299206 -0.08895761159348305
0.3122536293831154 -0.07131090399133404 -0.08829560146069433
0.5518764720726492 0.08278022954189843 -0.08829560146069433
0.07691730230338839 -0.09198217038766146 -0.08829560146069433
0.08966927248623091 0.42340926824166986 -0.08829560146069433
0.20528106705111948 0.5837481224030957 -0.08829560146069433
0.43691013738722967 0.531358295519529 -0.08829560146069433
0.5818241554546786 0.3875696946778211 -0.08829560146069433
0.6030167548305773 0.12319594814864925 -0.08829560146069433
0.3065437919878128 0.42119980942348756 -0.08771634259450421
-0.3587101904515631 0.2840892357962856 -0.08771634259450421
-0.39983756995106184 0.4566587271609829 -0.08771634259450421
0.6334774960655176 0.22422696953886634 -0.08771634259450421
-0.2515969509663497 0.5183911720435302 -0.08771634259450421
-0.39358157419620854 0.2438638451027115 -0.08771634259450421
-0.23442606314714254 0.5117379702090037 -0.08771634259450421
0.2637696622830021 0.531714125965903 -0.08771634259450421
-0.08677297815528034 -0.012317526033199973 -0.08771634259450421
0.23394610580087066 0.5604701911089125 -0.08771634259450421
0.14838129613792972 -0.048843935109817126 -0.08771634259450421
0.5701065761043184 0.3527727870731144 -0.08771634259450421
-0.01056733674463981 0.34482866547964974 -0.08771634259450421
0.06107043474975857 0.36648467194850065 -0.08771634259450421
0.1325427037109598 -0.09198217038766146 -0.08730258626151126
0.4962510706650777 0.017001247722680007 -0.08730258626151126
0.5390334754965482 0.42286310988211917 -0.08730258626151126
0.2095593075342665 0.5785844433673438 -0.08730258626151126
0.1368209441941068 0.5788988981804183 -0.08664057612872254
0.46201687167324146 0.49305273421104223 -0.08664057612872254
0.6439869069235385 0.4332649440935618 -0.08664057612872254
0.2846974576057852 0.18049292514151213 -0.08664057612872254
0.42863501072737076 -0.029215334672631838 -0.08664057612872254
0.40420683682746733 -0.07018548676559315 -0.08664057612872254
0.6439869069235385 0.18858599901485407 -0.08664057612872254
0.6003935396794019 0.11804054423955711 -0.08664057612872254
0.2941973030113032 0.38632015055218233 -0.08606131726253244
-0.3725048265935479 0.29012180313132274 -0.08606131726253244
-0.353207231222757 0.2701042717411241 -0.08606131726253244
0.31214605273653717 -0.0626385712518019 -0.08606131726253244
0.42842813256087425 0.5059205561671228 -0.08606131726253244
-0.3776685056292999 0.3721200332038644 -0.08606131726253244
-0.08496072541677119 -0.0430347961945962 -0.08606131726253244
-0.12201674259961937 0.528660604228415 -0.08606131726253244
0.06294888850154656 -0.06387984025078079 -0.08606131726253244
0.15049145343619372 0.5424138647371005 -0.08606131726253244
0.6215199380420217 0.27802356795460903 -0.08606131726253244
0.489961974403585 0.05516613187794928 -0.08606131726253244
-0.3657192227324636 0.022346979544948856 -0.08606131726253244
-0.1529160655475324 0.15234094424467218 -0.08606131726253244
-0.1658252631369123 0.3644489907901753 -0.08606131726253244
0.278027705517939 -0.08123278085650483 -0.08564756092953948
0.6075018734802208 0.1259929409596815 -0.08564756092953948
0.4523763491145059 0.4998797137054257 -0.08564756092953948
0.08975202375282955 0.5837481224030957 -0.08564756092953948
0.28432507690609166 0.44206140373299174 -0.08498555079675078
0.5267200870266783 0.46648957763289517 -0.08498555079675078
0.6685888584832989 0.23498463419668297 -0.08498555079675078
0.48769458969878365 0.014510434598062583 -0.08498555079675078
0.3165318698662624 -0.07502643586161066 -0.08498555079675078
0.6075018734802208 0.3482049171568722 -0.08498555079675078
0.35076606885809863 0.5541893699740797 -0.08498555079675078
-0.3812019847130596 0.2643530587125221 -0.08440629193056065
-0.33933811894083354 0.21474367438666803 -0.08440629193056065
-0.16911048842087634 0.3666170739750583 -0.08440629193056065
0.05141336193770323 0.3698029977391039 -0.08440629193056065
-0.13098697989890642 0.5297942965808157 -0.08440629193056065
0.33143537298066816 0.5506972665236194 -0.08440629193056065
0.6329396128326268 0.29130514624368253 -0.08440629193056065
0.4922210839817265 0.05291529742646762 -0.08440629193056065
-0.10061726505722429 -0.015106243717572446 -0.08440629193056065
0.0881466491808169 0.5551161841599839 -0.08440629193056065
0.030518667121559605 -0.03227713153677966 -0.08440629193056065
0.6379543395885012 0.25255272809556334 -0.08440629193056065
0.035963700463746764 0.524556141405125 -0.08440629193056065
0.04060604651992754 -0.037647688739028094 -0.08440629193056065
0.45773863119009445 0.5183580715368906 -0.08399253559756771
0.6003935396794019 0.10714220242852289 -0.08399253559756771
0.2823059460010861 -0.08264782751534064 -0.08399253559756771
0.10993505767622531 0.03879793134474833 -0.08333052546477901
0.19244634560167834 0.5876374319332294 -0.08333052546477901
0.4491821502238004 0.5082458667585433 -0.08333052546477901
0.5433199911063552 0.4448666716706839 -0.08333052546477901
0.6417277973453971 0.1929800912712392 -0.08333052546477901
0.6221902233014701 0.027899589533714225 -0.08333052546477901
0.5349952136865371 -0.00479543589938831 -0.08333052546477901
-0.3428384975179538 0.23064846782691692 -0.08275126659858888
-0.15189822496836985 0.1517782356318018 -0.08275126659858888
-0.16247383683966943 0.2119301313223161 -0.08275126659858888
0.5279530808989973 0.06493078133658271 -0.08275126659858888
0.2614360765649219 -0.07858474032534993 -0.08275126659858888
0.12005553758123273 -0.08365739296784341 -0.08275126659858888
0.5751130277335329 0.3519287241538087 -0.08275126659858888
0.028888467169567382 -0.06373088797090332 -0.08275126659858888
0.024436449026563323 0.5545120999138141 -0.08275126659858888
0.2546835732104771 -0.06950692637948477 -0.08275126659858888
0.3191799103974172 0.4207198520772156 -0.08275126659858888
0.6408175334128124 0.23640795598217867 -0.08275126659858888
0.19244634560167834 -0.09601215707101282 -0.08233751026559592
0.5818241554546786 0.10382387663791952 -0.08233751026559592
0.4705733526395355 0.4936319930772323 -0.08233751026559592
0.14109918467725394 0.5946547393407896 -0.08233751026559592
0.5595971652462975 0.04970454828244244 -0.08167550013280722
0.3824101532053989 -0.10498239437029988 -0.08167550013280722
0.28588080071814503 0.19139126695254635 -0.08167550013280722
0.4587068210092979 0.551053096969993 -0.08167550013280722
0.376435511756981 0.5619514387810273 -0.08167550013280722
0.5989453925139265 0.3700512515388997 -0.08167550013280722
0.6685888584832989 0.21318795057461468 -0.08167550013280722
-0.33461302161805406 0.26138228824163284 -0.08109624126661709
0.025148109919311178 0.3716897266175518 -0.08109624126661709
-0.004733372449439307 0.1781096886634728 -0.08109624126661709
-0.052216049223709614 0.5418925317575293 -0.08109624126661709
0.16517980325744328 0.5777734809546775 -0.08109624126661709
0.3585115874117264 0.5478340726993082 -0.08109624126661709
0.022342841981619024 -0.03526445226098864 -0.08109624126661709
0.24671462623703286 0.5684308629556969 -0.08109624126661709
0.30070155256595227 -0.03780491614556534 -0.08109624126661709
0.645236451049177 0.23843536201384402 -0.08109624126661709
0.30007264293980307 0.5303735554470058 -0.08109624126661709
-0.028209906783459002 0.5207330328882702 -0.08109624126661709
0.48340807408897674 -0.00479543589938831 -0.08068248493362416
0.5647111935220902 0.4119813183244047 -0.08068248493362416
0.2138375480174135 0.5946547393407896 -0.08068248493362416
0.45773863119009445 0.5086927235981754 -0.08002047480083545
0.18623172548012426 0.3766713528667869 -0.08002047480083545
0.23951526604295573 -0.10288878732535559 -0.08002047480083545
0.49197283018193066 0.007989634790093687 -0.08002047480083545
0.5894951978683677 0.08239957371554486 -0.08002047480083545
0.6674055153709391 0.21318795057461468 -0.08002047480083545
0.5269021398131951 0.474764704292754 -0.08002047480083545
-0.39349054780295006 0.24396314662262983 -0.07944121593464532
0.030171111801845518 0.08722397255824257 -0.07944121593464532
0.11115150129522462 0.3796172979576966 -0.07944121593464532
0.3263544452115148 0.4258752559863078 -0.07944121593464532
0.3228540666343945 0.5022546750568053 -0.07944121593464532
0.23099188558330105 0.5359344405624309 -0.07944121593464532
0.06371020015425358 -0.04230658504852855 -0.07944121593464532
0.028491261089894138 0.5554306389730587 -0.07944121593464532
0.17176680407869088 -0.08222579605568793 -0.07944121593464532
0.34130759908587993 0.4304100253959105 -0.07944121593464532
0.24538233084479558 -0.07200601463076221 -0.07944121593464532
0.43634742877435917 -0.037490461332490725 -0.07902745960165238
0.6112918814904361 0.3875696946778211 -0.07902745960165238
0.3279184441502283 0.5699452111344511 -0.07902745960165238
0.49197283018193066 -0.00479543589938831 -0.07836544946886366
0.4805035046313663 -0.037490461332490725 -0.07836544946886366
0.2866834880041514 0.1586879663927839 -0.07836544946886366
0.40420683682746733 0.5619514387810273 -0.07836544946886366
0.5049234034046098 0.4991846030659978 -0.07836544946886366
0.6417277973453971 0.34397632743368434 -0.07836544946886366
0.7638769419715741 0.21318795057461468 -0.07836544946886366
-0.39805841771919215 0.24260602585041297 -0.07778619060267356
0.1155786940582491 0.08524621728653627 -0.07778619060267356
0.32795981978352756 0.06797602794741085 -0.07778619060267356
0.27370808940149255 0.10370802486468152 -0.07778619060267356
0.2951654928305068 0.38343213134789167 -0.07778619060267356
0.29078795082744124 0.4269758478320689 -0.07778619060267356
0.36408902278047134 0.5410236434582442 -0.07778619060267356
0.642778738431199 0.2185419575235433 -0.07778619060267356
0.30439225905624934 0.5335677543377113 -0.07778619060267356
0.15212992851484583 -0.08211821940910972 -0.07778619060267356
0.021225699882538033 0.5522860908423121 -0.07778619060267356
0.5604329530389432 0.42497326718038314 -0.0773724342696806
0.517642273080813 0.017001247722680007 -0.0773724342696806
0.31049930253122515 0.474764704292754 -0.07671042413689189
0.21630353576205147 -0.11378712913638968 -0.07671042413689189
0.6875885492943351 0.10419625733761317 -0.07671042413689189
0.7529786001605399 0.19139126695254635 -0.07671042413689189
0.6780638785088374 0.22408629238564876 -0.07671042413689189
0.48340807408897674 0.5074597297258567 -0.07671042413689189
0.4667998948826399 0.5292564133479248 -0.07671042413689189
-0.3899405184658706 0.22864588717523102 -0.07613116527070177
0.09796094939940948 0.40987116102614074 -0.07613116527070177
0.05778520946579466 0.37617484526719536 -0.07613116527070177
0.2963902115761659 0.10409695581769486 -0.07613116527070177
0.2919961193197808 0.3859560449791484 -0.07613116527070177
0.2919712939398011 0.4258669808596479 -0.07613116527070177
0.16456744388461375 -0.08408769955415614 -0.07613116527070177
0.3637911182207164 0.5430510494899097 -0.07613116527070177
0.4877607907120624 0.46220306202308825 -0.07613116527070177
0.16676035244947635 0.5840543020895106 -0.07613116527070177
0.23095878507666157 0.6014072426952345 -0.07571740893770883
0.6075018734802208 0.3875696946778211 -0.07571740893770883
0.4748515931226827 -0.011746542293669688 -0.07571740893770883
0.27341845996839753 0.16958630820381812 -0.07505539880492011
0.45773863119009445 0.5292564133479248 -0.07505539880492011
0.5433199911063552 0.46386636248172003 -0.07505539880492011
0.7420802583495056 0.24588297600771708 -0.07505539880492011
0.5775459149715315 0.07666491094026266 -0.07505539880492011
0.43691013738722967 -0.047842644783974236 -0.07505539880492011
-0.33395101148526535 0.24969780939791203 -0.07447613993873
-0.16259796373956734 0.3764644747002904 -0.07447613993873
0.4140873380593388 -0.03471829390143805 -0.07447613993873
0.36937682871612126 -0.05896441501482454 -0.07447613993873
0.3131721684423597 -0.08098452705670905 -0.07447613993873
0.11360921391320268 -0.08057077072371613 -0.07447613993873
0.32575036096534526 -0.06805877921400949 -0.07447613993873
