0.7640780534788311 0.013391287834154135 -0.02559702905924792
0.7862935802781468 0.0518003035435836 -0.02559702905924792
0.7829659665004446 0.1707187117046269 -0.02559702905924792
0.5479313512543181 0.13150136876174728 -0.02559702905924792
0.7742899208614153 0.06327855025857275 -0.02559702905924792
0.5514475747198252 -0.2826989777785575 -0.02559702905924792
0.48306309076996073 -0.17656561202658086 -0.02559702905924792
0.8635427195548459 -0.09604274745440983 -0.02559702905924792
0.6071817374661984 -0.06882906392826182 -0.02384565338677307
0.7566279708105341 0.06158106306832782 -0.02290260494774814
0.6792979988104904 -0.11296373087462849 -0.02290260494774814
0.5611609736417821 0.005092461570734792 -0.02290260494774814
0.6977817482153789 0.20154292354018424 -0.02290260494774814
0.6927431751268741 -0.09369859847740492 -0.02290260494774814
0.5415994545922936 0.16803775971368445 -0.02290260494774814
0.6628081232481116 0.23391642923985448 -0.02290260494774814
0.5308352302668521 0.1722814776892966 -0.02290260494774814
0.7432232108558227 0.19029370287467254 -0.02290260494774814
0.5813422102369155 -0.08157368997565599 -0.02290260494774814
0.7772403152635076 -0.26787964516530877 -0.02290260494774814
0.8580056780057138 -0.10246894896033668 -0.02290260494774814
0.6505619656613449 -0.35131248777789964 -0.02290260494774814
0.6486085081805076 -0.16004879222308716 -0.02115122927527329
0.7585679561708141 0.06520506349829511 -0.02020818083624836
0.6894155613491719 -0.10990555950807618 -0.02020818083624836
0.5641113680438744 0.03129573605507014 -0.02020818083624836
0.7165753563930898 0.1875184460398279 -0.02020818083624836
0.6688975217401011 -0.10706294207044392 -0.02020818083624836
0.5656876061491016 0.19896974851370192 -0.02020818083624836
0.7351938270035534 0.21232061998618357 -0.02020818083624836
0.6150764001128929 0.2341858716510042 -0.02020818083624836
0.7540143794223794 0.173157165525534 -0.02020818083624836
0.55465393941251 0.035310427981204845 -0.02020818083624836
0.5109234360828685 -0.22534816056528464 -0.02020818083624836
0.5896006201386623 -0.34406448691796526 -0.02020818083624836
0.8110014493805999 -0.23700154484752115 -0.02020818083624836
0.6077475665296134 -0.0709846032174618 -0.018456805163773515
0.49140233339505257 -0.23066964818549665 -0.018456805163773515
0.561080140918437 -0.02592035995262786 -0.017513756724748586
0.6142411286383278 0.20743024022381146 -0.017513756724748586
0.7458233301234202 0.06888295241049226 -0.017513756724748586
0.5933054532919745 -0.07204890074150412 -0.017513756724748586
0.7776848952419051 0.14960789879102598 -0.017513756724748586
0.7418894709206304 -0.07618484175265633 -0.017513756724748586
0.7114424784606828 -0.11712661612689564 -0.017513756724748586
0.7414987794244627 -0.1000709115011019 -0.017513756724748586
0.5430005551302735 0.1570310372182079 -0.017513756724748586
0.5819215114208879 -0.08366186866206815 -0.017513756724748586
0.857884428920696 -0.12428031214292745 -0.017513756724748586
0.5031769667623066 -0.19911794183983417 -0.017513756724748586
0.6175013818132427 0.1860769291401755 -0.015762381052273736
0.6929048405735642 -0.3166756658245699 -0.015762381052273736
0.7385888013840431 0.18431208134714316 -0.014819332613248805
0.7266390304495415 -0.07362513884673157 -0.014819332613248805
0.5637745650299368 0.08628893217078092 -0.014819332613248805
0.7457290252795176 0.06842490031153722 -0.014819332613248805
0.7572207441150641 -0.012623376962376283 -0.014819332613248805
0.7542299333512994 -0.04676173045507868 -0.014819332613248805
0.5982901378982491 -0.1104983328126061 -0.014819332613248805
0.600795952321944 -0.12000964992620039 -0.014819332613248805
0.5792675036710607 -0.07559206844812642 -0.014819332613248805
0.7572881047178517 0.18291098080916346 -0.014819332613248805
0.8245409305408863 -0.1868852563736251 -0.014819332613248805
0.6504946050585575 -0.37685562835491765 -0.014819332613248805
0.4780514619225711 -0.10465143249065159 -0.014819332613248805
0.5997990154006891 -0.3657007125333085 -0.013067956940773909
0.6872330778188571 -0.15332620406489525 -0.013067956940773909
0.5688400823595565 0.10742668932549679 -0.013067956940773909
0.5586821034592022 0.011545607317776775 -0.01212490850174898
0.7069293180739207 0.2020009756391395 -0.01212490850174898
0.6846329585512599 -0.09604274745440983 -0.01212490850174898
0.5620231893574621 0.1982691982447121 -0.01212490850174898
0.7595783652126266 0.07726261139725661 -0.01212490850174898
0.574848648128201 -0.06446409686763219 -0.01212490850174898
0.7240793275436168 0.22133346863915013 -0.01212490850174898
0.7213175428293295 0.22872966282521712 -0.01212490850174898
0.771878411281623 0.1527873192425956 -0.01212490850174898
0.5478639906515307 0.06808809729759986 -0.01212490850174898
0.8381881886656328 -0.105203789433509 -0.01212490850174898
0.5016950335009817 -0.1969489304300768 -0.01212490850174898
0.498380891843837 0.08658531882304597 -0.01037353282927413
0.8256725886677162 -0.23066964818549665 -0.01037353282927413
0.6048510606097512 -0.30165425140295865 -0.01037353282927413
0.6278883867630743 -0.10028646543002195 -0.0094304843902492
0.5569846162689573 0.13808923571436432 -0.0094304843902492
0.7435061253875301 0.02034290204182366 -0.0094304843902492
0.6114389275623681 0.21594462041615084 -0.0094304843902492
0.554303664278015 0.17015288264121195 -0.0094304843902492
0.7567626920161092 -0.014091838103143788 -0.0094304843902492
0.7568839411011267 -0.03838207146831434 -0.0094304843902492
0.739019909241883 -0.09500539417148243 -0.0094304843902492
0.6749869202320905 -0.14695389104119827 -0.0094304843902492
0.612840028100348 -0.10645669664535645 -0.0094304843902492
0.8393198467924627 -0.1799336421659556 -0.0094304843902492
0.47034540896368165 -0.12794472893456724 -0.0094304843902492
0.8177779260210218 0.09085598103977305 -0.007679108717774352
0.6809011811568327 -0.15416147553946016 -0.007679108717774352
0.4628953262953848 -0.21292686541127065 -0.007679108717774352
0.5587629361825472 0.0875687836237433 -0.006736060278749422
0.7410811436871805 0.17985280944261117 -0.006736060278749422
0.6076667338062683 -0.08178924390457584 -0.006736060278749422
0.7514950928781271 0.2035502695032516 -0.006736060278749422
0.7718918834021804 0.15363606283771805 -0.006736060278749422
0.6666476776069987 -0.11674939675128558 -0.006736060278749422
0.7640376371171586 0.005685234875264704 -0.006736060278749422
0.7060266859965681 -0.117301753694143 -0.006736060278749422
0.5992736026989466 -0.11340831085302598 -0.006736060278749422
0.5835920543700178 0.2072146862948912 -0.006736060278749422
0.49832700336160696 -0.1904688404419199 -0.006736060278749422
0.601280948662014 -0.3567821687242443 -0.006736060278749422
0.8579652616440411 -0.15969851708859223 -0.006062454250874465
0.5776912655658333 0.053228348322678413 -0.004984684606274574
0.6048510606097512 -0.37604730112146767 -0.004984684606274574
0.5771523807435333 0.1917756361359976 -0.004041636167249644
0.7490162226955472 0.08841752721886577 -0.004041636167249644
0.5722889452222762 -0.025718278144265368 -0.004041636167249644
0.770854530119253 0.10748057780772666 -0.004041636167249644
0.770854530119253 0.10748057780772666 -0.004041636167249644
0.6278883867630743 -0.10374880041329906 -0.004041636167249644
0.7653174885701209 0.006453145747042173 -0.004041636167249644
0.6534315273400924 -0.14075671558474864 -0.004041636167249644
0.5706992349964912 -0.09629871774500218 -0.004041636167249644
0.581786790215313 0.2098821661652761 -0.004041636167249644
0.6753641396077006 -0.12721723442446228 -0.004041636167249644
0.6678197520955012 -0.3714533080113606 -0.004041636167249644
0.8146523940516821 -0.1842986092265854 -0.004041636167249644
0.7258711195777641 -0.30394451189773347 -0.002290260494774795
0.7244565469192268 0.17229494980985416 -0.002290260494774795
0.7435061253875301 0.032440866302457655 -0.0013472120557498654
0.6273899183024467 -0.09743037587183213 -0.0013472120557498654
0.5954744647017318 0.19724531708234225 -0.0013472120557498654
0.7342507785645284 -0.04766436253243102 -0.0013472120557498654
0.587970493551205 0.20643330330255635 -0.0013472120557498654
0.7506867656446771 -0.04104955133869904 -0.0013472120557498654
0.7584197628446815 -0.014671139287116136 -0.0013472120557498654
0.5564322593261 0.047677834652988964 -0.0013472120557498654
0.5141836892577833 0.08857919266555576 -0.0013472120557498654
0.7426304375512928 0.20221652956805936 -0.0013472120557498654
0.6853873973024798 -0.11770591731086798 -0.0013472120557498654
0.6225264827811898 -0.34828126065246245 -0.0013472120557498654
0.5127960608403608 -0.25326239436042247 -0.0013472120557498654
0.778924330333195 -0.30165425140295865 4.0416361672503137E-4
0.5938443381142745 0.17936781310254118 4.0416361672503137E-4
0.6801736866467277 0.22047125292347028 0.001347212055749961
0.7571668556328343 0.0029503944020923796 0.001347212055749961
0.5639362304766269 0.015183079868301435 0.001347212055749961
0.7489892784544323 0.07747816532617666 0.001347212055749961
0.7721343815722154 0.15758339416106534 0.001347212055749961
0.7178686799666097 -0.09062695499029523 0.001347212055749961
0.7591876737164589 0.041426770714309474 0.001347212055749961
0.7001932577951712 -0.11749036338194811 0.001347212055749961
0.5590054343525822 -0.07646775628436382 0.001347212055749961
0.6350286106585488 -0.11305803571853086 0.001347212055749961
0.5513532698759229 -0.3119065351472153 0.001347212055749961
0.8419064939395027 -0.13765812785652404 0.001347212055749961
0.5328829925915917 -0.30165425140295865 0.0030985877282248098
0.5776912655658333 0.053228348322678413 0.0030985877282248098
0.5187507381267754 0.0579301183972456 0.0030985877282248098
0.5552871290787126 0.015183079868301435 0.00404163616724974
0.7169929921303724 0.2022030574475018 0.00404163616724974
0.6664051794369638 -0.10015174422444689 0.00404163616724974
0.5960402937651468 0.22222262859594508 0.00404163616724974
0.5496153663240054 0.02946352765925034 0.00404163616724974
0.7452440289394475 -0.05426570160560562 0.00404163616724974
0.7716359131115881 0.03498709708782486 0.00404163616724974
0.6978760530592812 -0.11724786521191313 0.00404163616724974
0.5397133577142438 -0.014132254464816286 0.00404163616724974
0.48515126945637305 -0.17418104668790363 0.00404163616724974
0.6476654597414828 -0.38514098249777945 0.00404163616724974
0.8433075944774823 -0.19518408263704445 0.0047152421951246965
0.574740871163741 0.08871391387113063 0.005793011839724588
0.6035846812773462 -0.3371398169514109 0.005793011839724588
0.5515688238048427 0.16902122451438198 0.006736060278749518
0.7523707807143645 0.09877758792758233 0.006736060278749518
0.5761554438222783 -0.042531484600023914 0.006736060278749518
0.7849733124635119 0.15408064281611555 0.006736060278749518
0.7750713038537502 0.16107267338545755 0.006736060278749518
0.6988191014983063 -0.10543281548298643 0.006736060278749518
0.7607773839422439 0.07501276726415426 0.006736060278749518
0.5327886877476893 0.08542671645510089 0.006736060278749518
0.5670078739637365 0.22340817520500528 0.006736060278749518
0.6361333245442636 -0.10735932872270879 0.006736060278749518
0.4846258567546306 -0.201489035057954 0.006736060278749518
0.759349339163149 -0.3045911736844933 0.006736060278749518
0.5042547364069064 0.07584803873871916 0.008487435951224366
0.8177779260210218 -0.2661552137339489 0.008487435951224366
0.7704907828642005 0.15669423420427037 0.009430484390249296
0.6554254011826021 -0.10601211666695896 0.009430484390249296
0.5900047837553873 0.1984982242941895 0.009430484390249296
0.740151567368713 -0.03964845080071916 0.009430484390249296
0.5853569021630503 0.21106771277433592 0.009430484390249296
0.5328425762299193 0.1722006449659516 0.009430484390249296
0.639164551669701 -0.10209172958472681 0.009430484390249296
0.7885703686523643 0.0937794312007503 0.009430484390249296
0.7576787962140191 0.04346106091849176 0.009430484390249296
0.6150359837512204 -0.11753077974362061 0.009430484390249296
0.7689953774823183 0.18064766455550357 0.009430484390249296
0.6687762726550835 -0.3673577833618809 0.009430484390249296
0.8197852719840892 -0.2257253799408945 0.009430484390249296
0.7524516134377095 0.1333605213986822 0.011181860062724145
0.5818541508181004 -0.30165425140295865 0.011181860062724145
0.6349073615735313 0.22402789275065013 0.012124908501749075
0.7571668556328343 0.005348431861327346 0.012124908501749075
0.5604738954933496 0.008676045639029583 0.012124908501749075
0.7490162226955472 0.09411623421468784 0.012124908501749075
0.5455198416745257 0.03176726027458275 0.012124908501749075
0.5540342218668651 0.07966064885649138 0.012124908501749075
0.7573824095617541 -0.02167664197701553 0.012124908501749075
0.7566414429310917 0.05577457910804581 0.012124908501749075
0.5359411639581441 0.10628155907810928 0.012124908501749075
0.6009980341303065 0.2382409799388116 0.012124908501749075
0.5612956948473571 0.19764948069906724 0.012124908501749075
0.46730070971768695 -0.17039538081124636 0.012124908501749075
0.7591742015959015 -0.3054938057618458 0.012124908501749075
0.6094315815993007 -0.3726253824998631 0.013876284174223971
0.5231291773079626 0.06582478104393996 0.013876284174223971
0.8177779260210218 0.08871391387113063 0.013876284174223971
0.5690152199268039 -0.03978317200629422 0.0148193326132489
0.677290652847423 0.22087541654019527 0.0148193326132489
0.6978760530592812 -0.0829209020314058 0.0148193326132489
0.5543979691219176 0.07964717673593401 0.0148193326132489
0.7753407462649001 0.18846149447885274 0.0148193326132489
0.7573150489589666 -0.023818709145657944 0.0148193326132489
0.7471840142997275 -0.06853267727599696 0.0148193326132489
0.6269588104446069 -0.11378553022863583 0.0148193326132489
0.5318995277908943 0.04356883788295169 0.0148193326132489
0.7641049977199462 0.193136320312305 0.0148193326132489
0.6659471273380089 -0.3830123874496948 0.0148193326132489
0.4867544518027154 -0.22761147681894436 0.01549293864112381
0.7551190933080943 0.13484245466000708 0.01657070828572375
0.6650444952606563 -0.15562993668022765 0.01657070828572375
0.5450079010933409 -0.3193970341771847 0.01657070828572375
0.5531450619100702 0.10052896360005732 0.01751375672474868
0.7313273284035512 0.19824225400359696 0.01751375672474868
0.6342202834250988 -0.08560185402234806 0.01751375672474868
0.5508278571741804 0.09462817479587277 0.01751375672474868
0.7630811165575762 0.2015294514196267 0.01751375672474868
0.7566144986899765 0.031605594827892755 0.01751375672474868
0.6575809404718019 -0.12937277371366207 0.01751375672474868
0.5374904578222566 0.04084746953033693 0.01751375672474868
0.5265241516884522 0.1028461683359471 0.01751375672474868
0.741256281254428 0.2125900623973333 0.01751375672474868
0.6712820870787785 -0.3805335172671148 0.01751375672474868
0.836760143886538 -0.2030383289220663 0.01751375672474868
0.6760646898766904 0.2068913554015116 0.01926513239722353
0.6313237775052365 -0.07311319826554664 0.01926513239722353
0.5338664573922892 -0.3371398169514109 0.01926513239722353
0.7418221103178427 0.04002567017632959 0.02020818083624846
0.5825816453282054 -0.060799680075992596 0.02020818083624846
0.6367665142104663 0.22022875475343529 0.02020818083624846
0.7161442485352499 -0.07117321290526672 0.02020818083624846
0.5361971342487366 0.13748299028927685 0.02020818083624846
0.6865325275498672 0.2289856331158097 0.02020818083624846
0.7297915066599963 -0.07222403830875168 0.02020818083624846
0.7622458450830113 -0.0015762381052272442 0.02020818083624846
0.6729122136662358 -0.12613946477986238 0.02020818083624846
0.5340685392006517 0.027307988370050558 0.02020818083624846
0.5058309745121339 -0.22471497089908224 0.02020818083624846
0.663845476531039 -0.39003136226015156 0.02020818083624846
0.6929048405735642 -0.14008310955687373 0.020881786864123415
0.7625691759763912 -0.3416933936998454 0.021959556508723308
0.5953801598578294 -0.3319530505367737 0.021959556508723308
0.8093713227931426 0.08871391387113063 0.021959556508723308
0.5523502067971777 0.016880567058546365 0.022902604947748238
0.6638050601693665 0.22949757369699478 0.022902604947748238
0.719094642937342 -0.06714504885857446 0.022902604947748238
0.601792889243199 0.20885828500290626 0.022902604947748238
0.5575235010912574 0.07242612011711456 0.022902604947748238
0.7877889856600292 0.1602239297903351 0.022902604947748238
0.7802041817861574 0.09148917070597545 0.022902604947748238
0.6259484014027944 -0.10108132054291435 0.022902604947748238
0.5199228126152778 0.14477140751088374 0.022902604947748238
0.7857277512147318 0.07809788287182151 0.022902604947748238
0.6478944857909602 -0.130908595457217 0.022902604947748238
0.49475689141386975 -0.21058271643426574 0.022902604947748238
0.5898565904292549 -0.3514472089834747 0.022902604947748238
0.8043731660663104 -0.28391146862873246 0.023576210975623194
0.7952660125694413 -0.28391146862873246 0.024653980620223087
0.5744849008731485 -0.3330308201813736 0.024653980620223087
0.5600023712738371 0.11782716639588586 0.024653980620223087
0.7641723583227336 0.1313801196767298 0.025597029059248017
0.7650345740384135 0.18021655669766345 0.025597029059248017
0.619050675677355 -0.07967412097704857 0.025597029059248017
0.7254265395993665 0.20361763010603903 0.025597029059248017
0.5746465663198386 0.21113507337712373 0.025597029059248017
0.7800155720983524 0.09954549879935981 0.025597029059248017
0.765128878882316 0.0049981567268322325 0.025597029059248017
0.765182767364546 -0.016988344023005916 0.025597029059248017
0.5777586261686207 -0.09377943120074991 0.025597029059248017
0.7900118855520166 0.18834024539383543 0.025597029059248017
0.6494303075345151 -0.10951486801190877 0.025597029059248017
0.5505718868835878 0.0944934535902977 0.025597029059248017
0.6665399006425388 -0.3714263637702455 0.025597029059248017
0.8044001103074255 -0.2538955840266249 0.025597029059248017
0.6580794089324294 -0.17744129986281845 0.026270635087122973
0.7554020078398018 0.13593369642516454 0.02734840473172291
0.6048510606097512 -0.32112146560854454 0.02734840473172291
0.8145311449666647 -0.18687178425306755 0.02829145317074784
0.5124592578264234 -0.2227345691771298 0.02829145317074784
0.7072526489673007 -0.08059022517495847 0.02829145317074784
0.5638823419943968 -0.0035835840682945986 0.02829145317074784
0.766556923661411 0.12267712979658547 0.02829145317074784
0.5323845241309644 0.14448849297917626 0.02829145317074784
0.5250961069093575 0.14597042624050113 0.02829145317074784
0.7625018153736038 9.161041979100903E-4 0.02829145317074784
0.7680658011638508 0.011154915821609353 0.02829145317074784
0.6298822606055842 -0.1274058441122672 0.02829145317074784
0.7904968818920864 0.188030386621013 0.02829145317074784
0.6638320044104816 -0.12962874400425461 0.02829145317074784
0.5425155587902035 0.1895527362440104 0.02829145317074784
0.7974080797380835 -0.28391146862873246 0.03004282884322269
0.5892368728836098 0.19518408263704504 0.03004282884322269
0.74646999191018 0.0715773765219921 0.03098587728224762
0.7545128478830069 0.03149781786343263 0.03098587728224762
0.5761284995811634 -0.03707527577423683 0.03098587728224762
0.7693725968579281 0.16403653990810732 0.03098587728224762
0.5319399441525668 0.1592674092307527 0.03098587728224762
0.5413569564222586 0.19671990438059958 0.03098587728224762
0.7624613990119313 7.679108717776602E-4 0.03098587728224762
0.7671092806042684 -0.0031524762104544884 0.03098587728224762
0.6326036289581989 -0.10905681591295371 0.03098587728224762
0.783895542818912 0.20140820233460938 0.03098587728224762
0.6469110209902629 -0.163524599326922 0.03098587728224762
0.5398884952814913 0.09391415240632535 0.03098587728224762
0.5265241516884522 -0.26787964516530877 0.03098587728224762
0.8246756517464613 -0.22693787079106945 0.03098587728224762
0.5187507381267754 -0.2876701902642746 0.03273725295472247
0.6050800866592286 -0.053241820443235596 0.03273725295472247
0.7720804930899855 0.1388571465861418 0.0336803013937474
0.6424786933268457 -0.08839058297775045 0.0336803013937474
0.6159925043108028 0.21574253860778816 0.0336803013937474
0.6954510713589315 -0.07574026177425885 0.0336803013937474
0.6713898640432384 -0.15230232290252543 0.0336803013937474
0.5282620552403697 0.13093553969833233 0.0336803013937474
0.7690627380851057 0.18808427510324288 0.0336803013937474
0.6026146885972062 -0.0803746712460384 0.0336803013937474
0.7408925339993755 0.22812341740012984 0.0336803013937474
0.7783719733903375 0.07389458125788187 0.0336803013937474
0.6466011622174404 0.2509047732628606 0.0336803013937474
0.7743303372230879 0.08354061957705103 0.0336803013937474
0.5898027019470249 -0.08452408437774818 0.0336803013937474
0.8097485421687525 -0.22237082192207733 0.0336803013937474
0.6961785658690365 -0.3720999697981206 0.0336803013937474
0.5466245555602408 -0.3172010785263124 0.035431677066222245
0.574740871163741 0.0722105661881945 0.035431677066222245
0.5582644677219197 0.10236117199587713 0.036374725505247174
0.7686316302272658 0.10550017608577443 0.036374725505247174
0.5575504453323723 0.0220403892320684 0.036374725505247174
0.7659506782363236 0.11006722495476656 0.036374725505247174
0.6182423484439051 0.23743265270536165 0.036374725505247174
0.7244700190397841 0.2298613209520471 0.036374725505247174
0.6691534920306936 -0.0991143909415195 0.036374725505247174
0.790968406111599 0.08475311042722598 0.036374725505247174
0.68193853443976 -0.1085044589700963 0.036374725505247174
0.7685373253833633 0.05985663163696796 0.036374725505247174
0.6518418171143076 -0.1699373287122915 0.036374725505247174
0.5515149353226129 0.20623122149419407 0.036374725505247174
0.663333535949854 -0.38031796333819495 0.036374725505247174
0.8032415079394806 -0.21244186907120066 0.036374725505247174
0.5187507381267754 0.06626936102233744 0.037048331533122134
0.5791462545860432 0.07097113109690462 0.03812610117772203
0.5434720793497859 0.11662814766626847 0.039069149616746957
0.7349648009540758 0.21046146734924864 0.039069149616746957
0.7002336741568437 -0.07165820924533671 0.039069149616746957
0.6501578020446201 0.2265067629332299 0.039069149616746957
0.5530103407044952 -9.834648006971408E-4 0.039069149616746957
0.7596591979359716 0.06674088524184986 0.039069149616746957
0.6717670834188484 0.24189192460989364 0.039069149616746957
0.5333545168111044 0.11173776790389636 0.039069149616746957
0.790321744324839 0.1048804585401294 0.039069149616746957
0.6784223109742529 -0.14328947424955848 0.039069149616746957
0.5066393017455839 0.10552712032688936 0.039069149616746957
0.7091118016042354 -0.09287679912339758 0.039069149616746957
0.5349038106752166 0.10361407920772457 0.039069149616746957
0.541424317025046 -0.2898257295534746 0.039069149616746957
0.7699384259213431 -0.3161906694844999 0.03974275564462191
0.8043058054635229 0.07097113109690462 0.04082052528922185
0.498380891843837 0.07097113109690462 0.04082052528922185
0.7348974403512883 -0.04533368567598368 0.04176357372824678
0.5634377620159993 0.0025866471470398947 0.04176357372824678
0.7693860689784857 0.1678222057847644 0.04176357372824678
0.6799850769589227 -0.12939971795477717 0.04176357372824678
0.780109876942255 0.117288281573586 0.04176357372824678
0.6992636814767037 0.23716321029421153 0.04176357372824678
0.535698665788109 0.11831216273595584 0.04176357372824678
0.6643170007505513 -0.12543891451087255 0.04176357372824678
0.5628719329525845 -0.07517443271084387 0.04176357372824678
0.5086735919497661 0.1022533950314172 0.04176357372824678
0.6754988608132757 -0.09868328308367959 0.04176357372824678
0.6400267673853808 -0.373703152144463 0.04176357372824678
0.5228597348968125 -0.23087172999385916 0.04176357372824678
0.7264908371234091 -0.3611606079054315 0.043514949400721634
0.5570519768717449 0.12419947941958284 0.043514949400721634
0.7216408737227095 0.22009403354786042 0.04445799783974656
0.7571668556328343 0.010562142517079442 0.04445799783974656
0.5452369271428182 0.13803534723213426 0.04445799783974656
0.7490162226955472 0.08432200256938606 0.04445799783974656
0.5517035450104179 -0.019116939071090765 0.04445799783974656
0.7571399113917191 0.20344249253879187 0.04445799783974656
0.5795504182027682 0.22696481503218477 0.04445799783974656
0.5737708784836011 -0.07925648523976601 0.04445799783974656
0.5368168517943814 0.08467227770388099 0.04445799783974656
0.5867175863393576 0.2423499767088485 0.04445799783974656
0.7277976328174864 -0.06971822388505679 0.04445799783974656
0.6859397542453373 -0.09678371408507216 0.04445799783974656
0.7057437714648607 -0.34481892566918515 0.04445799783974656
0.6093103325142832 -0.05382112162720814 0.045131603867621516
0.5620636057191346 -0.3409524270691831 0.04620937351222141
0.6859397542453373 -0.053241820443235596 0.04620937351222141
0.5299864866717295 -0.252817814382025 0.04715242195124634
0.7717302179554906 0.10462448824953703 0.04715242195124634
0.727945826143619 -0.043164674266226326 0.04715242195124634
0.5629258214348144 0.19271868457502245 0.04715242195124634
0.5962423755735092 0.22796175195343985 0.04715242195124634
0.7270431940662665 0.2248766363457724 0.04715242195124634
0.5357660263908967 0.11254609513734633 0.04715242195124634
0.7216543458432668 0.23902236293114645 0.04715242195124634
0.7881796771561966 0.19491464022589491 0.04715242195124634
0.790941461870484 0.08208563055684129 0.04715242195124634
0.6497940547895676 -0.10916459287741365 0.04715242195124634
0.758163792554089 0.21062313279593864 0.04715242195124634
0.5516227122870728 -0.3297705670064588 0.048903797623721185
0.7486390033199373 0.10761529901330172 0.048903797623721185
0.549628838444563 0.1868852563736255 0.04984684606274612
0.7304516405673137 0.2115122927527336 0.04984684606274612
0.7224626730767169 -0.04338022819514638 0.04984684606274612
0.6023048298243838 0.23556002794786915 0.04984684606274612
0.784057208265602 0.1269208477721978 0.04984684606274612
0.5481064888215657 0.003489279224392422 0.04984684606274612
0.5441187411365459 0.0743256891157218 0.04984684606274612
0.518036715737228 0.10520378943350939 0.04984684606274612
0.6597095355198868 -0.13053137608160714 0.04984684606274612
0.5538725564201752 -0.30293410285592104 0.04984684606274612
0.6343954209923464 -0.3575096632343493 0.04984684606274612
0.498380891843837 0.10435504583838692 0.050520452090621074
0.7362446524070384 0.09619094078054263 0.05159822173522097
0.78002904421891 -0.27598986174092316 0.052541270174245897
0.7577731010579217 0.1976225364579521 0.052541270174245897
0.7542299333512994 0.04180399008991933 0.052541270174245897
0.5664151006592066 -2.1555392891986358E-4 0.052541270174245897
0.5449674847316683 0.204587622786179 0.052541270174245897
0.7728888203234355 0.2011657041645744 0.052541270174245897
0.7228668366934418 -0.06407340537146478 0.052541270174245897
0.5364126881776564 0.0517194708202386 0.052541270174245897
0.5314684199330545 0.07883884950248404 0.052541270174245897
0.7561295023499068 0.21376213688583595 0.052541270174245897
0.5744849008731485 -0.3726253824998631 0.053214876202120856
0.7613027966439864 0.12597779933317277 0.05429264584672079
0.759699614297644 0.03815304541883711 0.05523569428574572
0.5811266563079954 -0.03276419719583726 0.05523569428574572
0.7508888474530396 0.1950763056725849 0.05523569428574572
0.752869249174992 0.20835981654227873 0.05523569428574572
0.5314684199330545 0.13267344325024974 0.05523569428574572
0.7483965051499023 -0.047367975880166155 0.05523569428574572
0.637979005060641 -0.11536176833386327 0.05523569428574572
0.5862864784815177 -0.08952224110458021 0.05523569428574572
0.5359546360787015 0.07265514616659198 0.05523569428574572
0.6811706235679826 -0.09588108200771983 0.05523569428574572
0.5468670537302758 -0.2866732533430197 0.05523569428574572
0.5847371846174052 -0.32166035043084457 0.05523569428574572
0.6935649744808816 -0.035485565548452024 0.056987069958220574
0.7296028969721913 -0.05048003572894834 0.0579301183972455
0.5346343682640667 0.15077997327952825 0.0579301183972455
0.7096506864265354 0.2262373205220798 0.0579301183972455
0.7490027505749898 0.00881076684460445 0.0579301183972455
0.5304984272529145 0.10830237716173419 0.0579301183972455
0.6358504100125562 0.24301011061616604 0.0579301183972455
0.6666207333658838 0.25079699629840047 0.0579301183972455
0.6489048948327727 0.25716930932209764 0.0579301183972455
0.6331829301421714 -0.0754438751219938 0.0579301183972455
0.770369533779183 0.04709853346901642 0.0579301183972455
0.6984418821226962 -0.35874909832563917 0.0579301183972455
0.5953801598578294 -0.3726253824998631 0.058603724425120456
0.5469748306947357 0.07110585230247968 0.06062454250874528
0.7285520715687064 0.22385275518340259 0.06062454250874528
0.7542164612307418 0.00304469924599494 0.06062454250874528
0.5756435032410935 -0.026095497519875225 0.06062454250874528
0.7243352978342094 0.2131424193401911 0.06062454250874528
0.7764454601506151 0.19713754011788212 0.06062454250874528
0.7465508246335248 -0.04730061527737853 0.06062454250874528
0.6997217335756586 -0.09085598103977266 0.06062454250874528
0.6752294184021256 -0.13484245466000672 0.06062454250874528
0.5452099829017033 0.02877644951081787 0.06062454250874528
0.6437181284181356 -0.07584803873871879 0.06062454250874528
0.7312195514390912 -0.314331516847565 0.06062454250874528
0.7405153146237654 0.06302257996798019 0.06237591818122013
0.5852760694397052 0.22414914183566745 0.06331896662024505
0.7654791540168109 0.06639061010735493 0.06331896662024505
0.6388008044146485 -0.06442368050595969 0.06331896662024505
0.5885093783735049 0.21358699931858838 0.06331896662024505
0.7519531449770821 0.013243094508021705 0.06331896662024505
0.7768092074056676 0.08967043443071322 0.06331896662024505
0.6931742829847143 -0.09089639740144516 0.06331896662024505
0.6599116173282492 -0.15637090331089 0.06331896662024505
0.5441187411365459 0.030056300963780255 0.06331896662024505
0.6617707699651841 -0.1249000296885725 0.06331896662024505
0.573663101519141 -0.3226033988698694 0.06331896662024505
0.6859397542453373 -0.39719853039674113 0.06399257264812001
0.6347726403679562 0.2386047271938639 0.06601339073174484
0.7592011458370165 0.003516223465507357 0.06601339073174484
0.5673446769776741 -0.015587243485026036 0.06601339073174484
0.5735553245546811 0.2051803960907091 0.06601339073174484
0.7563181120377117 0.05814567232616565 0.06601339073174484
0.5390262795658113 0.08234160084743364 0.06601339073174484
0.6363758227142986 0.25005602966773793 0.06601339073174484
0.5530642291867252 0.23270393838967954 0.06601339073174484
0.7687394071917257 0.2039544331199766 0.06601339073174484
0.6507101589874775 -0.11505190956104085 0.06601339073174484
0.676805656507353 -0.3752793902496902 0.06601339073174484
0.6571767768550771 -0.0490250467087384 0.06776476640421973
0.6042987036668936 -0.0668486622063096 0.06870781484324466
0.5469748306947357 0.09861592248089235 0.06870781484324466
0.593157259965842 0.2209427771429827 0.06870781484324466
0.7574497701645417 0.05077642238121377 0.06870781484324466
0.7925176999757113 0.13228275175408233 0.06870781484324466
0.7234461378774144 -0.06934100450944693 0.06870781484324466
0.7414987794244627 -0.05660985058261033 0.06870781484324466
0.7932047781241438 0.09602927533385264 0.06870781484324466
0.5440109641720859 0.20138125809349428 0.06870781484324466
0.664061030459959 -0.3957300692559736 0.06870781484324466
0.5616324978612944 0.004203301613939829 0.07140223895474444
0.5434316629881134 0.18006836337153104 0.07140223895474444
0.7641588862021761 0.0979153722119025 0.07140223895474444
0.5708743725637389 0.2160119810189383 0.07140223895474444
0.5660513534041541 -0.026822992029980196 0.07140223895474444
0.7924772836140389 0.12923805250808756 0.07140223895474444
0.7925715884579414 0.10655100148925939 0.07140223895474444
0.7245104354014567 0.24814298854857314 0.07140223895474444
0.6460622773951404 -0.08564227038402056 0.07140223895474444
0.6922447066662468 -0.37669396290822765 0.07140223895474444
0.7405018425032079 0.040820525289222 0.0731536146272193
0.6719826373477683 -0.39777783158071345 0.07409666306624423
0.5670617624459666 -0.006709116037634344 0.07409666306624423
0.6103746300383257 0.22070027897294772 0.07409666306624423
0.7519531449770821 0.018753191816038663 0.07409666306624423
0.7928410308690913 0.13853381569276182 0.07409666306624423
0.7253591789965792 0.22719384108166218 0.07409666306624423
0.5293937133671994 0.07722219503558411 0.07409666306624423
0.6532563897728447 -0.1435185002990361 0.07409666306624423
0.7599960009499089 0.20695871600429905 0.07409666306624423
0.5673581490982317 0.10645669664535683 0.07584803873871906
0.6456715858989729 -0.3978047758218286 0.076791087177744
0.5356313051853216 0.17862684647187865 0.076791087177744
0.7369452026760283 0.2134657502335711 0.076791087177744
0.7460523561728976 0.0061971754564496195 0.076791087177744
0.5486992621260955 0.09235138642165548 0.076791087177744
0.5304849551323569 0.09668940924117017 0.076791087177744
0.5158542322069131 0.12717681806279016 0.076791087177744
0.6003244281024314 -0.08289395779029086 0.076791087177744
0.6714168082843534 -0.07324791947112151 0.076791087177744
0.6403366261582034 -0.04215426522441406 0.07854246285021885
0.5538321400585027 0.015600715605583982 0.07948551128924378
0.5701199338125189 0.20783440384053645 0.07948551128924378
0.7202397731847296 0.2213065243980354 0.07948551128924378
0.7159286946063299 -0.04443105359863134 0.07948551128924378
0.6780046752369704 0.24606828198271835 0.07948551128924378
0.7987822360349485 0.12475183636244044 0.07948551128924378
0.6700695962286035 0.2576947220238399 0.07948551128924378
0.7234326657568568 -0.061217315813274956 0.07948551128924378
0.6720634700711133 -0.38074907119603485 0.07948551128924378
0.665138800104559 -0.035485565548452024 0.08123688696171867
0.5374500414605841 0.07353083400282939 0.0821799354007436
0.6910861042983019 0.23181477843288456 0.0821799354007436
0.7667051169875434 0.08829627813384827 0.0821799354007436
0.5722889452222762 -0.0015492938641121178 0.0821799354007436
0.5937635053909295 0.23820056357713892 0.0821799354007436
0.7392085189296881 0.23925138898062387 0.0821799354007436
0.5814499872013754 0.24635119651442564 0.0821799354007436
0.5568498950633824 0.21104076853322118 0.0821799354007436
0.6728179088223332 -0.38074907119603485 0.0821799354007436
0.569365495061299 -0.07417749578958897 0.08393131107321845
0.5557451811776675 0.0305143530627353 0.08487435951224338
0.663495201396544 0.22757106045727243 0.08487435951224338
0.7318257968641787 -0.024883006669700274 0.08487435951224338
0.5484971803177331 0.02224247104043089 0.08487435951224338
0.7568435247394543 0.003987747685019965 0.08487435951224338
0.5860305081909252 -0.062012170926167356 0.08487435951224338
0.6010249783714214 -0.0768719199010888 0.08487435951224338
0.6021566364982514 -0.06493562108714461 0.08487435951224338
0.6665803170042113 -0.3723020516064831 0.08487435951224338
0.5555565714898625 0.03202323056517511 0.08756878362374317
0.5917696315484197 0.2160793416217257 0.08756878362374317
0.7515624534809145 0.02043720688572603 0.08756878362374317
0.536587825744904 0.17827657133738353 0.08756878362374317
0.6847946239979499 0.2464455013583282 0.08756878362374317
0.7539335466990343 -0.0042976064578420054 0.08756878362374317
0.5472846894675581 0.22099666562521295 0.08756878362374317
0.510748298515621 0.1199153450822982 0.08756878362374317
0.6124223923630656 -0.08872738599168781 0.089320159296218
0.5613899996912595 0.011639912161679334 0.09026320773524293
0.6089196410181158 0.22293665098549248 0.09026320773524293
0.7372146450871782 -0.017379035519173525 0.09026320773524293
0.530673564820162 0.1132331732857788 0.09026320773524293
0.6346244470418237 0.24578536745101104 0.09026320773524293
0.7644013843722111 0.026135913881548106 0.09026320773524293
0.6498614153923551 -0.10514990095127913 0.09026320773524293
0.6919213757728668 -0.07227792679098155 0.09026320773524293
0.6123954481219505 -0.05484500278957797 0.09295763184674272
0.5346343682640667 0.11894535240215826 0.09295763184674272
0.7628251462669838 0.180472526988256 0.09295763184674272
0.5929282339163646 -0.03129573605506976 0.09295763184674272
0.77690351224957 0.06884253604881976 0.09295763184674272
0.5477023252048406 0.044606191165879085 0.09295763184674272
0.6158577831052278 -0.05857678018400519 0.09295763184674272
0.557213642318435 0.22855452525796957 0.09295763184674272
0.5243147239170224 0.05457556037842842 0.09295763184674272
0.7042483660829784 0.07097113109690462 0.09470900751921761
0.6133115523198606 -0.05364598405996058 0.09565205595824254
0.5700391010891739 0.19973765938547958 0.09565205595824254
0.7573554653206391 0.04781255585856402 0.09565205595824254
0.7641588862021761 0.21575601072834574 0.09565205595824254
0.6401884328320708 0.23961513623567618 0.09565205595824254
0.6577291337979345 -0.10389699373943168 0.09565205595824254
0.658254546499677 -0.11354303205860083 0.09565205595824254
0.6980646627470863 -0.0760366484265239 0.09565205595824254
0.7042483660829784 0.07097113109690462 0.0974034316307174
0.6160868091547052 -0.05003545575055086 0.09834648006974232
0.5669135691198341 0.19740698252903224 0.09834648006974232
0.7578539337812666 0.060058713445330446 0.09834648006974232
0.7871153796321544 0.0817622996634613 0.09834648006974232
0.5263490141212047 0.1464958389422436 0.09834648006974232
0.5601505645999696 -0.012636849082933848 0.09834648006974232
0.5512724371525779 -0.00305817136655212 0.09834648006974232
0.6361333245442636 -0.07610400902931133 0.09834648006974232
0.7465373525129675 0.053228348322678413 0.09902008609761728
0.6064272987149785 -0.05213710655752077 0.1010409041812421
0.568988275685689 0.1974204546495898 0.1010409041812421
0.7574901865262141 0.04991420666553374 0.1010409041812421
0.7749904711304052 0.052824184705953625 0.1010409041812421
0.529488018211102 0.1005828520822872 0.1010409041812421
0.562723739626452 -0.005415792464114396 0.1010409041812421
0.7289023467032014 0.24333344150954603 0.1010409041812421
0.5945987768654943 0.25223851319805285 0.1010409041812421
0.771555080388243 0.20179889383077682 0.1010409041812421
0.7512121783464196 0.008056328093384545 0.10373532829274187
0.5655798291846417 0.0044457997839748185 0.10373532829274187
0.701702135297611 0.22187235346145034 0.10373532829274187
0.7620302911540912 0.02247149708990851 0.10373532829274187
0.6284137994648168 0.23875292051999633 0.10373532829274187
0.5389454468424663 0.054333062208393436 0.10373532829274187
0.7928410308690913 0.08309603959865375 0.10373532829274187
0.6990211833066687 0.2552023797207026 0.10373532829274187
0.7203071337875171 0.23624710609630142 0.10373532829274187
0.6955184319617189 -0.05112669751570831 0.10642975240424166
0.5777316819275058 0.20217611320638668 0.10642975240424166
0.7490027505749898 0.019534574808373693 0.10642975240424166
0.5501273069051904 0.041871350692706956 0.10642975240424166
0.7180438175338572 0.2404773519513564 0.10642975240424166
0.7748692220453878 0.05391542647111089 0.10642975240424166
0.6692208526334811 -0.08135813604673593 0.10642975240424166
0.7968961391568986 0.18035127790323832 0.10642975240424166
0.6290065727693467 -0.035485565548452024 0.10692822086486915
0.5508009129330654 0.0588462225951555 0.10912417651574148
0.7417951660767278 0.19907752547816204 0.10912417651574148
0.5908669994710671 -0.031174486970052453 0.10912417651574148
0.6810089581212926 -0.05939857953801272 0.10912417651574148
0.7906585473387764 0.12547933087254523 0.10912417651574148
0.7116984487512753 -0.07340958491781151 0.10912417651574148
0.5312259217630194 0.057674148106653236 0.10912417651574148
0.6635356177582166 -0.10141812355685191 0.10912417651574148
0.5516227122870728 0.14194226219380904 0.11087555218821633
0.543418190867556 0.1727125855471367 0.11181860062724126
0.7663548418530485 0.1741136860851164 0.11181860062724126
0.5929282339163646 -0.03136309665785738 0.11181860062724126
0.5830127531860453 0.21933959479664034 0.11181860062724126
0.5270360922696372 0.14517557112760873 0.11181860062724126
0.5706992349964912 -0.039432896871799294 0.11181860062724126
0.6099974106627157 -0.079579816133146 0.11181860062724126
0.6902912491854095 -0.06865392636101446 0.11181860062724126
0.6935649744808816 0.21233409210674112 0.11356997629971612
0.7331730089199285 -0.026715215065520263 0.11451302473874105
0.5428119454424686 0.16181364001611992 0.11451302473874105
0.772605905791728 0.10585045122026936 0.11451302473874105
0.5258505456605774 0.16644804948789965 0.11451302473874105
0.7674191393770908 0.041507603437654465 0.11451302473874105
0.7626769529408511 0.02616285812266304 0.11451302473874105
0.7891092534746641 0.19787850674854465 0.11451302473874105
0.6832049137721649 -0.07145612743697421 0.11451302473874105
0.7290505400293339 0.017742782774226203 0.11626440041121588
0.556728645978365 0.040039142296886966 0.11720744885024081
0.727487774044664 0.20747065658548375 0.11720744885024081
0.6419936969867757 -0.04743533648295359 0.11720744885024081
0.5502485559902078 0.042477596117794426 0.11720744885024081
0.6855894791108423 0.24435732267191584 0.11720744885024081
0.7817265314091547 0.09073473195475555 0.11720744885024081
0.7962494773701386 0.10168756596800221 0.11720744885024081
0.7178147914843798 0.23163964086563701 0.11720744885024081
0.7406500358293405 0.035485565548452405 0.11895882452271567
0.5523232625560628 0.06816893002094486 0.1199018729617406
0.7252379299115617 0.20747065658548375 0.1199018729617406
0.6145105710494779 -0.0490250467087384 0.1199018729617406
0.5588841852675648 0.01467113928711652 0.1199018729617406
0.6750138644732057 0.24633772439386847 0.1199018729617406
0.7597130864182015 0.22408178123288 0.1199018729617406
0.6487836457477552 0.2573983353715751 0.1199018729617406
0.6925949818007417 -0.06636366586623961 0.1199018729617406
0.7435869581108752 0.0467482583345215 0.12165324863421549
0.5674524539421341 0.003960803443904839 0.12259629707324042
0.6330616810571539 0.22509219027469266 0.12259629707324042
0.7245239075220142 -0.026432300533812774 0.12259629707324042
0.7603058597227313 0.21541920771440817 0.12259629707324042
0.5235872294069175 0.11412233324257376 0.12259629707324042
0.708074448321308 -0.05577457910804543 0.12259629707324042
0.52448986148427 0.1747872921129915 0.12259629707324042
0.5499791135790579 -0.007638692356101614 0.12259629707324042
0.6346244470418237 -0.0673606027874945 0.12259629707324042
0.5600023712738371 0.09399498512967035 0.12434767274571527
0.6844443488634547 -0.06003176920421513 0.12529072118474022
0.5541824151929976 0.17360174550393168 0.12529072118474022
0.7578539337812666 0.078380797403529 0.12529072118474022
0.7615318226934639 0.19009162106631022 0.12529072118474022
0.6615956323979366 -0.08316340020144079 0.12529072118474022
0.536965045120514 0.08724545273036331 0.12529072118474022
0.7886107850140366 0.07269556252826448 0.12529072118474022
0.7947271277471412 0.17806101740846367 0.12529072118474022
0.587108277835525 0.01987137782231105 0.12704209685721504
0.5670078739637365 0.011478246714989341 0.12798514529623997
0.5866636978571276 0.20284971923426176 0.12798514529623997
0.7303708078439688 -0.015290856832761174 0.12798514529623997
0.6682912763150136 0.23763473451372394 0.12798514529623997
0.537611706907274 0.08725892485092088 0.12798514529623997
0.6513837650153524 0.2461625868266209 0.12798514529623997
0.5314549478124969 0.19455089297084224 0.12798514529623997
0.5376790675100614 0.1739520206384264 0.12798514529623997
0.6384235850390384 0.19518408263704504 0.12973652096871482
0.7170738248537174 -0.04664048137006119 0.13067956940773975
0.5464224737518782 0.08941446414012066 0.13067956940773975
0.7146892595150399 0.21717058338688297 0.13067956940773975
0.6306771157184765 -0.05504708459794046 0.13067956940773975
0.6674290605993337 0.2462434195499659 0.13067956940773975
0.7907393800621214 0.13625702731854453 0.13067956940773975
0.7123720547791502 0.25024463935554303 0.13067956940773975
0.6555062339059471 0.24022138166076384 0.13067956940773975
0.7008264474613736 0.017742782774226203 0.1324309450802146
0.5711438149748888 -0.01061603099930893 0.13337399351923954
0.5990715208905841 0.21376213688583595 0.13337399351923954
0.7608178003039164 0.09089639740144555 0.13337399351923954
0.5693385508201839 0.022498441331023446 0.13337399351923954
0.7637277783443361 0.2095992516335688 0.13337399351923954
0.784892479740167 0.06574394832059496 0.13337399351923954
0.7004896444474361 0.2534375319276702 0.13337399351923954
0.5625755463003195 0.21315589146074826 0.13337399351923954
0.7620168190335338 0.08122341484116126 0.13606841763073937
0.6138504371421604 -0.050197121197240846 0.13606841763073937
0.6136079389721254 0.21236103634785586 0.13606841763073937
0.7161577206558075 -0.030379631857159858 0.13606841763073937
0.6273225576996594 -0.08084619546555101 0.13606841763073937
0.6144566825672478 -0.056717627547070264 0.13606841763073937
0.7244700190397841 0.23996541137017127 0.13606841763073937
0.575414477191616 0.24004624409351627 0.13606841763073937
0.6075185404801359 -0.06865392636101446 0.13606841763073937
0.6730873512334833 -0.04288175973451903 0.13728090848091426
0.5959055725595719 0.21700891794019297 0.13876284174223916
0.7733468724223903 0.08913154960841317 0.13876284174223916
0.6115062881651557 -0.04664048137006119 0.13876284174223916
0.5865155045309951 0.19717795647955483 0.13876284174223916
0.727730272214699 -0.011235748544953968 0.13876284174223916
0.5523232625560628 0.027213683526148 0.13876284174223916
0.5215933555644077 0.09930300062932482 0.13876284174223916
0.720010747135252 -0.07784191258122876 0.13876284174223916
0.690574163717117 -0.06837101182930697 0.13876284174223916
0.5516227122870728 0.13362996380983214 0.14105310223701395
0.5864077275665351 0.21025938554088633 0.1414572658537389
0.7343585555289885 0.19832308672694196 0.1414572658537389
0.7395183777025106 7.544387512200968E-4 0.1414572658537389
0.5465167785957806 0.10680697177985175 0.1414572658537389
0.7882066213973118 0.11521357500773122 0.1414572658537389
0.7915881236572438 0.1636054320502674 0.1414572658537389
0.6337757034467013 0.2542323870405626 0.1414572658537389
0.7498514941701122 0.2124957575534311 0.1414572658537389
0.6557622041965396 -0.07759941441119378 0.1414572658537389
0.5614573602940471 0.18904079566282528 0.1441516899652387
0.7512930110697645 0.18040516638546858 0.1441516899652387
0.6870714123721672 -0.047219782554033536 0.1441516899652387
0.5911633861233322 0.2017584774691045 0.1441516899652387
0.7286194321714939 -0.04777213949689114 0.1441516899652387
0.7678771914760459 0.02795465015681053 0.1441516899652387
0.6972967518753089 0.2523328180419554 0.1441516899652387
0.7107284560711353 -0.05935816317634022 0.1441516899652387
0.766556923661411 0.06726629794359233 0.1441516899652387
0.7384136638167955 -0.010211867382583945 0.14684611407673848
0.5787420909693183 -0.010979778254361415 0.14684611407673848
0.5754414214327309 0.1938503427018524 0.14684611407673848
0.751845368012622 0.07278986737216704 0.14684611407673848
0.5635051226187869 0.07292458857774191 0.14684611407673848
0.6601541154982842 0.24428996206912842 0.14684611407673848
0.5858688427442351 0.23487294979943688 0.14684611407673848
0.517686440602733 0.09896619761538746 0.14684611407673848
0.759430171886494 0.2022300016886169 0.14684611407673848
0.5541150545902102 0.13346829836314214 0.14859748974921339
0.6749465038704181 -0.06230855757843241 0.14954053818823831
0.5582105792396899 0.07754552592896409 0.14954053818823831
0.6841883785728624 0.2164026725151057 0.14954053818823831
0.6870714123721672 -0.0453202135554263 0.14954053818823831
0.5897488134647948 0.2302520124482145 0.14954053818823831
0.5869196681477201 0.23489989404055162 0.14954053818823831
0.5293398248849696 0.07212973346484951 0.14954053818823831
0.5364800487804441 0.09997660665719992 0.14954053818823831
0.7754619953499177 0.08448366801607606 0.14954053818823831
0.6935649744808816 0.19851169641474706 0.1507530290384132
0.7681870502488684 0.09140833798263046 0.1522349622997381
0.6152784819212552 -0.04220815370664393 0.1522349622997381
0.5660648255247117 0.168536228174312 0.1522349622997381
0.7431154338913627 0.041965655536609324 0.1522349622997381
0.593938642958177 -0.05155780537354823 0.1522349622997381
0.6997217335756586 -0.0743661054773939 0.1522349622997381
