0.4220854256137277 0.5259778434424279 -0.05277994521711601
0.36057110008192084 0.23069039772330616 -0.05277994521711601
0.16911535190054156 0.3961298366250982 -0.051378707733475776
0.36969782689203107 0.45741062257629844 -0.051378707733475776
0.4770699844717711 0.4062934791731021 -0.051378707733475776
0.45900336251603624 0.5382807085487894 -0.050911628572262384
0.4754071826578514 0.4189419828587614 -0.04951039108862208
0.42309431660194874 0.31080381545463137 -0.04951039108862208
0.35922591209762617 0.4590734243902182 -0.04951039108862208
0.46433740653709343 0.3449846684722292 -0.04951039108862208
0.6189499504819583 0.4299183431472768 -0.04904331192740869
0.4024867840092128 0.30639458817277676 -0.04764207444376846
0.11859606982369844 0.312915013263316 -0.04764207444376846
0.4992469030461841 0.3861250009919069 -0.04764207444376846
0.4188065299020095 0.3200986907627784 -0.04764207444376846
0.5697291484732885 0.4398484461146739 -0.047174995282555005
0.42431806400432787 0.3122797856040658 -0.045773757798914766
0.4154342183580488 0.301181984733635 -0.045773757798914766
0.4971730715703965 0.38721796622914617 -0.045773757798914766
0.1367467660284519 0.3643404289129131 -0.045773757798914766
0.5451234182605659 0.46446351791062096 -0.045306678637701374
0.47270746510603784 0.3406408322729444 -0.04390544115406114
0.477555746799433 0.3351386397538504 -0.04390544115406114
0.47338005909818504 0.4238463140515023 -0.04390544115406114
0.4097078278415723 0.31371838942060304 -0.04390544115406114
0.5328205531542044 0.47676638301698243 -0.04343836199284769
0.4914373394706957 0.4116555479438321 -0.04203712450920745
0.4917642948835453 0.42231429440272233 -0.04203712450920745
0.4729783710195416 0.4244161506281828 -0.04203712450920745
0.4097825605073664 0.23069039772330616 -0.041570045347994064
0.20062451211599863 0.5037355337854451 -0.041570045347994064
0.3867462162763208 0.2939796240677241 -0.04016880786435376
0.11377581287997607 0.3097108502173919 -0.04016880786435376
0.11674643634529339 0.44733105427731285 -0.04016880786435376
0.6312528155883198 0.4275455810083126 -0.03970172870314037
0.3753401431594891 0.29508193088818774 -0.03830049121950013
0.11013259542251143 0.31599773572732454 -0.03830049121950013
0.4787981773682608 0.3513929945640772 -0.03830049121950013
0.5003398682834234 0.37230879940321404 -0.03830049121950013
0.5082148229414818 0.5013721132297051 -0.03783341205828668
0.4802461227680224 0.4302359569769018 -0.036432174574646446
0.49196046813125477 0.3396319412847234 -0.036432174574646446
0.47771455371424554 0.4273680909270514 -0.036432174574646446
0.3680443666613355 0.3009204204033554 -0.036432174574646446
0.48360909272875885 0.5013721132297051 -0.035965095413433054
0.5179487526611694 0.3866948375685872 -0.03456385792979282
0.4639824263745711 0.31518501798681314 -0.03456385792979282
0.4199462030553703 0.4588492263928357 -0.03456385792979282
0.4862434191980026 0.4195024778522175 -0.03456385792979282
0.5082148229414818 0.48906924812334374 -0.03308788778035841
0.4551919965605347 0.4522820933861751 -0.03269554128493913
0.5281030536259489 0.38600356040999134 -0.03269554128493913
0.4893728495781326 0.41856831952979073 -0.03269554128493913
0.11264548130983952 0.4164290969714333 -0.03269554128493913
0.3554425708917975 0.48315602594238194 -0.030827224640085436
0.14424805735753934 0.3148767457404123 -0.030827224640085436
0.23182540008505487 0.4655751663143089 -0.030827224640085436
0.5328205531542044 0.29220472325511315 -0.030210680147283772
0.07758651946916051 0.4398484461146739 -0.030210680147283772
0.10820822927831213 0.4515254251450093 -0.028958907995231813
0.3737894403442606 0.28132177879884046 -0.028958907995231813
0.5145110500346387 0.37697959101534817 -0.028958907995231813
0.11105741216171403 0.4085915086462722 -0.028958907995231813
0.5082148229414818 0.48906924812334374 -0.02733347251420913
0.3628971543047636 0.28699211981597134 -0.027090591350378123
0.44321608686702263 0.46748084929205974 -0.027090591350378123
0.10007171028997446 0.4525529992996788 -0.027090591350378123
0.43146437517089314 0.3041432666157281 -0.027090591350378123
0.4638890105423285 0.31526909223583155 -0.025222274705524496
0.41384614920992313 0.479643590650057 -0.025222274705524496
0.10008105187319864 0.4581299244845671 -0.025222274705524496
0.40827856560825915 0.29507258930496355 -0.025222274705524496
0.6435556806946812 0.3660312554765057 -0.024456264881134487
0.20062451211599863 0.2552961279360289 -0.024456264881134487
0.4318193553334153 0.4711427499159729 -0.023353958060670806
0.10194002693482801 0.44568693562984163 -0.023353958060670806
0.415723807438001 0.47305777447694786 -0.023353958060670806
0.13979212215956333 0.38928245612170953 -0.023353958060670806
0.58203201357965 0.47676638301698243 -0.021485641415817117
0.10606900671995469 0.3753728387007741 -0.021485641415817117
0.13520540479644758 0.39250530233408204 -0.021485641415817117
0.40466337290046733 0.28075194222216016 -0.021485641415817117
0.5074394715338675 0.3534014349572949 -0.021485641415817117
0.12875037078847815 0.4032668062084392 -0.021485641415817117
0.4121553226463306 0.28882307012792807 -0.01961732477096349
0.5312231424228546 0.3997450293328901 -0.01961732477096349
0.09596141367129642 0.4486108511790376 -0.01961732477096349
0.39925459621361603 0.28917805029045024 -0.01961732477096349
0.2966092797453557 0.31213032027247745 -0.01961732477096349
0.5328205531542044 0.5037355337854451 -0.018701849614985205
0.1246307325865758 0.37151476482915113 -0.0177490081261098
0.3569465657909047 0.4877987928048433 -0.0177490081261098
0.09533552759527038 0.3328686350303531 -0.0177490081261098
0.5031983927500496 0.3440505101498023 -0.0177490081261098
0.19391725536097396 0.3759613584439029 -0.0177490081261098
0.5697291484732885 0.28984130269937325 -0.015880691481256176
0.09988487862548899 0.47676638301698243 -0.015880691481256176
0.102808794174685 0.32879570474457215 -0.015880691481256176
0.09895072030306222 0.34051939169102885 -0.015880691481256176
0.0944761019386377 0.3430042528286843 -0.015880691481256176
0.0944761019386377 0.35805354340298046 -0.015880691481256176
0.3730514552695433 0.28345165977397374 -0.015880691481256176
0.2082379024437773 0.4311140657999831 -0.015880691481256176
0.3419626662991783 0.27973370965071487 -0.014012374836402483
0.0973719927381609 0.321724126243801 -0.014012374836402483
0.09470029993602015 0.3396693076176205 -0.014012374836402483
0.09375680003036906 0.3584832562312969 -0.014012374836402483
0.10737682837135225 0.46232429535226355 -0.014012374836402483
0.48858815658729404 0.4364107434881432 -0.014012374836402483
0.5328205531542044 0.5136749783360665 -0.012947434348835921
0.2375331074350827 0.2749881853727866 -0.012947434348835921
0.46187122856588647 0.46575265639557006 -0.012144058191548793
0.5413867849708585 0.39665296528565724 -0.012144058191548793
0.5333343402315393 0.35457847444355267 -0.012144058191548793
0.1256676483244696 0.4034069299568032 -0.012144058191548793
0.21827076282664146 0.3376421840579543 -0.012144058191548793
0.5375193695160115 0.38459298134312686 -0.012144058191548793
0.10335060600169263 0.38656405540344746 -0.010275741546695168
0.09966068062810654 0.4459017920439999 -0.010275741546695168
0.096923596743396 0.42978756098213694 -0.010275741546695168
0.09981948754291921 0.4723291309854549 -0.010275741546695168
0.22607098481890558 0.292167356922216 -0.010275741546695168
0.28675390944375256 0.2429932628296676 -0.01007022671576128
0.6435556806946812 0.41524271590195116 -0.01007022671576128
0.2688647775692788 0.3450780843044718 -0.008407424901841477
0.4335662313963535 0.4810168033840245 -0.008407424901841477
0.5242169550046534 0.42452824962687385 -0.008407424901841477
0.5481781159749015 0.3989136284259302 -0.008407424901841477
0.5387150921687177 0.39283225774693153 -0.008407424901841477
0.07758651946916051 0.2799018581487517 -0.007193019082686637
0.58203201357965 0.33148608071316144 -0.007193019082686637
0.2688647775692788 0.3450780843044718 -0.006539108256987852
0.4818341919161479 0.45822334031680984 -0.006539108256987852
0.5481314080587802 0.39531711888458687 -0.006539108256987852
0.5569311794560411 0.384807837757285 -0.006539108256987852
0.5283085684568828 0.35852996414741817 -0.006539108256987852
0.4220854256137277 0.2552961279360289 -0.004670791612134162
0.58203201357965 0.33148608071316144 -0.004670791612134162
0.2700791833884336 0.42336989330706465 -0.004670791612134162
0.49597734891769024 0.4496664500833799 -0.004670791612134162
0.5070751497881208 0.44536932180021654 -0.004670791612134162
0.42562588565572546 0.4936933318193566 -0.004670791612134162
0.5210127919587294 0.42149223507898675 -0.004670791612134162
0.5417324235501565 0.392430569668288 -0.004670791612134162
0.11797952533089685 0.3945137427272998 -0.0028024749672804702
0.0979418293148412 0.3960924702922011 -0.0028024749672804702
0.09426124552447956 0.4029398507955898 -0.0028024749672804702
0.08962782024524239 0.3897588768661472 -0.0028024749672804702
0.1308522270139386 0.37303744289470697 -0.0028024749672804702
0.19099333981177793 0.34625512379072965 -0.0028024749672804702
0.5082148229414818 0.2699717551813546 -0.0018402918951808851
0.2688647775692788 0.3377542830566455 -9.341583224268456E-4
0.09731594323881529 0.3065253703379165 -9.341583224268456E-4
0.09461622568700173 0.30057478182405756 -9.341583224268456E-4
0.48017139010222815 0.2965392178711736 -9.341583224268456E-4
0.22014842105471946 0.48069918955439933 -9.341583224268456E-4
0.10403254157706415 0.3005467570743848 -9.341583224268456E-4
0.3816643950023187 0.2754365813675515 -9.341583224268456E-4
0.07758651946916051 0.4275455810083126 9.341583224268456E-4
0.5943442202692357 0.41524271590195116 9.341583224268456E-4
0.2688647775692788 0.42386499721795085 9.341583224268456E-4
0.4291289793648261 0.48839665413119643 9.341583224268456E-4
0.09296276545630618 0.4638469734178193 9.341583224268456E-4
0.11677446109496618 0.36425635466389467 9.341583224268456E-4
0.12194969820121086 0.29746403461037624 9.341583224268456E-4
0.3511641257750826 0.495206668301688 9.341583224268456E-4
0.27858002412251776 0.28098548180276683 9.341583224268456E-4
0.27365700976332835 0.4298249273150341 0.0028024749672804702
0.10012775978932006 0.2968007822014532 0.0028024749672804702
0.5428440719538443 0.3527662072980447 0.0028024749672804702
0.09083288448117305 0.4729176507285838 0.0028024749672804702
0.19097465664532945 0.374887076373112 0.0028024749672804702
0.38176715241778575 0.27326933405952125 0.0028024749672804702
0.49112906722429495 0.45552362276499625 0.0028024749672804702
0.08171549925428717 0.41524271590195116 0.0035217768755491804
0.5943442202692357 0.4275455810083126 0.0035217768755491804
0.2015866951880982 0.423276477474822 0.004670791612134162
0.4401894139023597 0.4869393671482106 0.004670791612134162
0.08854419659122727 0.3002945343273295 0.004670791612134162
0.0982968094773635 0.44960105900081015 0.004670791612134162
0.1654721344430769 0.29121451543334076 0.004670791612134162
0.2967026955775983 0.3909639411020779 0.004670791612134162
0.4232157571838643 0.36534931990113406 0.004670791612134162
0.13354260298252785 0.49274049033048123 0.006193469677689867
0.16735913425437907 0.2675989930423904 0.006193469677689867
0.5451234182605659 0.47676638301698243 0.006193469677689867
0.2700885249716578 0.4232671358915977 0.006539108256987852
0.5560810953826326 0.37263575481606337 0.006539108256987852
0.08910469158468338 0.295614401131971 0.006539108256987852
0.4966499429098376 0.45460814760901797 0.006539108256987852
0.41684479742491326 0.32091140850328964 0.006539108256987852
0.2077708232825639 0.48324010019140035 0.006539108256987852
0.12121171312649359 0.36641426038870073 0.006539108256987852
0.1090489717684963 0.4684990818635049 0.008407424901841477
0.540116329652358 0.34864656909614233 0.008407424901841477
0.09959528954553676 0.30206943513994045 0.008407424901841477
0.5497381603733544 0.3488334007606277 0.008407424901841477
0.44120764647380506 0.2833489023585067 0.008407424901841477
0.32136447528966666 0.442529480500039 0.008407424901841477
0.29030371106897446 0.4476206433572652 0.008407424901841477
0.18667752836216608 0.26950467602014105 0.008874504063054933
0.45900336251603624 0.5319097487898382 0.008874504063054933
0.1095907835955038 0.3956440742974362 0.010275741546695168
0.10555521964261987 0.3697118392668674 0.010275741546695168
0.4202638168849954 0.4582700482329311 0.010275741546695168
0.37137931187239925 0.503137672459092 0.010275741546695168
0.5173322081683677 0.3139145626683127 0.010275741546695168
0.48892445358336767 0.46288479034571967 0.010275741546695168
0.3052502442278039 0.4416793964266306 0.010275741546695168
0.305670615472896 0.43429954567945855 0.010275741546695168
0.10219224968188327 0.5013721132297051 0.010742820707908558
0.5697291484732885 0.47912980357272233 0.011490147365850007
0.341252705974134 0.4786440412450603 0.011490147365850007
0.37023029713581435 0.29032706502703515 0.011490147365850007
0.3637285552117235 0.27093393825345413 0.012144058191548793
0.12011874788925428 0.39346748540618176 0.012144058191548793
0.4213287573725621 0.3119995381073377 0.012144058191548793
0.17664466797930192 0.48611730782447493 0.012144058191548793
0.09985685387581619 0.2826856499495837 0.012144058191548793
0.419693980308315 0.45051653415678844 0.012144058191548793
0.5586500307693064 0.38492927833920054 0.012144058191548793
0.30081299219627633 0.33412974876562934 0.012144058191548793
0.2375331074350827 0.2552961279360289 0.012611137352762248
0.3364231074471873 0.29220472325511315 0.013358464010703699
0.5451234182605659 0.47676638301698243 0.013358464010703699
0.2648292136163949 0.41672802763460987 0.013358464010703699
0.3837195433116577 0.27090591350378135 0.014012374836402483
0.10894621435302926 0.398838895760136 0.014012374836402483
0.0915335032229932 0.47497279903792283 0.014012374836402483
0.08936625591496296 0.366843973217017 0.014012374836402483
0.4311841276741651 0.2661790723923016 0.014012374836402483
0.495827883586102 0.30787989990543535 0.014012374836402483
0.2029038584227201 0.42750821467541544 0.014012374836402483
0.29248029996022906 0.4350655555038485 0.014012374836402483
0.22532365816096414 0.5078271472376745 0.014479453997615873
0.4097825605073664 0.41524271590195116 0.01522678065555739
0.3384408894236292 0.3168197950510602 0.01522678065555739
0.42070287129653605 0.2869267287334016 0.015880691481256176
0.10033327462025389 0.40208042513895714 0.015880691481256176
0.08969321132781231 0.39229044591992396 0.015880691481256176
0.09321498820336142 0.2864409664057395 0.015880691481256176
0.47772389529746984 0.2836384914384591 0.015880691481256176
0.43254799882490824 0.4927124655808084 0.015880691481256176
0.2014185466900614 0.42724665034513604 0.015880691481256176
0.3250076927471313 0.44869492542805606 0.015880691481256176
0.2591308478495912 0.5093311421367817 0.016347770642469565
0.28675390944375256 0.2552961279360289 0.017095097300411016
0.5943442202692357 0.45452407335999956 0.017095097300411016
0.3724442523599659 0.26837434445000463 0.0177490081261098
0.4031126700852388 0.45755074632466247 0.0177490081261098
0.42414057392306687 0.4897698668651639 0.0177490081261098
0.08895522625309518 0.40208042513895714 0.0177490081261098
0.500395917782769 0.4688166956931301 0.0177490081261098
0.41342577796483104 0.5088640629755684 0.0177490081261098
0.4265133360620309 0.4514693756456637 0.0177490081261098
0.2872116470217418 0.3410051540186909 0.0177490081261098
0.19301112178821997 0.43262740228231455 0.0177490081261098
0.2621388376478055 0.45215131122103536 0.018963413945264705
0.5451234182605659 0.2775384375930118 0.018963413945264705
0.1167838026781905 0.3888994512095145 0.01961732477096349
0.1003893241195995 0.3998664699148056 0.01961732477096349
0.4622448918948573 0.2821905460386975 0.01961732477096349
0.08932888958206583 0.3759800416103515 0.01961732477096349
0.4136780007118863 0.4481624551842727 0.01961732477096349
0.43762047851568603 0.26525425565309896 0.01961732477096349
0.4978269823960954 0.46371619125267954 0.01961732477096349
0.2013438140242673 0.42731204142770585 0.01961732477096349
0.32516649966194383 0.4496477669169314 0.01961732477096349
0.41063264458077475 0.3783341205828671 0.02083173059011833
0.5943442202692357 0.3537283903701443 0.02083173059011833
0.31135963965647534 0.4029398507955898 0.02083173059011833
0.4156677579386554 0.45191777164042857 0.021485641415817117
0.12048306963500076 0.3861810504912525 0.021485641415817117
0.20157735360487405 0.4909749311010946 0.021485641415817117
0.10262196251019967 0.2890752928749832 0.021485641415817117
0.5777348852964866 0.38969348578357726 0.021485641415817117
0.4429918888696402 0.5028667665455879 0.021485641415817117
0.4307357316794002 0.456317657339059 0.021485641415817117
0.3230272771035864 0.443192732908962 0.021485641415817117
0.3323128108285091 0.45372069720271235 0.021485641415817117
0.31135963965647534 0.3783341205828671 0.022700047234972022
0.6189499504819583 0.3783341205828671 0.022700047234972022
0.4097825605073664 0.41524271590195116 0.022700047234972022
0.3397860774079239 0.5018578755573672 0.023353958060670806
0.4255231282402585 0.27335340830853966 0.023353958060670806
0.14228632488044293 0.28443252601252184 0.023353958060670806
0.09152416163976888 0.4698909777639209 0.023353958060670806
0.4778266527129368 0.2833956102746281 0.023353958060670806
0.5646940351154079 0.4179144087040919 0.023353958060670806
0.47713537555434093 0.47849457591347194 0.023353958060670806
0.270266015052919 0.34577870304629194 0.023353958060670806
0.19475799785115813 0.42929245707125074 0.023353958060670806
0.32366250476283676 0.5191304629390392 0.023821037221884195
0.5697291484732885 0.4398484461146739 0.02456836387982571
0.33890796858484257 0.32912266015742153 0.02456836387982571
0.4075032142006449 0.31456847349401157 0.025222274705524496
0.1042100316583253 0.47331933880722743 0.025222274705524496
0.09812866097932667 0.48053104105636246 0.025222274705524496
0.08992675090841908 0.4001373758283093 0.025222274705524496
0.5120822383963287 0.3032091082933012 0.025222274705524496
0.5511767641898917 0.4358315653282386 0.025222274705524496
0.5275145338828201 0.4445566040597052 0.025222274705524496
0.2028945168394958 0.42386499721795085 0.025222274705524496
0.1964114580818537 0.4309178925522735 0.025222274705524496
0.32265361377461577 0.2429932628296676 0.025689353866737888
0.6312528155883198 0.41761547804091537 0.026436680524679335
0.3388612606687213 0.32912266015742153 0.026436680524679335
0.4269804152232443 0.2769405762666587 0.027090591350378123
0.4047848134823829 0.32868360574588096 0.027090591350378123
0.42186122761634537 0.5028107170462424 0.027090591350378123
0.08997345882454037 0.2968007822014532 0.027090591350378123
0.5364450874452206 0.32191095790828633 0.027090591350378123
0.4895690228258421 0.28346100135719793 0.027090591350378123
0.5318396869156563 0.32689002176682136 0.027090591350378123
0.2014559130229585 0.4231083289767852 0.027090591350378123
0.19886829446983617 0.4318613924579246 0.027090591350378123
0.31709537175617614 0.24657108920456233 0.027557670511591578
0.5451234182605659 0.47676638301698243 0.02830499716953303
0.2829518850714754 0.32158400249543695 0.02830499716953303
0.11272021397563375 0.39578419804580023 0.028958907995231813
0.29592734416998406 0.3275906405086415 0.028958907995231813
0.29333038403363754 0.3810431797179049 0.028958907995231813
0.25256371484293055 0.49870976201078865 0.028958907995231813
0.4022439028453818 0.26171379561110136 0.028958907995231813
0.3187675151533202 0.5128622605955553 0.028958907995231813
0.574343890586077 0.4108801965362178 0.028958907995231813
0.5246653509994182 0.31903375027521175 0.028958907995231813
0.3475582746505151 0.24553417346666864 0.0294259871564452
0.5328205531542044 0.48906924812334374 0.030173313814386652
0.2621388376478055 0.31533448331840147 0.030173313814386652
0.10832966986022766 0.3979514453538305 0.030827224640085436
0.29629166591573053 0.33252299645105526 0.030827224640085436
0.28080332092989363 0.3685067750309367 0.030827224640085436
0.2933677503665345 0.5044174693608168 0.030827224640085436
0.3272123063880587 0.2618445777762411 0.030827224640085436
0.41473359961622863 0.5104054242075726 0.030827224640085436
0.5845262163005295 0.3712345173324231 0.030827224640085436
0.5656842429371803 0.3619863499403975 0.030827224640085436
0.341252705974134 0.2429932628296676 0.03129430380129889
0.58203201357965 0.33148608071316144 0.03204163045924034
0.2648292136163949 0.3537283903701443 0.03204163045924034
0.20113829919333345 0.3468436435338586 0.03269554128493913
0.2922374187963981 0.44534129705054376 0.03269554128493913
0.41692887167393167 0.32050972042464615 0.03269554128493913
0.30693172920817213 0.5057066078457656 0.03269554128493913
0.3688570844018469 0.2621621916058661 0.03269554128493913
0.42071221287976035 0.44152058951181794 0.03269554128493913
0.3987781754691783 0.5010825241497527 0.03269554128493913
0.48629946869734825 0.2942318468147794 0.03269554128493913
0.2621388376478055 0.45215131122103536 0.033909947104094035
0.5697291484732885 0.2799018581487517 0.033909947104094035
0.11548532261001711 0.39036607977572463 0.03456385792979282
0.2960487847518996 0.3421821935049486 0.03456385792979282
0.3033725859997259 0.43314118935964935 0.03456385792979282
0.578725093118259 0.3975217325255142 0.03456385792979282
0.27929932603078644 0.2657680427304338 0.03456385792979282
0.5193499901448096 0.3026392717166209 0.03456385792979282
0.35227577417877054 0.2497752522504864 0.03456385792979282
0.44012402281978996 0.30982294921608317 0.03456385792979282
0.4401146812365656 0.45798980073620305 0.03456385792979282
0.5082148229414818 0.5013721132297051 0.03577826374894766
0.37023029713581435 0.2424888173355571 0.03577826374894766
0.11549466419324142 0.3803986104754304 0.036432174574646446
0.19595372050386448 0.3407716144380841 0.036432174574646446
0.18857386975669244 0.3390527631248188 0.036432174574646446
0.43013787035304707 0.5044922020266107 0.036432174574646446
0.3277914845479633 0.25728588516279816 0.036432174574646446
0.39007181990416023 0.515636710813163 0.036432174574646446
0.5229278165197042 0.4692650916878949 0.036432174574646446
0.5711490691233774 0.4051631476029657 0.036432174574646446
0.4097825605073664 0.3537283903701443 0.03764658039380135
0.5943442202692357 0.34378894581952285 0.03764658039380135
0.2621388376478055 0.41524271590195116 0.03764658039380135
0.27062099521544114 0.34820751468460176 0.03830049121950013
0.2867165431108554 0.4334307784396016 0.03830049121950013
0.4253736629086702 0.4394093917031333 0.03830049121950013
0.33276120682327404 0.5112741914474295 0.03830049121950013
0.41416376303954816 0.26021914229521836 0.03830049121950013
0.4207589207958816 0.5029975487107278 0.03830049121950013
0.4407779336454887 0.5106763301210764 0.03830049121950013
0.506972392372654 0.4692557501046707 0.03830049121950013
0.4097825605073664 0.364545943743847 0.039514897038654975
0.6189499504819583 0.4029398507955898 0.039514897038654975
0.309117659682651 0.3667785821344472 0.039514897038654975
0.2029038584227201 0.4280780512520959 0.04016880786435376
0.32841737062398935 0.31855732953077404 0.04016880786435376
0.28080332092989363 0.3881614661347974 0.04016880786435376
0.3320886128311267 0.5112555082809811 0.04016880786435376
0.3593006447634204 0.2524189203029544 0.04016880786435376
0.3040078136589761 0.5109846023674771 0.04016880786435376
0.5210034503755051 0.4727868685634441 0.04016880786435376
0.5799862068535352 0.39599905445995853 0.04016880786435376
0.37358392551332664 0.23069039772330616 0.04063588702556722
0.5328205531542044 0.2822746202877159 0.04138321368350867
0.3822155484125505 0.532180654703342 0.04138321368350867
0.1968785372430671 0.4220994379885642 0.04203712450920745
0.29981344279127964 0.43495345650515743 0.04203712450920745
0.4398718000727347 0.4987471283436856 0.04203712450920745
0.3781986676261152 0.5149174089048942 0.04203712450920745
0.4043831254037393 0.257491399993732 0.04203712450920745
0.4342948748878464 0.4994477470855059 0.04203712450920745
0.433304667066074 0.5139739089992432 0.04203712450920745
0.5560530706329596 0.42920838282223234 0.04203712450920745
0.3851768302946436 0.23069039772330616 0.04250420367042084
0.2621388376478055 0.31533448331840147 0.043251530328362355
0.5328205531542044 0.48906924812334374 0.043251530328362355
0.20113829919333345 0.4220994379885642 0.04390544115406114
0.2996452942932428 0.4345704515929623 0.04390544115406114
0.43775126068082576 0.502792033879794 0.04390544115406114
0.381187974257881 0.5171780720451671 0.04390544115406114
0.4370226171893328 0.3149888447391035 0.04390544115406114
0.4128372582217021 0.4551499594360255 0.04390544115406114
0.3251758412451682 0.518289720448855 0.04390544115406114
0.44317872053412566 0.5015682864774148 0.04390544115406114
0.4040468284076656 0.5382807085487894 0.04511984697321598
0.5082148229414818 0.2772488485130596 0.04511984697321598
0.31766520833285644 0.4594003798030675 0.04511984697321598
0.27036877246838587 0.4307123777213395 0.045773757798914766
0.2908455228959821 0.43626127815655485 0.045773757798914766
0.4375737705995646 0.26354474592305793 0.045773757798914766
0.4350422015457879 0.5062484196727733 0.045773757798914766
0.3953311312594233 0.25082150957160443 0.045773757798914766
0.3266331282281541 0.2610318600357297 0.045773757798914766
0.43759245376601325 0.31116813720037784 0.045773757798914766
0.4510069672760625 0.4902462876096016 0.045773757798914766
0.6189499504819583 0.3390527631248188 0.04698816361806967
0.2621388376478055 0.4029398507955898 0.04698816361806967
0.2954882897584435 0.3354655951666997 0.04764207444376846
0.29169560696939045 0.4383631343820153 0.04764207444376846
0.43538784012508586 0.2619379936084838 0.04764207444376846
0.41110906532521246 0.5121429586872867 0.04764207444376846
0.5283365932065557 0.3020040440573705 0.04764207444376846
0.40229061076150313 0.24759866335923184 0.04764207444376846
0.45044647228260637 0.3125880578504666 0.04764207444376846
0.3992172298807189 0.23069039772330616 0.048109153604981844
0.5328205531542044 0.2822746202877159 0.048856480262923295
0.3088747785188199 0.3660312554765057 0.048856480262923295
0.43808755767689944 0.2618539193594654 0.04951039108862208
0.4340893600569126 0.2609197610370385 0.04951039108862208
0.41787237157958274 0.4527771972970613 0.04951039108862208
0.42055340596494784 0.503137672459092 0.04951039108862208
0.5699720296371196 0.3503934451590805 0.04951039108862208
0.2980572251451173 0.4410628519338289 0.04951039108862208
0.32120566837485415 0.45165620731014916 0.04951039108862208
0.43008182085370145 0.46446351791062096 0.05072479690777699
0.58203201357965 0.4398484461146739 0.05072479690777699
0.5169398616729484 0.4723291309854549 0.051378707733475776
0.3772458261372398 0.25335307862538115 0.051378707733475776
0.407783461697373 0.5179160571198844 0.051378707733475776
0.4914373394706957 0.4957297969622471 0.051378707733475776
0.5464499230784119 0.4451451238028341 0.051378707733475776
0.27604845506874104 0.4276576800070038 0.051378707733475776
0.29058395856570257 0.3323268232033456 0.051378707733475776
0.2648292136163949 0.4029398507955898 0.05259311355263068
0.6435556806946812 0.3660312554765057 0.05259311355263068
0.5863384834460378 0.36451791899417424 0.05324702437832946
0.37620891039934606 0.25286731629771925 0.05324702437832946
0.38922173583075176 0.5233528585564086 0.05324702437832946
0.3890068794165936 0.526958709680976 0.05324702437832946
0.584021770806419 0.36610598814229983 0.05324702437832946
0.2960674679183481 0.43847523338070654 0.05324702437832946
0.30454962548598374 0.4353644861670252 0.05324702437832946
0.2648292136163949 0.3660312554765057 0.054461430197484305
0.6189499504819583 0.4299183431472768 0.054461430197484305
0.5303263504333248 0.46445417632739666 0.05511534102318309
0.4286899249532855 0.26229297377100597 0.05511534102318309
0.4334728155641109 0.2670852059650555 0.05511534102318309
0.5557915063026803 0.43366431802020833 0.05511534102318309
0.27304980685375096 0.4254717495325251 0.05511534102318309
0.2029038584227201 0.3377449414734212 0.05511534102318309
0.2926484484582659 0.38036124414253325 0.05511534102318309
0.41342577796483104 0.3537283903701443 0.056329746842338
0.45900336251603624 0.5382807085487894 0.056329746842338
0.40918469918101313 0.514870700988773 0.05698365766803678
0.5275892665486142 0.4719367844900356 0.05698365766803678
0.5236004105118516 0.4791111204062737 0.05698365766803678
0.45392154124203415 0.31655823072078065 0.05698365766803678
0.27794479646326753 0.3468436435338586 0.05698365766803678
0.29159284955392356 0.44593915837689685 0.05698365766803678
0.5082148229414818 0.4968040790330378 0.05819806348719162
0.4353598153754131 0.46446351791062096 0.05819806348719162
0.5282712021239858 0.4676770225397692 0.0588519743128904
0.4308291475116429 0.257594157409199 0.0588519743128904
0.4186010150710757 0.45305744479378934 0.0588519743128904
0.4063448578808357 0.45880251847671444 0.0588519743128904
0.461329416738879 0.4952627178010336 0.0588519743128904
0.27062099521544114 0.3468436435338586 0.0588519743128904
0.30053274469954827 0.32675923960168163 0.0588519743128904
0.6312528155883198 0.4275455810083126 0.06006638013204531
0.4137247086280076 0.4029398507955898 0.06006638013204531
0.5761468161483609 0.345395698134097 0.060720290957744096
0.4110997237419883 0.2521666975558991 0.060720290957744096
0.4108568425781572 0.4450890743034885 0.060720290957744096
0.4064943232124239 0.3100751719631384 0.060720290957744096
0.46170308006784966 0.4475178859417983 0.060720290957744096
0.2688647775692788 0.43125418954834716 0.060720290957744096
0.2962449579996092 0.4499186728304352 0.060720290957744096
0.4026455909240254 0.46446351791062096 0.061934696776899
0.5328205531542044 0.5037355337854451 0.061934696776899
0.4476626804817744 0.507630973989965 0.06258860760259778
0.5960724131657253 0.4042663556134359 0.06258860760259778
0.5051040757278005 0.4925349754995472 0.06258860760259778
0.47001708913744844 0.2794628037372111 0.06258860760259778
0.26978959430848126 0.42739611567672425 0.06258860760259778
0.19671973032825443 0.3406501738561686 0.06258860760259778
0.28782819151454336 0.32222857173791153 0.06258860760259778
0.40104818019267546 0.45215131122103536 0.06380301342175262
0.5451234182605659 0.5013721132297051 0.06380301342175262
0.4109222336607271 0.520130012344036 0.0644569242474514
0.46890544073376056 0.5056785830960929 0.0644569242474514
0.4011415960249182 0.5274818383415352 0.0644569242474514
0.48631815186379684 0.416036750476014 0.0644569242474514
0.26978959430848126 0.42739611567672425 0.0644569242474514
0.19373976527971293 0.3468436435338586 0.0644569242474514
0.19331005245139654 0.3309069025532568 0.0644569242474514
0.2621388376478055 0.3783341205828671 0.06567133006660632
0.6189499504819583 0.4029398507955898 0.06567133006660632
0.589168983162991 0.3584925978145212 0.0663252408923051
0.4501755663691026 0.2656279189820698 0.0663252408923051
0.4486248635538741 0.26890681469378797 0.0663252408923051
0.4424127107097356 0.32093009166973824 0.0663252408923051
0.4895409980761694 0.28019144722870404 0.0663252408923051
0.2724239207777249 0.3431256934105997 0.0663252408923051
0.19380515636228274 0.423696848719914 0.0663252408923051
0.19185276546841062 0.3313833232976945 0.0663252408923051
0.3083796746079337 0.4028651181297957 0.06753964671145994
0.6435556806946812 0.3537283903701443 0.06753964671145994
0.29962661112679434 0.4420624013388256 0.06819355753715872
0.29012622098771346 0.3318784272085807 0.06819355753715872
0.41474294119945293 0.4558972860939669 0.06819355753715872
0.46392637687522553 0.5015309201445176 0.06819355753715872
0.5203495395498063 0.2877581296403614 0.06819355753715872
0.5308401375106596 0.47855062541281757 0.06819355753715872
0.4097825605073664 0.36035157287615055 0.06866063669837218
0.4545567689012845 0.3000423115802742 0.06940796335631363
0.5697291484732885 0.28984130269937325 0.06940796335631363
0.30266262567468155 0.44290314382900975 0.07006187418201242
0.30411057107444317 0.43577551582889296 0.07006187418201242
0.4237202026779748 0.36510643873730314 0.07006187418201242
0.47081112371151135 0.26932718593888005 0.07006187418201242
0.6049469172287801 0.37272917064830613 0.07006187418201242
0.4049436203971954 0.5271922492615828 0.07006187418201242
0.28173747925232057 0.44444450506101396 0.07127628000116733
0.4586296991870654 0.4646503495751063 0.07127628000116733
0.19760718073456005 0.42303359631099097 0.07193019082686611
0.1950195621814377 0.33785704047211246 0.07193019082686611
0.3199071883066809 0.3171000425477881 0.07193019082686611
0.4150418718626295 0.312915013263316 0.07193019082686611
0.4766682963931275 0.2691964037737402 0.07193019082686611
0.610645282995584 0.38213614495514425 0.07193019082686611
0.42032920796756534 0.5083502758982337 0.07193019082686611
0.28324147415142764 0.45215131122103536 0.07314459664602095
0.4586390407702898 0.4647531069905734 0.07314459664602095
0.2948156957662961 0.3303837738926978 0.07379850747171973
0.4180405200776196 0.31910848294100586 0.07379850747171973
0.4219733266150365 0.5167670423832992 0.07379850747171973
0.4643654312867662 0.26375026075399177 0.07379850747171973
0.5798273999387227 0.33099097680227524 0.07379850747171973
0.27444170275416696 0.47676638301698243 0.07501291329087464
0.471670549368144 0.4786440412450603 0.07501291329087464
0.2947689878501748 0.33033706597657636 0.07566682411657343
0.41818998540920793 0.31905243344166023 0.07566682411657343
0.42202937611438207 0.5161598394737218 0.07566682411657343
0.4167420400094463 0.2521199896397778 0.07566682411657343
0.49451072035148 0.267309403962438 0.07566682411657343
0.5126333918065605 0.30279807863143343 0.07566682411657343
0.3082021845266727 0.3660312554765057 0.07688122993572827
0.6189499504819583 0.4029398507955898 0.07688122993572827
0.32340094043255724 0.45021760349361173 0.07753514076142705
0.4078208280302701 0.45938169663661904 0.07753514076142705
0.4967713834917531 0.2758756357790921 0.07753514076142705
0.6073009962012959 0.39780198002224226 0.07753514076142705
0.41110906532521246 0.5276032789234507 0.07753514076142705
0.6189499504819583 0.32912266015742153 0.07874954658058196
0.2815413060046109 0.3234803438899635 0.07874954658058196
0.2946755720179321 0.33024365014433377 0.07940345740628074
0.4522307146784416 0.45174028155916757 0.07940345740628074
0.42712053897160834 0.5159449830595637 0.07940345740628074
0.4260088905679204 0.25296073212996184 0.07940345740628074
0.41203388206441505 0.25828543456779485 0.07940345740628074
0.5340443005565836 0.4659021217271583 0.07940345740628074
0.5451234182605659 0.5013721132297051 0.08061786322543564
0.31135963965647534 0.41524271590195116 0.08061786322543564
0.3307527664300564 0.45519666735214676 0.08127177405113443
0.4090539170158734 0.44190359442401306 0.08127177405113443
0.5273277022183347 0.292690485582775 0.08127177405113443
0.5949701063452617 0.4178677007879706 0.08127177405113443
0.4128746245545992 0.5112461666977568 0.08127177405113443
0.6435556806946812 0.3537283903701443 0.08248617987028928
0.4847207411324468 0.29220472325511315 0.08248617987028928
0.30175649210192745 0.3256102248650966 0.08314009069598806
0.41206190681408783 0.4561401672577979 0.08314009069598806
0.5116058176518912 0.4852952485007394 0.08314009069598806
0.5157815053531392 0.2865717485708794 0.08314009069598806
0.48376789964357136 0.2610972511182996 0.08314009069598806
0.5341003500559292 0.30951467696968227 0.08314009069598806
0.33382614731084065 0.3076089939919316 0.08435449651514296
0.5943442202692357 0.314447032912096 0.08435449651514296
0.3205517575491553 0.4547295881909334 0.08500840734084175
0.4084093477733989 0.4596058946340015 0.08500840734084175
0.5431616857834695 0.3029008360469003 0.08500840734084175
0.609991372169885 0.39831576709957695 0.08500840734084175
0.43393989472532424 0.5229231457280923 0.08500840734084175
0.31135963965647534 0.41524271590195116 0.08622281315999658
0.4959119578351203 0.32912266015742153 0.08622281315999658
0.2946662304347078 0.43603708015917253 0.08687672398569538
0.4210204851261612 0.45007747974524787 0.08687672398569538
0.4312214940070622 0.5166082354684867 0.08687672398569538
0.4686345348202568 0.2628814935141349 0.08687672398569538
0.43220236024561043 0.26071424620610467 0.08687672398569538
0.5423583096261825 0.4635667259210912 0.08687672398569538
0.31653487676272 0.30845907806533995 0.08809112980485027
0.6435556806946812 0.3537283903701443 0.08809112980485027
0.32226126727919646 0.3191551908571273 0.08874504063054907
0.4207589207958816 0.31134562728163884 0.08874504063054907
0.5346795282158339 0.2983701681831302 0.08874504063054907
0.6001453434515062 0.35419546953135767 0.08874504063054907
0.5349691172957862 0.4818668874574329 0.08874504063054907
0.31135963965647534 0.41524271590195116 0.08995944644970397
0.46637387167998384 0.3783341205828671 0.08995944644970397
0.29437664135475555 0.3299634026476057 0.09061335727540275
0.4302593109349625 0.4508248064031893 0.09061335727540275
0.43482734513162974 0.5157768345615268 0.09061335727540275
0.53977069107306 0.3002291432447596 0.09061335727540275
0.5450393440115475 0.4483679700152067 0.09061335727540275
0.5985946406362777 0.4065270187537089 0.09061335727540275
0.2808126625131179 0.32912266015742153 0.09182776309455759
0.60960836725769 0.4398484461146739 0.09182776309455759
0.3191692032319636 0.4446126535590508 0.09248167392025639
0.4170036043397258 0.4558038702617243 0.09248167392025639
0.5371270230205922 0.47188073499069 0.09248167392025639
0.5495513287088689 0.3173429237116192 0.09248167392025639
0.43598570145143895 0.24215252033948342 0.09248167392025639
0.5687856485676374 0.4236688239702412 0.09248167392025639
0.2621388376478055 0.3783341205828671 0.09369607973941128
0.5861609933647766 0.31855732953077404 0.09369607973941128
0.2986083785553491 0.32533931895159285 0.09434999056511006
0.4286338754539399 0.34550779713278823 0.09434999056511006
0.4505492296980734 0.42824619975013273 0.09434999056511006
0.5564641002948276 0.31567078031447515 0.09434999056511006
0.4960987894996058 0.491899747840297 0.09434999056511006
0.585721938953236 0.3451247922205931 0.09434999056511006
0.3076416895332166 0.36804903745294765 0.09556439638426491
0.4959119578351203 0.3168197950510602 0.09556439638426491
0.5943442202692357 0.44479948522353613 0.09556439638426491
0.3034286354990715 0.3325043132846066 0.09621830720996369
0.4595451743430437 0.45935367188694626 0.09621830720996369
0.5604903226644873 0.45106768756702026 0.09621830720996369
0.5365758696103604 0.29084085210436994 0.09621830720996369
0.606749842791064 0.3536723408707987 0.09621830720996369
0.5875995971813138 0.3170159682987699 0.09668538637117716
0.2621388376478055 0.341425525263783 0.0974327130291186
0.5943442202692357 0.30451692994469876 0.0974327130291186
0.3029708979210824 0.44386532690110936 0.09808662385481738
0.4215155890370474 0.4465930692025957 0.09808662385481738
0.5565201497941732 0.4582607066497068 0.09808662385481738
0.4678311586629697 0.2611906669505422 0.09808662385481738
0.5694489009765606 0.3352881050854386 0.09808662385481738
0.5510366404415278 0.3159603693944274 0.09808662385481738
0.2621388376478055 0.4398484461146739 0.0993010296739723
0.44670049740967477 0.5382807085487894 0.0993010296739723
0.318973029984254 0.44479948522353613 0.09995494049967107
0.4195351733935025 0.45470156344126056 0.09995494049967107
0.43326730073317693 0.5170753146297002 0.09995494049967107
0.4867758894417858 0.26797265637136114 0.09995494049967107
0.5785476030369979 0.32441450221239027 0.09995494049967107
0.5897107949899985 0.34618039112493554 0.09995494049967107
0.3370116271903161 0.4398484461146739 0.10116934631882592
0.4959119578351203 0.4029398507955898 0.10116934631882592
0.30071023478080944 0.3251431457038832 0.1018232571445247
0.4253362965757732 0.34681561878418576 0.1018232571445247
0.4213287573725621 0.3406314906897201 0.1018232571445247
0.5831903698994592 0.43812959480140856 0.1018232571445247
0.581863865081613 0.42386499721795085 0.1018232571445247
0.5787531178679317 0.3512155044828161 0.1018232571445247
0.5892810821616823 0.4278538532547135 0.1018232571445247
0.41474294119945293 0.3660312554765057 0.10303766296367961
0.5451234182605659 0.2675989930423904 0.10303766296367961
0.3184685844901435 0.31664230496979906 0.10369157378937839
0.4200209357211645 0.46074556778736225 0.10369157378937839
0.559537481175612 0.46242705276773044 0.10369157378937839
0.5604622979148144 0.3124199093524298 0.10369157378937839
0.5858620627015999 0.4469293661986694 0.10369157378937839
0.2808126625131179 0.46446351791062096 0.10490597960853323
0.46755091116624165 0.3783341205828671 0.10490597960853323
0.5700561038861381 0.4256679227802346 0.10490597960853323
0.5319424443311233 0.48699541664755625 0.10555989043423201
0.6008553037765507 0.40969381546673583 0.10555989043423201
0.5045435807343444 0.26702915646570996 0.10555989043423201
0.45800381311103955 0.30884208297753507 0.10555989043423201
0.322242584112748 0.31837049786628874 0.10555989043423201
0.2808126625131179 0.3783341205828671 0.10677429625338693
0.5943442202692357 0.314447032912096 0.10677429625338693
0.5310363107583691 0.47898033824113395 0.10742820707908571
0.6194543959760688 0.38659208015312024 0.10742820707908571
0.5523631452593738 0.3050307170220336 0.10742820707908571
0.4268216083084318 0.3789693482421173 0.10742820707908571
0.41643376776304547 0.35003846499655833 0.10742820707908571
0.3019526653496371 0.43615852074108796 0.10742820707908571
0.6435556806946812 0.3783341205828671 0.10864261289824062
0.4959119578351203 0.3660312554765057 0.10864261289824062
0.3073147341203672 0.3537283903701443 0.10864261289824062
0.5813781027539512 0.4527585141306128 0.1092965237239394
0.6055541201383575 0.34723599002927785 0.1092965237239394
0.5411065374741304 0.2916815945945541 0.1092965237239394
0.4224030394433529 0.44693870778189354 0.1092965237239394
0.43388384522597867 0.44152058951181794 0.1092965237239394
0.32171945545218883 0.3186414037797925 0.1092965237239394
0.2621388376478055 0.41524271590195116 0.11051092954309424
0.46826087149128615 0.2464309654561983 0.11051092954309424
0.5806307760960097 0.42124935391515567 0.11051092954309424
0.4449349381802881 0.5225214576494487 0.11116484036879302
0.6201923810507861 0.38640524848863494 0.11116484036879302
0.5010404870252437 0.2730638192285873 0.11116484036879302
0.4287553160358554 0.37298139339536135 0.11116484036879302
0.4167420400094463 0.349748875916606 0.11116484036879302
0.3026252593417844 0.44418294073073455 0.11116484036879302
0.46684095084119737 0.2429932628296676 0.11237924618794792
0.2843437809718914 0.4552433752682682 0.11237924618794792
0.583741523309691 0.4275455810083126 0.11237924618794792
0.5440678193562235 0.47098394300116037 0.11303315701364672
0.6030692590007023 0.41359859725448 0.11303315701364672
0.5103260207501664 0.2731759182272785 0.11303315701364672
0.41827405965822634 0.4572704988279344 0.11303315701364672
0.43268812257327227 0.4253970168667308 0.11303315701364672
0.2939189037767663 0.333840159685677 0.11303315701364672
0.47130622762239754 0.5259778434424279 0.1135002361748601
0.6312528155883198 0.3513556282311801 0.11424756283280156
0.2621388376478055 0.3906369856892284 0.11424756283280156
0.5734844649294445 0.45395423678331914 0.11490147365850034
0.5932512550319962 0.4144580229111127 0.11490147365850034
0.4471302102379912 0.26207811735684783 0.11490147365850034
0.427073831055487 0.3405380748574774 0.11490147365850034
0.44490691343061534 0.32678726435135447 0.11490147365850034
0.32241073261078484 0.3177819781231598 0.11490147365850034
0.48360909272875885 0.5176825175392776 0.11611587947765524
0.4765001478950907 0.246384257540077 0.11611587947765524
0.2805791229325112 0.4358222237450143 0.11611587947765524
0.528626182286508 0.4860332335754565 0.11676979030335403
0.6140549608724417 0.35637205842261227 0.11676979030335403
0.525945147901143 0.27712740793114404 0.11676979030335403
0.4619833275645777 0.30967348388449495 0.11676979030335403
0.44161867613567285 0.3269273880997185 0.11676979030335403
0.3205517575491553 0.44961040058403434 0.11676979030335403
0.5947178835982063 0.4275455810083126 0.11798419612250893
0.4685784853209112 0.3537283903701443 0.11798419612250893
0.307062511373312 0.3906369856892284 0.11798419612250893
0.5783234050396154 0.45741996415952263 0.11863810694820773
0.4790504001153159 0.26361013700562774 0.11863810694820773
0.4278491824631013 0.38034256097608476 0.11863810694820773
0.4219733266150365 0.3518507321420664 0.11863810694820773
0.29511462642947267 0.32475079920846395 0.11863810694820773
0.4765001478950907 0.5259778434424279 0.11910518610942111
0.6312528155883198 0.41761547804091537 0.11985251276736256
0.42473843524941995 0.3016210391451756 0.11985251276736256
0.51908842581453 0.4873877631429755 0.12050642359306135
0.6214161284531653 0.3725236558173722 0.12050642359306135
0.5324375482420094 0.2981646533521964 0.12050642359306135
0.44790556164560547 0.44322075765863483 0.12050642359306135
0.29359194836391694 0.3292254175728884 0.12050642359306135
0.48615934494898405 0.5206437994213707 0.1209735027542748
0.5943442202692357 0.46446351791062096 0.12172082941221625
0.28719296385529314 0.31213032027247745 0.12172082941221625
0.5667958913408683 0.4543092169458413 0.12237474023791504
0.6179036931608403 0.3860315851596641 0.12237474023791504
0.571868371031646 0.3139145626683127 0.12237474023791504
0.46293616905345314 0.45115176181603867 0.12237474023791504
0.29342379986588013 0.32474145762523976 0.12237474023791504
0.5082148229414818 0.2610972511182996 0.12284181939912843
0.2714804208720738 0.4059011326776828 0.12358914605706987
0.6312528155883198 0.341425525263783 0.12358914605706987
0.5215078958696155 0.5013721132297051 0.12358914605706987
0.4913158988887804 0.5102466172927601 0.12424305688276867
0.5670294309214751 0.31458715666046005 0.12424305688276867
0.44644827466261955 0.31663296338657476 0.12424305688276867
0.29349853253167424 0.32913200174064583 0.12424305688276867
0.5082148229414818 0.5078831967370201 0.12471013604398212
0.6066470853755971 0.4422212082536381 0.12545746270192357
0.4097825605073664 0.4029398507955898 0.12545746270192357
0.3068756797088265 0.3660312554765057 0.12545746270192357
0.5559783379671657 0.45414106844780444 0.12611137352762236
0.4666821439263847 0.255856622929485 0.12611137352762236
0.4476720220649987 0.45256234088290315 0.12611137352762236
0.42163702961896293 0.4153174485677454 0.12611137352762236
0.3194774754783645 0.3131765775935956 0.12611137352762236
0.6300851176852862 0.4029398507955898 0.12732577934677725
0.4106700109136719 0.3783341205828671 0.12732577934677725
0.4058590955531737 0.30451692994469876 0.12732577934677725
0.5050760509781275 0.49929828175391766 0.12797969017247604
0.6192395395619107 0.4081991621508529 0.12797969017247604
0.564002757956812 0.32149058666319436 0.12797969017247604
0.4282228457920721 0.34774043552338824 0.12797969017247604
0.2987858686366101 0.4391478273728539 0.12797969017247604
0.4080730507773252 0.302368365803117 0.12844676933368943
0.4168167726752404 0.36091206786960667 0.12844676933368943
0.5609480602424762 0.29220472325511315 0.12844676933368943
0.5167623715916873 0.4847627782569561 0.12984800681732966
0.6012663334384184 0.3610615332011949 0.12984800681732966
0.5758665686516329 0.31180336485962806 0.12984800681732966
0.4249439500803539 0.34851578693100266 0.12984800681732966
0.32021546055308175 0.44993735599688384 0.12984800681732966
0.2621388376478055 0.31829576520049446 0.13031508597854313
0.4694565941439925 0.3783341205828671 0.13031508597854313
0.5248054747477822 0.2691403542743947 0.13031508597854313
0.5165661983439777 0.49871910359401295 0.13171632346218337
0.6296647464401942 0.39321526265912654 0.13171632346218337
0.4224964552755956 0.451618840977252 0.13171632346218337
0.4280453557108109 0.3584365483151756 0.13171632346218337
0.32015941105373613 0.31893099285974486 0.13171632346218337
0.630664295845191 0.4029398507955898 0.13218340262339676
0.4959119578351203 0.4275455810083126 0.13218340262339676
0.27444170275416696 0.3660312554765057 0.13218340262339676
