0.6480738716492819 0.4410857621467027 -0.23963962916116335
0.1253022533015565 0.3626744847292489 -0.23963962916116335
0.5630042840385715 0.42337326781739937 -0.23815118425954118
0.42293169582991813 0.5013876265944208 -0.23815118425954118
0.27856246333858203 0.48360567150304173 -0.23815118425954118
0.5407569942423261 0.3637560880244276 -0.23815118425954118
0.5043198630506164 0.5587126012388945 -0.23765503595900048
0.5435255017593432 0.24504764563705703 -0.23765503595900048
0.24292909239374824 0.5195069625301676 -0.23765503595900048
0.14455280736253606 0.335426020063553 -0.23616659105737836
0.4813878885996248 0.3090706223388305 -0.23616659105737836
0.15764119953080005 0.4159806581393429 -0.23616659105737836
0.5739890074125431 0.4055416978959663 -0.23616659105737836
0.5435255017593432 0.5587126012388945 -0.23567044275683763
0.5043198630506164 0.24504764563705703 -0.23567044275683763
0.24292909239374824 0.5064384162939253 -0.23567044275683763
0.14737092970960736 0.4789518004439698 -0.2341819978552155
0.4514800690430306 0.2993163467502001 -0.2341819978552155
0.15456508006744762 0.41734010448282444 -0.2341819978552155
0.5713891903177097 0.4134800707046176 -0.2341819978552155
0.4048718976902362 0.3114124423173825 -0.2341819978552155
0.700357979560262 0.4410857621467027 -0.23261416922550684
0.11223370706531412 0.3626744847292489 -0.23261416922550684
0.5738203169903591 0.41819347955975444 -0.2321974046530527
0.47980021403789436 0.4942033992025913 -0.2321974046530527
0.3957229230282655 0.5088199281365207 -0.2321974046530527
0.5684123005144655 0.40886589150958896 -0.2321974046530527
0.17788405019286097 0.4784159602793858 -0.2321974046530527
0.5500845822924915 0.3656712204645147 -0.2321974046530527
0.5764895948472681 0.42444494814656736 -0.23021281145088981
0.48165580868191676 0.49908549847991196 -0.23021281145088981
0.2717156167911203 0.4836552863330958 -0.23021281145088981
0.47241752732584863 0.31358557187375097 -0.23021281145088981
0.4578109213579301 0.4942827829306778 -0.23021281145088981
0.6872894333240196 0.33653739225676427 -0.2295578956941761
0.1253022533015565 0.48029140085542976 -0.2295578956941761
0.5368572686000761 0.461963682633456 -0.22822821824872697
0.5318263248325934 0.47057681713084265 -0.22822821824872697
0.5954920747579773 0.3990223092268613 -0.22822821824872697
0.45596524967991864 0.3122757403603234 -0.22822821824872697
0.14835330334467786 0.33051415188820005 -0.22822821824872697
0.555502521734396 0.3656811434305256 -0.22822821824872697
0.6088682329405549 0.2998422639487732 -0.2265016221628453
0.4651043013758786 0.5587126012388945 -0.2265016221628453
0.4536631215654097 0.5015563170166046 -0.22624362504656415
0.5057487701561737 0.48786262392168106 -0.22624362504656415
0.5906000525146459 0.3863506816310516 -0.22624362504656415
0.5707541204930174 0.4270249193093791 -0.22624362504656415
0.47609894771586075 0.48720770816496733 -0.22624362504656415
0.14816476699047249 0.4102749526831247 -0.2242590318444013
0.17380571116241647 0.3914709320926316 -0.2242590318444013
0.1401370874877238 0.40521424001760936 -0.2242590318444013
0.5445277213264355 0.46987228654407487 -0.2242590318444013
0.5627462869222906 0.4369379623541825 -0.2242590318444013
0.5755469130762407 0.4238297242538969 -0.2242590318444013
0.6872894333240196 0.4541543083829451 -0.22344534863151452
0.1253022533015565 0.33653739225676427 -0.22344534863151452
0.1494349066398567 0.41193208800693065 -0.22227443864223845
0.542523282192251 0.3402088896807654 -0.22227443864223845
0.588992532020894 0.3841080913126076 -0.22227443864223845
0.5894589114234025 0.4256654729658976 -0.22227443864223845
0.5802900908294101 0.42050553064027407 -0.22227443864223845
0.3217571343836564 0.4929531054852287 -0.22227443864223845
0.700357979560262 0.43053764927720733 -0.2202898454400756
0.1253022533015565 0.3626744847292489 -0.2202898454400756
0.16374382362745074 0.39284030140212406 -0.2202898454400756
0.4729732134224543 0.5008517864298369 -0.2202898454400756
0.5950653872195125 0.39008171685111775 -0.2202898454400756
0.5841600475736275 0.3681519619672183 -0.2202898454400756
0.4839777827284472 0.49352863751385595 -0.2202898454400756
0.45183729581941995 0.30137040071443855 -0.2202898454400756
0.17079905246113963 0.4046486309549929 -0.21830525223791275
0.4753348793330281 0.30223369875737943 -0.21830525223791275
0.13590990396711694 0.3351779459132827 -0.21830525223791275
0.1330024749259483 0.3333223512692603 -0.21830525223791275
0.13436192126942986 0.31974773376646654 -0.21830525223791275
0.591026740053111 0.3988635417706883 -0.21830525223791275
0.3430716653748853 0.30637157558388894 -0.21830525223791275
0.2857963055604656 0.34675804724790277 -0.21830525223791275
0.5043198630506164 0.2581161918732994 -0.21733280156885296
0.12434964856451831 0.45887764020409266 -0.21733280156885296
0.14285598017468693 0.4180247891375705 -0.21632065903574993
0.5156221213369337 0.48633448715601557 -0.21632065903574993
0.5032283367894268 0.30698679947655944 -0.21632065903574993
0.13264524814955897 0.3779756983179243 -0.21632065903574993
0.4207784122055715 0.5195268084621891 -0.21632065903574993
0.32911005219766976 0.39246322869371314 -0.21632065903574993
0.290529560347624 0.4513262630698631 -0.21632065903574993
0.42609712198736793 0.2956250033941772 -0.21632065903574993
0.315634664354984 0.5195069625301676 -0.21433606583358708
0.20869485965643916 0.2948609350113445 -0.21433606583358708
0.6088682329405549 0.5064384162939253 -0.21433606583358708
0.13933332724084782 0.3425804785573501 -0.21433606583358708
0.13933332724084782 0.42868205463318493 -0.21433606583358708
0.6064371062679055 0.4057798490802258 -0.21433606583358708
0.1304919645252123 0.3579313069760796 -0.21433606583358708
0.1304919645252123 0.46981274874801 -0.21433606583358708
0.24082542359945558 0.4514056467979496 -0.21433606583358708
0.242998553155824 0.3488220241781522 -0.21433606583358708
0.5663284776521943 0.35825876485443653 -0.21433606583358708
0.14951429036794317 0.48507427047264223 -0.21433606583358708
0.15176680365239806 0.382163189974488 -0.21235147263142423
0.13751742446086876 0.4674610058034469 -0.21235147263142423
0.5985880401533514 0.3821234981104447 -0.21235147263142423
0.12972789614237965 0.3799999833841305 -0.21235147263142423
0.420699028477485 0.5219480121688278 -0.21235147263142423
0.5454207882674088 0.3435826981244423 -0.21235147263142423
0.2849429304835356 0.4513262630698631 -0.21235147263142423
0.4034330676186682 0.2930251862993439 -0.21235147263142423
0.5827311404680704 0.5195069625301676 -0.21122025450619142
0.5957996867043126 0.2817427739450481 -0.21122025450619142
0.4651043013758786 0.5456440550026522 -0.21122025450619142
0.17217834473664292 0.40671260788524227 -0.21036687942926138
0.15545814700842092 0.49056167067662243 -0.21036687942926138
0.5846264269761356 0.36153334363800516 -0.21036687942926138
0.13003550808871492 0.37600102808177227 -0.21036687942926138
0.4370520764633068 0.522047241828936 -0.21036687942926138
0.3829619887383584 0.5060414976534926 -0.21036687942926138
0.24581667550289515 0.3522156785538507 -0.21036687942926138
0.5276884480060838 0.32363753644270565 -0.21036687942926138
0.14798615360227782 0.4868802502866104 -0.21036687942926138
0.14518787718722825 0.41606004186742934 -0.20838228622709853
0.5177654819952696 0.31238489298644234 -0.20838228622709853
0.17081889839316136 0.39460658935204895 -0.20838228622709853
0.5235009563495203 0.49280426099506647 -0.20838228622709853
0.12927143970588226 0.34324531728007457 -0.20838228622709853
0.12822952827474673 0.4698325946800316 -0.20838228622709853
0.22313277520217384 0.4914249687195633 -0.20838228622709853
0.16851677027865247 0.4898869089878871 -0.20838228622709853
0.6028648385040125 0.40082828904082957 -0.20838228622709853
0.6611523408515351 0.320948412653775 -0.20816398097486064
0.19065490744877894 0.5220174729309035 -0.20816398097486064
0.3155949724909407 0.4436260414454712 -0.20639769302493569
0.1363663604036143 0.32172240400261853 -0.20639769302493569
0.13577098244296543 0.42558608923781094 -0.20639769302493569
0.6158143091481248 0.4015725114916405 -0.20639769302493569
0.12752499768797892 0.34999293416742827 -0.20639769302493569
0.1285172942890603 0.47080504534909134 -0.20639769302493569
0.5642347318239127 0.45631751497330264 -0.20639769302493569
0.13979970664335606 0.3190134342816663 -0.20639769302493569
0.5957996867043126 0.5325755087664098 -0.20510770744352985
0.5827311404680704 0.2973218305820263 -0.20510770744352985
0.11223370706531412 0.38881157720173354 -0.20510770744352985
0.24380231340269984 0.44175060086942736 -0.20441309982277286
0.17114635627151825 0.4009771335309918 -0.20441309982277286
0.1384997980959394 0.49016475203619 -0.20441309982277286
0.6049883532303267 0.37933514466140583 -0.20441309982277286
0.12677085227115698 0.3892978025362634 -0.20441309982277286
0.4606091977729797 0.5220770107269684 -0.20441309982277286
0.573234861995721 0.35386289091164586 -0.20441309982277286
0.5244337151545367 0.32210939967704033 -0.20441309982277286
0.700357979560262 0.4018801234379758 -0.20242850662061002
0.13497714516210033 0.5064384162939253 -0.20242850662061002
0.24303824501986715 0.4510384970555494 -0.20242850662061002
0.16276144999238024 0.4012351306472729 -0.20242850662061002
0.5500548133944592 0.4763321374171149 -0.20242850662061002
0.402004160513111 0.2802543290434259 -0.20242850662061002
0.13095834392772054 0.4213589057172041 -0.20242850662061002
0.42456898522170256 0.5274850272028621 -0.20242850662061002
0.6101383725899391 0.40472801468307956 -0.20242850662061002
0.23359158137757202 0.44553125091954754 -0.20242850662061002
0.3199313086376666 0.44524348490523397 -0.20044391341844717
0.13315131941611053 0.3908060933699071 -0.20044391341844717
0.1341833078812352 0.44956989808594894 -0.20044391341844717
0.6149807800032167 0.415653200260986 -0.20044391341844717
0.4292129333147635 0.2754317675621703 -0.20044391341844717
0.12537171406363226 0.4174889489729865 -0.20044391341844717
0.2691753374923518 0.5040767503833515 -0.20044391341844717
0.31032587753919844 0.29937588454626496 -0.20044391341844717
0.2820454244083778 0.4583715689375411 -0.20044391341844717
0.5565940479955857 0.5195069625301676 -0.19942184791933332
0.2363402429625676 0.28425328434578406 -0.19942184791933332
0.23996212555651472 0.36194018524444854 -0.19845932021628432
0.14404673609598453 0.3909946297241127 -0.19845932021628432
0.6196941888583534 0.40131451437535937 -0.19845932021628432
0.5131810716982734 0.29874081472157277 -0.19845932021628432
0.12661208481498404 0.3124741996805397 -0.19845932021628432
0.12514348584538343 0.41910639243274933 -0.19845932021628432
0.2953025069988257 0.5075100966230931 -0.19845932021628432
0.323215810387246 0.29333279824567915 -0.19845932021628432
0.17187073279030762 0.40742706143802093 -0.19845932021628432
0.5332056171080966 0.31740591378791433 -0.19845932021628432
0.6611523408515351 0.31039037681826875 -0.19647472701412147
0.3510398070815691 0.5325755087664098 -0.19647472701412147
0.1178699517594567 0.4018801234379758 -0.19647472701412147
0.24426869280520822 0.4429909716207791 -0.19647472701412147
0.4772599347391259 0.2889071554048559 -0.19647472701412147
0.14155607162727024 0.3834531755558938 -0.19647472701412147
0.12891421292949293 0.4693463693455017 -0.19647472701412147
0.399811185024721 0.5303626873459983 -0.19647472701412147
0.1670779402070843 0.41494866967421806 -0.19647472701412147
0.23436557272641556 0.4474265374276131 -0.19647472701412147
0.32654992696687973 0.3576931557918201 -0.19647472701412147
0.49689748447452725 0.5051682766445411 -0.19647472701412147
0.479026222689051 0.44237574772810867 -0.19647472701412147
0.3155949724909407 0.4514056467979496 -0.19449013381195865
0.1341833078812352 0.39369367647905407 -0.19449013381195865
0.43349965463143525 0.28036348166954494 -0.19449013381195865
0.5271029930114458 0.302739770023931 -0.19449013381195865
0.5987567305755352 0.3529202091406185 -0.19449013381195865
0.1352351422783816 0.45369785194644763 -0.19449013381195865
0.1352351422783816 0.3199660390187045 -0.19449013381195865
0.2361219377103296 0.4493119009696678 -0.19449013381195865
0.5445376442924463 0.4823553777856791 -0.19449013381195865
0.34890636938924413 0.2884606219343692 -0.19449013381195865
0.5840905868115517 0.3607692752551725 -0.19449013381195865
0.7134265257965045 0.4165264212699376 -0.19372606542912593
0.399761570194667 0.26431804563005834 -0.19372606542912593
0.239366747595866 0.44890505936322445 -0.1925055406097958
0.13532444897247892 0.4041822515524847 -0.1925055406097958
0.6251418971982902 0.39979630057570487 -0.1925055406097958
0.6107833653806423 0.4327703166296405 -0.1925055406097958
0.5623394453158471 0.4853024986908909 -0.1925055406097958
0.16689932681888964 0.3895359537205229 -0.1925055406097958
0.17565138284042783 0.49780543586451687 -0.1925055406097958
0.3074382944300515 0.3492983265466712 -0.1925055406097958
0.478222462442175 0.34010966002065735 -0.1925055406097958
0.5963156809368751 0.4383569464937289 -0.1925055406097958
0.6350053254130394 0.4672228546191874 -0.19088809715003305
0.3082718235749598 0.4018801234379758 -0.19088809715003305
0.11639142982384539 0.32346884602052184 -0.19088809715003305
0.20246323700164784 0.5325755087664098 -0.19088809715003305
0.23849352658691425 0.3555299492014625 -0.19052094740763292
0.15714505123025937 0.3895557996525445 -0.19052094740763292
0.5391494737485741 0.3111048303710474 -0.19052094740763292
0.6153578527116275 0.3745721209762151 -0.19052094740763292
0.6351640928692127 0.4029617267331545 -0.19052094740763292
0.48344194256386325 0.4594035574026658 -0.19052094740763292
0.47800415718993705 0.32752733911894494 -0.19052094740763292
0.3413649152210253 0.3546269592944785 -0.19052094740763292
0.3285642890670749 0.5152003952814742 -0.19052094740763292
0.14654732353070982 0.30802871090769496 -0.19052094740763292
0.14647786276863406 0.4244350251805565 -0.19052094740763292
0.13726935031059848 0.3210972571439372 -0.1885363542054701
0.14116907595284847 0.3829967191193963 -0.1885363542054701
0.14535656760941204 0.4958406885943756 -0.1885363542054701
0.4066977234362261 0.27689044356575987 -0.1885363542054701
0.406489341149999 0.27304033275356404 -0.1885363542054701
0.4638837765565484 0.2735067121560723 -0.1885363542054701
0.48214203401644656 0.4068713753414154 -0.1885363542054701
0.543446118031257 0.4875847808733782 -0.1885363542054701
0.31747041306698465 0.44175060086942736 -0.1885363542054701
0.33801095270937 0.45173310467630645 -0.1885363542054701
0.3546716126415271 0.45468022558151827 -0.1885363542054701
0.399761570194667 0.26063662524004627 -0.18804020590492937
0.17167227347009137 0.28425328434578406 -0.18804020590492937
0.22811410413960267 0.5229998465659742 -0.18804020590492937
0.40247053991561926 0.5210648681938653 -0.18655176100330725
0.14020654824979942 0.4185209374381113 -0.18655176100330725
0.1573038186864323 0.40603784619650696 -0.18655176100330725
0.13234755916923455 0.3149251722852108 -0.18655176100330725
0.48262825935097653 0.5189215075355296 -0.18655176100330725
0.40735263919293974 0.2784681951614794 -0.18655176100330725
0.518658548936243 0.29358087239594943 -0.18655176100330725
0.5606227721959763 0.3126528130687343 -0.18655176100330725
0.47782554380174236 0.4751711503938496 -0.18655176100330725
0.4774385481273206 0.3291150136806752 -0.18655176100330725
0.3454134853534375 0.46231098644383445 -0.18655176100330725
0.24566783101273293 0.45125680230778736 -0.18655176100330725
0.11481367822812587 0.3020451624031739 -0.18605561270276655
0.6350053254130394 0.30787986641753273 -0.1852617754219014
0.5173884092868587 0.5325755087664098 -0.1852617754219014
0.35638828576139797 0.4953643862258566 -0.1852617754219014
0.46414177367282966 0.35160045466118023 -0.1852617754219014
0.3082718235749598 0.36627652139117445 -0.1852617754219014
0.2691654145263411 0.2745684695192294 -0.1852617754219014
0.4729632904564435 0.2937197939201008 -0.18456716780114443
0.4703237814975668 0.2981752056589565 -0.18456716780114443
0.12957905165221742 0.4869199421506536 -0.18456716780114443
0.13284370746977536 0.3114819030794583 -0.18456716780114443
0.49781039734752214 0.5152698560435499 -0.18456716780114443
0.6366723837028563 0.400054297691986 -0.18456716780114443
0.45813837923628703 0.2705099764208063 -0.18456716780114443
0.5825326811478541 0.3488121012121414 -0.18456716780114443
0.5224590449183848 0.5017944682008642 -0.18456716780114443
0.31681549731027087 0.4430207405188116 -0.18456716780114443
0.3543540777291811 0.4586097201218007 -0.18456716780114443
0.3718879586702898 0.3317346767075301 -0.18456716780114443
0.31141740380038796 0.26930929753349786 -0.1832771822197386
0.4128301164309093 0.4541543083829451 -0.1832771822197386
0.3082718235749598 0.338254065376635 -0.1832771822197386
0.4590116002452386 0.2988698132797134 -0.1832771822197386
0.7134265257965045 0.4280172159104605 -0.1832771822197386
0.47434258273194657 0.29291603367322494 -0.18258257459898158
0.4576620768677679 0.32451075745165736 -0.18258257459898158
0.27047524603976847 0.28794462770180695 -0.18258257459898158
0.4755234156872335 0.4672228546191874 -0.18258257459898158
0.18694371816073446 0.5045530527518705 -0.18258257459898158
0.25280244357450843 0.2832212958806594 -0.18258257459898158
0.12215667307612833 0.5050293551203896 -0.18258257459898158
0.4048024369281606 0.5371301501653736 -0.18258257459898158
0.485535688392145 0.32188117145879164 -0.18258257459898158
0.32131060091316976 0.3619898000745027 -0.18258257459898158
0.32332496301336505 0.4475456130197429 -0.18258257459898158
0.38411305279561286 0.3472740414804652 -0.18258257459898158
0.6872894333240196 0.4541543083829451 -0.18129258901757572
0.3244958730026411 0.2581161918732994 -0.18129258901757572
0.3082718235749598 0.37574303096549116 -0.18129258901757572
0.6219367791767973 0.4933698700576829 -0.18129258901757572
0.46976809540096126 0.3386212151190352 -0.1805979813968187
0.46998640065319924 0.46128892094472046 -0.1805979813968187
0.5041313266964108 0.28857969752649903 -0.1805979813968187
0.16678025122675988 0.3007353308897465 -0.1805979813968187
0.12682046710121114 0.4971009052777491 -0.1805979813968187
0.12181929223176073 0.4044997864648307 -0.1805979813968187
0.4183671314649437 0.5344410263764431 -0.1805979813968187
0.556415434607391 0.49808327891281956 -0.1805979813968187
0.4892865695442328 0.28682333254258496 -0.1805979813968187
0.47695232279279076 0.47030889704855067 -0.1805979813968187
0.32525001841946305 0.44175060086942736 -0.1805979813968187
0.23577463389995115 0.44175060086942736 -0.1805979813968187
0.29994645509188667 0.5362767750884437 -0.18010183309627803
0.3256072451958522 0.5399581954784556 -0.17930799581541287
0.6088682329405549 0.2998422639487732 -0.17930799581541287
0.3589087191281448 0.3626744847292489 -0.17930799581541287
0.1335184691585107 0.40910404269384854 -0.1786133881946559
0.46852772464960946 0.4736727825262167 -0.1786133881946559
0.4579796117801139 0.4793784879824349 -0.1786133881946559
0.6301629179997621 0.3873132093341005 -0.1786133881946559
0.30215927651229824 0.2843227451078598 -0.1786133881946559
0.12884475216741717 0.4884976937463731 -0.1786133881946559
0.24491368559591112 0.28382659680731903 -0.1786133881946559
0.11825694743387834 0.4985794272133604 -0.1786133881946559
0.302496657356666 0.5288543965123544 -0.1786133881946559
0.4859326070325777 0.3269716530223392 -0.1786133881946559
0.3201694598219262 0.3585564538347609 -0.1786133881946559
0.3439151174858046 0.45322154957792865 -0.1786133881946559
0.37076666351106774 0.3360511669222343 -0.1786133881946559
0.3102068019470686 0.5456440550026522 -0.17811723989411515
0.5957996867043126 0.5325755087664098 -0.17732340261325005
0.5827311404680704 0.2973218305820263 -0.17732340261325005
0.35884918133207994 0.3626744847292489 -0.17732340261325005
0.13609844032132232 0.41193208800693065 -0.17662879499249304
0.46868649210578256 0.4737323203222816 -0.17662879499249304
0.47198091682137283 0.4605347755278987 -0.17662879499249304
0.6325741987403902 0.3884444274593334 -0.17662879499249304
0.30646584376099173 0.2794009539664959 -0.17662879499249304
0.17155319787796158 0.2975401358342643 -0.17662879499249304
0.22360907757069293 0.5118563557358298 -0.17662879499249304
0.3238310342799166 0.27643398712926254 -0.17662879499249304
0.12422065000637782 0.2966768377913234 -0.17662879499249304
0.48307479282146304 0.3978315533055636 -0.17662879499249304
0.6172829081177256 0.4307857234274776 -0.17662879499249304
0.24416946314510002 0.44286197306263847 -0.17662879499249304
0.37306879162557666 0.33964328061814897 -0.17662879499249304
0.2390392897175091 0.4554939087944051 -0.17662879499249304
0.3344188390134553 0.4787235722257211 -0.17533880941108718
0.6350053254130394 0.4672228546191874 -0.17533880941108718
0.4651043013758786 0.41494866967421806 -0.17533880941108718
0.3082718235749598 0.341300415941955 -0.17533880941108718
0.1311964951119801 0.3165922305750276 -0.17464420179033022
0.15021882095471098 0.41516697492645604 -0.17464420179033022
0.1580877330012867 0.4018801234379758 -0.17464420179033022
0.4752852645029739 0.524071526895142 -0.17464420179033022
0.2643626989771069 0.2880339343959043 -0.17464420179033022
0.3302611162549242 0.5250638234962235 -0.17464420179033022
0.12785245556633582 0.41750879490500825 -0.17464420179033022
0.571528111841861 0.3165426157449736 -0.17464420179033022
0.46309986224169414 0.2668583249288268 -0.17464420179033022
0.4834121736658308 0.5211343289559411 -0.17464420179033022
0.4879370461667621 0.32362761347669494 -0.17464420179033022
0.24380231340269984 0.3619898000745027 -0.17464420179033022
0.3752121522839126 0.33273689627462233 -0.17464420179033022
0.2313192221610956 0.3587350672229556 -0.17464420179033022
0.3082718235749598 0.48029140085542976 -0.17335421620892438
0.700357979560262 0.4410857621467027 -0.17335421620892438
0.4651043013758786 0.4280172159104605 -0.17335421620892438
0.3082718235749598 0.33653739225676427 -0.17335421620892438
0.3908805156149882 0.277098825851987 -0.17265960858816737
0.15085389077940314 0.3893374944003067 -0.17265960858816737
0.471861841229243 0.3343642627003959 -0.17265960858816737
0.48519830754777743 0.5152103182474851 -0.17265960858816737
0.3383582565197486 0.5288543965123544 -0.17265960858816737
0.4622067953007208 0.27474708290742406 -0.17265960858816737
0.4661065209429708 0.5283284793137814 -0.17265960858816737
0.6468235779319192 0.4025846540247436 -0.17265960858816737
0.5521981740527948 0.2981156678628916 -0.17265960858816737
0.4870142103277564 0.2852058890828223 -0.17265960858816737
0.4913207775764497 0.4773839718142611 -0.17265960858816737
0.31747041306698465 0.3619898000745027 -0.17265960858816737
0.34864837227296286 0.4459976303220558 -0.17265960858816737
0.33656219967179113 0.3464802041996001 -0.17265960858816737
0.5827311404680704 0.5456440550026522 -0.1713696230067615
0.3082718235749598 0.38881157720173354 -0.1713696230067615
0.4651043013758786 0.37574303096549116 -0.1713696230067615
0.700357979560262 0.4018801234379758 -0.1713696230067615
0.4841365501846203 0.3241535306752681 -0.1706750153860045
0.4026094614397706 0.2791727257482472 -0.1706750153860045
0.4822412636765548 0.2817328509790372 -0.1706750153860045
0.35569367814064107 0.5288246276143221 -0.1706750153860045
0.3901759850282204 0.2717999620022123 -0.1706750153860045
0.44251963073526546 0.5324862020723126 -0.1706750153860045
0.643320770930102 0.41334114918046627 -0.1706750153860045
0.6116962782536369 0.34339416177023674 -0.1706750153860045
0.592525107920744 0.34008981408863564 -0.1706750153860045
0.49517088838864565 0.47250187253694065 -0.1706750153860045
0.3446494169706048 0.45865933495185474 -0.1706750153860045
0.37055828122484064 0.467887693341912 -0.1706750153860045
0.3709948917293166 0.3316751389114652 -0.1706750153860045
0.3736244777221824 0.5587126012388945 -0.16938502980459866
0.36055593148593995 0.4410857621467027 -0.16938502980459866
0.3769089794717618 0.2557346800307041 -0.16938502980459866
0.15088365967743558 0.40825066761691853 -0.16869042218384167
0.12127352910116589 0.31196812841398813 -0.16869042218384167
0.2419864106227209 0.4470097728551589 -0.16869042218384167
0.3459691714500431 0.34095311213157653 -0.16869042218384167
0.3523794074930291 0.35045931356993654 -0.16869042218384167
0.49103301156213613 0.27864680854967405 -0.16869042218384167
0.36379081840546545 0.27452877765518613 -0.16869042218384167
0.321727365485624 0.5265522683978455 -0.16869042218384167
0.4270794956224386 0.2742112427428401 -0.16869042218384167
0.42522390097841617 0.5389162840473202 -0.16869042218384167
0.21219766665825665 0.297986669304751 -0.16869042218384167
0.21205874513410516 0.5179986716965238 -0.16869042218384167
0.498941615472755 0.31576862439613007 -0.16869042218384167
0.5024940373046266 0.2851959661168114 -0.16869042218384167
0.6219367791767973 0.28425328434578406 -0.16740043660243584
0.4665828233114899 0.4410857621467027 -0.16740043660243584
0.3082718235749598 0.33653739225676427 -0.16740043660243584
0.15134011611393297 0.4059683854344313 -0.16670582898167882
0.24373285264062422 0.44690062022904 -0.16670582898167882
0.34644547381856217 0.3449024526038805 -0.16670582898167882
0.3528358639295264 0.3491296361244874 -0.16670582898167882
0.49087424410596303 0.3238756876269652 -0.16670582898167882
0.31830394221189307 0.2780613535550361 -0.16670582898167882
0.3757678383805182 0.5314442906411769 -0.16670582898167882
0.48693482659966986 0.32388561059297605 -0.16670582898167882
0.5206530651044166 0.5199534960006542 -0.16670582898167882
0.4002081036651535 0.2778430483027981 -0.16670582898167882
0.24999424419344798 0.522900616905866 -0.16670582898167882
0.5672314675591785 0.4819882280432789 -0.16670582898167882
0.3871792492929546 0.5587126012388945 -0.16620968068113812
0.6219367791767973 0.28425328434578406 -0.16541584340027296
0.46673166780165215 0.4280172159104605 -0.16541584340027296
0.3303702688810431 0.33653739225676427 -0.16541584340027296
0.5435255017593432 0.5587126012388945 -0.16541584340027296
0.24567775397874378 0.44789291683012133 -0.164721235779516
0.34726907999745976 0.3438605411727451 -0.164721235779516
0.38364667339310465 0.3468374309759894 -0.164721235779516
0.4922733823134879 0.3237665350008463 -0.164721235779516
0.3409679965805927 0.27465777621332677 -0.164721235779516
0.3816620801909418 0.5327640451206154 -0.164721235779516
0.47636686779815274 0.34115157145179276 -0.164721235779516
0.6309369093486057 0.4377317996350476 -0.164721235779516
0.48213211105043574 0.2867538717805092 -0.164721235779516
0.4474513448426401 0.5428060867235593 -0.164721235779516
0.5017299689217939 0.4907799759288604 -0.164721235779516
0.49667917922228944 0.3262571994695607 -0.164721235779516
0.6872894333240196 0.41494866967421806 -0.16343125019811014
0.47306252011655153 0.31039037681826875 -0.16343125019811014
0.3113082511742691 0.43746387955275556 -0.16343125019811014
0.5957996867043126 0.5220174729309035 -0.16343125019811014
0.12863636988119007 0.4134701477386069 -0.16273664257735315
0.34434180502426953 0.44954012918791647 -0.16273664257735315
0.23429611196433983 0.44677162167089934 -0.16273664257735315
0.32828644601877216 0.41213054732714693 -0.16273664257735315
0.5683329167863788 0.4921195763403203 -0.16273664257735315
0.46313955410573726 0.2708771261632065 -0.16273664257735315
0.40076378976175925 0.5356218593317299 -0.16273664257735315
0.555502521734396 0.29897896590583234 -0.16273664257735315
0.4705321637837939 0.4781877320611371 -0.16273664257735315
0.6497905447691528 0.41986053784957117 -0.16273664257735315
0.49207492299327166 0.5243196010454124 -0.16273664257735315
0.6282477855596752 0.4312719487620076 -0.16273664257735315
0.4010019409460188 0.5538404249275847 -0.16224049427681245
0.47372735883927614 0.4869298651166645 -0.1614466569959473
0.4744616583240764 0.5064384162939253 -0.1614466569959473
0.6742208870877775 0.33401695889001737 -0.1614466569959473
0.13542367863258697 0.4170027236384567 -0.16075204937519028
0.3471599273713408 0.45999893536331465 -0.16075204937519028
0.34988874302431466 0.34634128267544867 -0.16075204937519028
0.33648281594370466 0.46712362495907933 -0.16075204937519028
0.486557753891259 0.2744097020630563 -0.16075204937519028
0.3695064468276944 0.2700832888823414 -0.16075204937519028
0.3846786618582293 0.5339349551098913 -0.16075204937519028
0.4246979837798431 0.2623136064958739 -0.16075204937519028
0.48956441259253564 0.476322214451104 -0.16075204937519028
0.65511917751696 0.4135991462967474 -0.16075204937519028
0.497185250488841 0.5161331540864906 -0.16075204937519028
0.5537660026825036 0.4989564999217713 -0.16075204937519028
0.4179602898585002 0.251725801762335 -0.1602559010746496
0.47587071949761195 0.48520326903078287 -0.15946206379378444
0.4542783454580803 0.4571212752201785 -0.15946206379378444
0.5267953810651106 0.2711847381095417 -0.15946206379378444
0.14986159417832165 0.40024283404619143 -0.15876745617302745
0.24566783101273293 0.4436260414454712 -0.15876745617302745
0.34401434714591267 0.34813733952340603 -0.15876745617302745
0.35212141037674793 0.35021123941966625 -0.15876745617302745
0.4964807199020732 0.32336961636041367 -0.15876745617302745
0.3820589988313744 0.26946806498967096 -0.15876745617302745
0.37936987504244374 0.5357905497539137 -0.15876745617302745
0.4121851236402064 0.2707183587070334 -0.15876745617302745
0.4140903331142826 0.5331014259649829 -0.15876745617302745
0.5469290791010527 0.28794462770180695 -0.15876745617302745
0.4991202288609497 0.48116462186438136 -0.15876745617302745
0.6018229270728768 0.3396829724821923 -0.15876745617302745
0.42822063671368216 0.2512197304957835 -0.15827130787248675
0.5957996867043126 0.2817427739450481 -0.15747747059162162
0.4569476233149893 0.45492829973178867 -0.15747747059162162
0.4530280517407177 0.48335759735277134 -0.15747747059162162
0.12475649017096166 0.4009275187009376 -0.1567828629708646
0.24380231340269984 0.3619898000745027 -0.1567828629708646
0.34534402459136176 0.3454382927684645 -0.1567828629708646
0.3735947088241499 0.3339574210939525 -0.1567828629708646
0.4792048360772455 0.3372220769115103 -0.1567828629708646
0.49708602082873277 0.517562061192048 -0.1567828629708646
0.4685574935476419 0.3335803483855416 -0.1567828629708646
0.46864680024173927 0.4754390704761416 -0.1567828629708646
0.6573022300393392 0.4070102968655667 -0.1567828629708646
0.48975294894674104 0.2889071554048559 -0.1567828629708646
0.5242749476983637 0.5269491870382783 -0.1567828629708646
0.5008071330827881 0.4794677946765322 -0.1567828629708646
0.5073562906499255 0.496406297656992 -0.1567828629708646
0.5827311404680704 0.5456440550026522 -0.15549287738945874
0.47867891887867237 0.4933698700576829 -0.15549287738945874
0.45459588037042636 0.4572403508123083 -0.15549287738945874
0.5307149526393822 0.2711847381095417 -0.15549287738945874
0.13591982693312765 0.413728144854888 -0.15479826976870179
0.244437383227392 0.3607891211871941 -0.15479826976870179
0.35166495394025044 0.3405859623891763 -0.15479826976870179
0.35252825198319127 0.348831947144163 -0.15479826976870179
0.4992889192831335 0.3231116192441325 -0.15479826976870179
0.40317507050238705 0.2663720995942968 -0.15479826976870179
0.40901969748275663 0.5379041415142171 -0.15479826976870179
0.4911917790183092 0.2812962404745614 -0.15479826976870179
0.4597359767640281 0.5406428801332019 -0.15479826976870179
0.42673219181205996 0.25328370742603296 -0.15479826976870179
0.3513573419939153 0.5391445122655689 -0.15479826976870179
0.5019681201060534 0.29111997682526747 -0.15479826976870179
0.607697322951279 0.46129884391073134 -0.15479826976870179
0.6742208870877775 0.46974328798593423 -0.15350828418729592
0.3082718235749598 0.3741652793697716 -0.15350828418729592
0.4651043013758786 0.3626744847292489 -0.15350828418729592
0.6872894333240196 0.34960593849300653 -0.15350828418729592
0.3155949724909407 0.3555795640315167 -0.1528136765665389
0.3439548093498478 0.45304293618973396 -0.1528136765665389
0.2376103826119518 0.45366808304841516 -0.1528136765665389
0.3712826577436302 0.3308217638345352 -0.1528136765665389
0.656349625302301 0.4053829304397932 -0.1528136765665389
0.40077371272776996 0.2646455035084152 -0.1528136765665389
0.4387191347531235 0.5389063610813093 -0.1528136765665389
0.6369601497171699 0.3629126359135083 -0.1528136765665389
0.47215953020956747 0.34160802788829026 -0.1528136765665389
0.6353129373593748 0.44890505936322445 -0.1528136765665389
0.6416437896742743 0.3810716637132985 -0.1528136765665389
0.5016009703636533 0.2825366112259132 -0.1528136765665389
0.45120222599472787 0.25096173337950234 -0.15231752826599823
0.4535043541092368 0.3202240361349856 -0.15152369098513307
0.48147719529372207 0.49493769868739157 -0.15152369098513307
0.5614860702389171 0.28425328434578406 -0.15152369098513307
0.143272744747141 0.4107413320856329 -0.1508290833643761
0.343786118927664 0.3476908060529194 -0.1508290833643761
0.34822168473449794 0.4550275293918967 -0.1508290833643761
0.33585766908502335 0.4589768698642009 -0.1508290833643761
0.5176761753011723 0.28033371277151253 -0.1508290833643761
0.436347545876539 0.259525253046835 -0.1508290833643761
0.41483455556509374 0.5425480896072781 -0.1508290833643761
0.42331869150433993 0.25633998095736366 -0.1508290833643761
0.48946518293242747 0.5265423454318348 -0.1508290833643761
0.6054944244968781 0.3232902326323272 -0.1508290833643761
0.4851090008536801 0.45623813124521606 -0.1508290833643761
0.5047465505890815 0.2924099624066734 -0.1508290833643761
0.4520357551396362 0.5587126012388945 -0.15033293506383535
0.3855618058331918 0.32141479205628337 -0.14953909778297023
0.4651043013758786 0.4410857621467027 -0.14953909778297023
0.6872894333240196 0.33653739225676427 -0.14953909778297023
0.24567775397874378 0.3601143594984587 -0.14884449016221324
0.3499185119223471 0.462648367288202 -0.14884449016221324
0.23431595789636156 0.4517231817102956 -0.14884449016221324
0.49727455718293834 0.5272369530525919 -0.14884449016221324
0.5078425159844554 0.5275247190669055 -0.14884449016221324
0.4714549996227997 0.3334910416914443 -0.14884449016221324
0.4649554568857164 0.3380655290224296 -0.14884449016221324
0.5311019483138039 0.5230891532600715 -0.14884449016221324
0.4300563854256828 0.25180518549042163 -0.14884449016221324
0.4350674832611439 0.5318908241116638 -0.14884449016221324
0.506155611762617 0.3096163854694252 -0.14884449016221324
0.7134265257965045 0.4280172159104605 -0.14755450458080738
0.48427547170877167 0.2973218305820263 -0.14755450458080738
0.3082718235749598 0.43746387955275556 -0.14755450458080738
0.5957996867043126 0.5325755087664098 -0.14755450458080738
0.3437960418936748 0.45339024000011247 -0.1468598969600504
0.23992243369247157 0.35353543303328894 -0.1468598969600504
0.35358008638033755 0.4557122140466429 -0.1468598969600504
0.5043297860166273 0.2861684167858712 -0.1468598969600504
0.4195181955221981 0.26046793481786235 -0.1468598969600504
0.41882358790144103 0.5427267029954727 -0.1468598969600504
0.48408693535456615 0.2651218058769343 -0.1468598969600504
0.4720206086854161 0.47857472773555887 -0.1468598969600504
0.6479151041931089 0.43790049005723136 -0.1468598969600504
0.6470815750482005 0.39051832735559355 -0.1468598969600504
0.6497905447691528 0.3874124389942087 -0.1468598969600504
0.48568453288230723 0.49493769868739157 -0.14556991137864453
0.4775278548214179 0.3191821247038501 -0.14556991137864453
0.5871071684788393 0.2973218305820263 -0.14556991137864453
0.5056594634620764 0.5294596974390142 -0.14487530375788757
0.42171117101058797 0.2612220802346843 -0.14487530375788757
0.43648646740069036 0.5446219895035382 -0.14487530375788757
0.46137326615581237 0.26050762668190564 -0.14487530375788757
0.4700657843812857 0.475468839374174 -0.14487530375788757
0.5948570049332852 0.4923478045585691 -0.14487530375788757
0.5501937349186103 0.5078177085694284 -0.14487530375788757
0.508348587251007 0.47571691352444445 -0.14487530375788757
0.34545317721748064 0.4616263017890882 -0.14487530375788757
0.3480827632103464 0.4552756035421671 -0.14487530375788757
0.3703201300405811 0.33104006908677314 -0.14487530375788757
0.5173884092868587 0.26063662524004627 -0.1435853181764817
0.3082718235749598 0.4165264212699376 -0.1435853181764817
0.6611523408515351 0.4933698700576829 -0.1435853181764817
0.6087690032804469 0.47181718788219446 -0.1428907105557247
0.4667018989036197 0.26522103553704235 -0.1428907105557247
0.47133592403066993 0.3289959380885454 -0.1428907105557247
0.46155187954400706 0.5443937612852896 -0.1428907105557247
0.5326697769435126 0.2750646178197701 -0.1428907105557247
0.4857341477123613 0.45585113557079426 -0.1428907105557247
0.6448885995598105 0.37665594383848605 -0.1428907105557247
0.3418412175895444 0.4545909188874209 -0.1428907105557247
0.34837052922466016 0.34119126331583605 -0.1428907105557247
0.23776915006812488 0.4587387186799413 -0.1428907105557247
0.5686405287327141 0.28425328434578406 -0.14160072497431886
0.4092876175650486 0.4541543083829451 -0.14160072497431886
0.4542783454580803 0.4838438226873013 -0.14160072497431886
0.5511364166896378 0.29140774283958115 -0.14090611735356187
0.4290640888246013 0.26067631710408945 -0.14090611735356187
0.48103066182323545 0.5364355425446167 -0.14090611735356187
0.6472403425043735 0.43718603650445287 -0.14090611735356187
0.4168985324953431 0.269200144907379 -0.14090611735356187
0.5013132043493397 0.4825836060039278 -0.14090611735356187
0.5124368492474624 0.3282914075017776 -0.14090611735356187
0.31682542027628174 0.44303066348482245 -0.14090611735356187
0.3448875681548644 0.46044546883380133 -0.14090611735356187
0.23610209177830804 0.45451153515933446 -0.14090611735356187
0.4898819475048817 0.4854215742830207 -0.139616131772156
0.3578668076970093 0.41494866967421806 -0.139616131772156
0.46876587583386903 0.3626744847292489 -0.139616131772156
0.6742208870877775 0.4280172159104605 -0.139616131772156
0.6216490131624838 0.3419057168686147 -0.13892152415139902
0.43816344865651796 0.5450586000080142 -0.13892152415139902
0.669547170096684 0.40174120191382445 -0.13892152415139902
0.4565407817085459 0.2711450462454985 -0.13892152415139902
0.5027123425568645 0.4816905390629546 -0.13892152415139902
0.5170411054764802 0.5164705349308584 -0.13892152415139902
0.3435578907094153 0.3488220241781522 -0.13892152415139902
0.2371936180394976 0.35908237103333407 -0.13892152415139902
0.3829719117043693 0.3462023611512972 -0.13892152415139902
0.49129100867841724 0.31039037681826875 -0.13763153856999316
0.42589866266715154 0.5064384162939253 -0.13763153856999316
0.5921182663143006 0.2973218305820263 -0.13763153856999316
0.5753385307900138 0.5000182572849284 -0.13693693094923617
0.44036634711091877 0.2585726483097969 -0.13693693094923617
0.46588821569073285 0.46605194462991134 -0.13693693094923617
0.5774421995843063 0.503352373864562 -0.13693693094923617
0.5336521505785832 0.2735860958841588 -0.13693693094923617
0.4975424772652303 0.4657542556495869 -0.13693693094923617
0.5198592278235514 0.327844874031291 -0.13693693094923617
0.31704372552851956 0.36079904415320496 -0.13693693094923617
0.23656847118081628 0.4507804999392683 -0.13693693094923617
0.3383483335537378 0.3462519759813514 -0.13693693094923617
0.3082718235749598 0.4672228546191874 -0.1356469453678303
0.38868754012659823 0.46565502598947883 -0.1356469453678303
0.45746361754755166 0.34708550512625963 -0.1356469453678303
0.6589792112951669 0.4184911685400789 -0.13495233774707333
0.6677213443506942 0.40134428327339183 -0.13495233774707333
0.4850693089896368 0.5370606894032978 -0.13495233774707333
0.6303117624899245 0.4609217712023204 -0.13495233774707333
0.4716633819090268 0.2559728312149636 -0.13495233774707333
0.4729632904564435 0.4789418774779591 -0.13495233774707333
0.5148878218521334 0.3280631792835289 -0.13495233774707333
0.6631071651556656 0.3974842494951851 -0.13495233774707333
0.3155949724909407 0.3601143594984587 -0.13495233774707333
0.23807676201446004 0.4516437979822091 -0.13495233774707333
0.3339326136789255 0.3482762610475574 -0.13495233774707333
0.3656364900834769 0.48029140085542976 -0.1336623521656675
0.36055593148593995 0.4280172159104605 -0.1336623521656675
0.4651043013758786 0.3741652793697716 -0.1336623521656675
0.6350053254130394 0.4726209481290704 -0.1336623521656675
0.63172082366346 0.34894109977028204 -0.13296774454491048
0.4785598432865426 0.46407727439375934 -0.13296774454491048
0.47240760435983786 0.5441853789990626 -0.13296774454491048
0.6619362551663895 0.3741652793697716 -0.13296774454491048
0.5312805617019986 0.2831716810506054 -0.13296774454491048
0.524900094557045 0.32621750760551743 -0.13296774454491048
0.32303719699905137 0.4479028397961322 -0.13296774454491048
0.23830499023270887 0.44745630632564554 -0.13296774454491048
0.36957590758977016 0.3349298717630123 -0.13296774454491048
0.6219367791767973 0.5195069625301676 -0.13167775896350464
0.3113082511742691 0.38881157720173354 -0.13167775896350464
0.46769419550470104 0.37574303096549116 -0.13167775896350464
0.6872894333240196 0.4280172159104605 -0.13167775896350464
0.5325903932154261 0.2798375644709717 -0.13098315134274766
0.4745509650181737 0.46662747665853865 -0.13098315134274766
0.471276386234605 0.5453761349203603 -0.13098315134274766
0.6766123218963837 0.3961843409477685 -0.13098315134274766
0.5378694111331792 0.5099313003297318 -0.13098315134274766
0.5091721934299045 0.33876013664318655 -0.13098315134274766
0.5464825456305659 0.4168141872842512 -0.13098315134274766
0.3461775537362702 0.46225144864776957 -0.13098315134274766
0.37870503631971925 0.3423820192371338 -0.13098315134274766
0.3370781939043535 0.3332528905071847 -0.13098315134274766
0.3082718235749598 0.31039037681826875 -0.1296931657613418
0.42589866266715154 0.49588038045841887 -0.1296931657613418
0.6422887824649772 0.33653739225676427 -0.1296931657613418
0.48460292958712853 0.47138057737771866 -0.1289985581405848
0.5212881349291087 0.5188123549094106 -0.1289985581405848
0.47480896213445484 0.33708315538735895 -0.1289985581405848
0.5013330502813612 0.5388865151492876 -0.1289985581405848
0.560106777963414 0.2832510647786919 -0.1289985581405848
0.484414393232923 0.401870200471965 -0.1289985581405848
0.5491716694194967 0.32951193232110765 -0.1289985581405848
0.5472168451153663 0.5050392780864005 -0.1289985581405848
0.3431907409670151 0.4568831240359191 -0.1289985581405848
0.3155949724909407 0.3522752163499156 -0.1289985581405848
0.3381895660975647 0.4709241209412211 -0.1289985581405848
0.4763767907641635 0.31578847032815166 -0.12770857255917895
0.5029207248430915 0.5072620224728228 -0.12770857255917895
0.5435255017593432 0.24504764563705703 -0.12770857255917895
0.3082718235749598 0.4672228546191874 -0.12770857255917895
0.6557740932736738 0.42909881920563914 -0.12701396493842196
0.4688353365959448 0.541377179618002 -0.12701396493842196
0.4896140274225897 0.26166861370517097 -0.12701396493842196
0.47615848551192563 0.4610606927264718 -0.12701396493842196
0.6138495618779838 0.48553072690913973 -0.12701396493842196
0.5357558193728759 0.5204099524371516 -0.12701396493842196
0.5402608459417856 0.30954692470734946 -0.12701396493842196
0.5089737341096882 0.43995454402147 -0.12701396493842196
0.32217389895611065 0.4484486029267269 -0.12701396493842196
0.2386820629411198 0.4479028397961322 -0.12701396493842196
0.36941714013359706 0.3347810272728501 -0.12701396493842196
0.4651043013758786 0.37574303096549116 -0.12651781663788125
0.5088050436875043 0.31691968845338453 -0.1257239793570161
0.5043198630506164 0.5587126012388945 -0.1257239793570161
0.3113082511742691 0.4280172159104605 -0.1257239793570161
0.3413847611530469 0.34873271748405493 -0.1250293717362591
0.23598301618617826 0.3619898000745027 -0.1250293717362591
0.3703201300405811 0.3302660777379296 -0.1250293717362591
0.48492046449947457 0.4714996529698484 -0.1250293717362591
0.47631725296809857 0.34415823015306957 -0.1250293717362591
0.656508392758474 0.3743438927579663 -0.1250293717362591
0.5166938016661017 0.5303626873459983 -0.1250293717362591
0.5740187763105754 0.5096733032134506 -0.1250293717362591
0.6207460232554997 0.48045016831160287 -0.1250293717362591
0.5545102251333146 0.4983115071310684 -0.1250293717362591
0.31181432244082047 0.3382739113086567 -0.12373938615485326
0.6742208870877775 0.48029140085542976 -0.12373938615485326
0.6169554502393685 0.31039037681826875 -0.12373938615485326
0.31998092346772067 0.4454022523614069 -0.12304477853409626
0.24567775397874378 0.4514453386619929 -0.12304477853409626
0.23888052226133602 0.45542444803232934 -0.12304477853409626
0.34057107794016017 0.37681471129465915 -0.12304477853409626
0.47516618891084417 0.46686562784279817 -0.12304477853409626
0.4850990778876692 0.3352573296413692 -0.12304477853409626
0.5343666041313618 0.5247363656178666 -0.12304477853409626
0.5386731713800551 0.29671652965536677 -0.12304477853409626
0.5116727808646296 0.5243791388414774 -0.12304477853409626
0.46137326615581237 0.5535824278113037 -0.12304477853409626
0.6235145307725167 0.3397921251083112 -0.12304477853409626
0.6576296879176959 0.34960593849300653 -0.12175479295269043
0.4701749370074046 0.4360349724471983 -0.12175479295269043
0.3082718235749598 0.36627652139117445 -0.12175479295269043
0.36947667792966193 0.46511918582489487 -0.12106018533193343
0.4816260397838843 0.4227183520606856 -0.12106018533193343
0.5171899499666424 0.3258999726931714 -0.12106018533193343
0.6745483449661343 0.4020984286902138 -0.12106018533193343
0.505887691680325 0.5349272517109727 -0.12106018533193343
0.5161281926034852 0.5362668521224329 -0.12106018533193343
0.5495983569579616 0.5277231783871216 -0.12106018533193343
0.5657430226575564 0.49845042865521977 -0.12106018533193343
0.3113082511742691 0.4018801234379758 -0.11977019975052758
0.5205836043423409 0.2973218305820263 -0.11977019975052758
0.6088682329405549 0.501060168716064 -0.11977019975052758
0.378397424373384 0.3420843302568094 -0.11907559212977058
0.47153438335088615 0.4713309625476645 -0.11907559212977058
0.4941785917875642 0.4691280640932638 -0.11907559212977058
0.6273844875167345 0.33747015106178074 -0.11907559212977058
0.4770614754189097 0.5431533905339377 -0.11907559212977058
0.6408301064613876 0.458163186651314 -0.11907559212977058
0.6831614794635209 0.40308080232528426 -0.11907559212977058
0.5622898304857932 0.29827443531906456 -0.11907559212977058
0.3062773074067862 0.44092699469052976 -0.11778560654836474
0.36055593148593995 0.41626842415365645 -0.11778560654836474
0.6477464137709251 0.4672228546191874 -0.11778560654836474
0.34341896918526377 0.3486334878239467 -0.11709099892760774
0.37034989893861353 0.32993861985957273 -0.11709099892760774
0.4694704064206368 0.3715456163429167 -0.11709099892760774
0.5492212842495507 0.28460058815616257 -0.11709099892760774
0.4759897950897417 0.5417840212244454 -0.11709099892760774
0.6504653064578882 0.355559718099495 -0.11709099892760774
0.6219268562107865 0.32107741121191563 -0.11709099892760774
0.5690870622032009 0.3016283978307198 -0.11709099892760774
0.7134265257965045 0.41494866967421806 -0.1158010133462019
0.5237589534658015 0.32346884602052184 -0.1158010133462019
0.3082718235749598 0.3604616633088372 -0.1158010133462019
0.34301212757882044 0.3444360732013723 -0.11510640572544491
0.33757434220489424 0.3324392072942979 -0.11510640572544491
0.477101167282953 0.4367097341359338 -0.11510640572544491
0.5503624253407945 0.28422351544775165 -0.11510640572544491
0.5649293394446696 0.2908619797089863 -0.11510640572544491
0.5572092718882562 0.282437381565805 -0.11510640572544491
0.4710878498803995 0.2501579731326264 -0.11510640572544491
0.5699602832121525 0.5048308958001734 -0.11510640572544491
0.5163464978557232 0.3163540793907681 -0.11381642014403906
0.7134265257965045 0.37574303096549116 -0.11381642014403906
0.36055593148593995 0.38881157720173354 -0.11381642014403906
0.34283351419062574 0.33969289544820314 -0.11312181252328207
0.3688416081049698 0.3306034585822972 -0.11312181252328207
0.47606917881782834 0.33659693005282915 -0.11312181252328207
0.48535707500395037 0.2627998318304037 -0.11312181252328207
0.5750805336737326 0.4968726770595003 -0.11312181252328207
0.5704266626146607 0.30523043449264536 -0.11312181252328207
