0.15057163337011104 0.44719507971872186 -0.26671679874310694
0.5537878696787509 0.004554289946551982 -0.26671679874310694
-0.013701648088964399 0.31236741556781716 -0.2639678517365789
0.6218824754642841 0.2882990488304097 -0.2639678517365789
0.251076238188723 0.45707922459799366 -0.2636920952970525
0.32678861561617073 0.560694706750012 -0.26121890473005077
0.47433554554022733 0.40179867586169987 -0.26121890473005077
0.3784757132498871 0.40747753503819517 -0.2602451398029734
0.25869400983063784 0.36775137296893345 -0.25852166205593385
-0.013701648088964399 0.1294030179420976 -0.25852166205593385
0.4325670623407238 0.3785920479978122 -0.2567981843088943
0.19059078665636964 0.3564022720046779 -0.2557296281057298
0.19059078665636964 0.22020444304487682 -0.2557296281057298
0.3909623095271887 0.38021211708002944 -0.2533512288148152
-0.0023525471247089645 0.4358459787544663 -0.25298068109920163
0.2927413127234043 0.1542900366093489 -0.25298068109920163
0.4518183087751555 0.3938965303915235 -0.25162775106777563
0.28139221175914886 0.23155354400913225 -0.2502317340926736
0.07709115962507945 -0.029493012946214568 -0.2502317340926736
0.3873947105908168 0.37258572804937934 -0.2481807955736965
0.25869400983063784 0.2882990488304097 -0.2474827870861455
0.09979797894232567 -0.029493012946214568 -0.2474827870861455
0.2700431107948933 0.5266474038572455 -0.2447338400796174
0.3835341204374483 0.20885534208062126 -0.2447338400796174
0.6218824754642841 -0.006794811017703575 -0.2447338400796174
0.36083591850893726 0.5039492019287346 -0.2419935104618245
0.28139221175914886 0.0726575131208202 -0.2419935104618245
0.5310896677502401 0.0726575131208202 -0.2419935104618245
0.4175900407189499 0.5266474038572455 -0.2392445634552964
0.4402882426474609 0.1294030179420976 -0.2392445634552964
0.4516373436117165 -0.040842113910470004 -0.2392445634552964
0.21328898858488063 0.6301594773444414 -0.23649561644876826
0.6332315764285394 0.3904495748974443 -0.23649561644876826
0.1756999389219479 0.46042277142725047 -0.2361164513444196
0.22463808954913608 0.5379965048215011 -0.23374666944224018
0.4402882426474609 0.2656008469018988 -0.23374666944224018
0.42268291746145176 0.37600683137725294 -0.23266949585034047
-0.0023525471247089645 0.41314777682595544 -0.2309460181033009
0.2700431107948933 0.16563913757360432 -0.2309460181033009
0.26107240912155244 0.3778681873440556 -0.2309460181033009
-0.0023525471247089645 0.34504455365168724 -0.228248775429184
0.4402882426474609 0.20885534208062126 -0.228248775429184
0.38221565996096296 0.3785920479978122 -0.2274990626092218
0.3040904136876598 0.6082799273457743 -0.2255084458113911
0.6332315764285394 0.4585441806829774 -0.2255084458113911
0.2058866516613458 0.4510298177058848 -0.22405210711514267
0.25092974258022455 0.36775137296893345 -0.222759498804863
0.19059078665636964 0.1294030179420976 -0.222759498804863
0.38128498197756167 0.37623950087310326 -0.22060515162106356
0.1792416856921141 0.4657655524430731 -0.22001055179833492
0.2019398876206251 0.20885534208062126 -0.22001055179833492
0.22356091595723634 0.3786351349414882 -0.21888167387402402
0.3154395146519153 0.18614852276337504 -0.21715819612698442
0.07709115962507945 0.004554289946551982 -0.21715819612698442
0.4228035609037446 0.37258572804937934 -0.21543471837994488
0.2473449088663823 0.29964814979466525 -0.21451265778527873
0.09979797894232567 -0.006794811017703575 -0.21451265778527873
0.43363561854388827 0.4391378212513119 -0.21198776288586577
0.23598719051339162 0.34504455365168724 -0.21176371077875064
0.16789258472785865 0.1747994217991196 -0.21176371077875064
0.4062409397546945 0.51529830289299 -0.20902338116095773
0.644580677392795 0.16345032083486405 -0.20902338116095773
0.4516373436117165 -0.07488941680323642 -0.20902338116095773
0.2659843207006151 0.46042277142725047 -0.20681732964474708
0.3154395146519153 0.2882990488304097 -0.20627443415442964
0.16789258472785865 -0.05219121487472544 -0.20627443415442964
0.4516373436117165 -0.05219121487472544 -0.20337037415066797
-0.013701648088964399 0.2656008469018988 -0.20337037415066797
0.3494868175446817 0.560694706750012 -0.20337037415066797
0.6218824754642841 -0.029493012946214568 -0.20077654014137342
0.020345654803802026 0.40179867586169987 -0.20077654014137342
0.22463808954913608 0.5493456057857566 -0.20077654014137342
0.28139221175914886 0.028622656683959476 -0.1981999409095493
0.16789258472785865 -0.063540315838981 -0.1981999409095493
0.418986057694052 0.37258572804937934 -0.1981999409095493
0.5310896677502401 -0.006794811017703575 -0.19527864612831725
-0.013701648088964399 0.27694994786615423 -0.19527864612831725
0.3721850194731927 0.583392908678523 -0.19527864612831725
0.6218824754642841 -0.05219121487472544 -0.19253831651052433
-0.0023525471247089645 0.44856524452761826 -0.19253831651052433
0.2019398876206251 0.560694706750012 -0.19253831651052433
0.28139221175914886 0.015903390910807415 -0.18978936950399625
0.09979797894232567 -0.07488941680323642 -0.18978936950399625
0.37381370594414515 0.3785920479978122 -0.1895825521743515
0.5310896677502401 0.06130841215656464 -0.18704042249746816
0.19059078665636964 0.3223463517231762 -0.18704042249746816
0.2473449088663823 0.5266474038572455 -0.18704042249746816
0.36083591850893726 0.18614852276337504 -0.18441211893323284
-0.0023525471247089645 0.09535571504933119 -0.18441211893323284
0.19561472428898993 0.4407665077222642 -0.18441211893323284
0.4402882426474609 0.1747994217991196 -0.18154252848441196
0.07709115962507945 0.015903390910807415 -0.18154252848441196
0.36083591850893726 0.4698932816472327 -0.18154252848441196
0.4516373436117165 0.04995069380357397 -0.17879358147788388
-0.013701648088964399 0.3223463517231762 -0.17879358147788388
0.2473449088663823 0.5379965048215011 -0.17879358147788388
0.4175900407189499 0.24508284432339286 -0.17605325186009096
0.19059078665636964 0.16345032083486405 -0.17605325186009096
0.2058866516613458 0.4510298177058848 -0.17579473019803504
0.3494868175446817 0.0726575131208202 -0.17330430485356288
0.16789258472785865 -0.006794811017703575 -0.17330430485356288
0.2696553283018094 0.3938275912816418 -0.1723477747039559
0.6105333745000285 0.4358459787544663 -0.17062429695691636
0.3381377165804263 0.1542900366093489 -0.17062429695691636
0.4338596706510033 0.46042277142725047 -0.17062429695691636
0.4175900407189499 0.20885534208062126 -0.16780641084050665
-0.013701648088964399 0.1294030179420976 -0.16780641084050665
0.23142859187247203 0.4510298177058848 -0.16717734146283725
0.4402882426474609 0.1521012198706086 -0.16505746383397857
0.07709115962507945 0.004554289946551982 -0.16505746383397857
0.3780620785905976 0.4698932816472327 -0.16505746383397857
0.4175900407189499 0.27694994786615423 -0.16230851682745048
-0.013701648088964399 0.14075211890635306 -0.16230851682745048
0.37171106309275687 0.37600683137725294 -0.16200690822171857
0.644580677392795 0.1294030179420976 -0.15956818720965757
0.00899655383954647 -0.08624713515622723 -0.15956818720965757
0.27246459702948395 0.45707922459799366 -0.15855995272763945
0.4402882426474609 0.29964814979466525 -0.15683647498059988
0.22463808954913608 0.18614852276337504 -0.15683647498059988
0.4111959382774331 0.3796778389784472 -0.15683647498059988
0.28139221175914886 0.11805391697784218 -0.1540702931966014
0.09979797894232567 0.06130841215656464 -0.1540702931966014
0.2768508478956996 0.3778681873440556 -0.15338951948652077
0.4516373436117165 -0.07488941680323642 -0.1513213461900733
0.00899655383954647 0.03860159283931841 -0.1513213461900733
0.36083591850893726 0.4812423826114883 -0.1513213461900733
0.42893914168320535 0.2656008469018988 -0.1485723991835452
-0.013701648088964399 0.14075211890635306 -0.1485723991835452
0.3686605074804969 0.37600683137725294 -0.1482190862454021
0.28139221175914886 0.028622656683959476 -0.14582345217701712
0.16789258472785865 -0.01814391198195901 -0.14582345217701712
0.27527386575715834 0.38120311678457713 -0.14477213075132297
0.6332315764285394 0.40179867586169987 -0.14304865300428343
0.3835427378261835 0.16345032083486405 -0.14304865300428343
0.36195617904451294 0.3692507986088578 -0.14304865300428343
0.42893914168320535 0.24426419239354896 -0.14033417555269612
-0.013701648088964399 0.16345032083486405 -0.14033417555269612
0.3606894229004389 0.3842967593405131 -0.1396016975102043
0.46750195627321545 0.10670481601358663 -0.137585228546168
0.16789258472785865 -0.063540315838981 -0.137585228546168
0.21496076199950903 0.38022073446876453 -0.13615474201612518
0.42893914168320535 0.4926001009644791 -0.13483628153963992
0.6332315764285394 0.41314777682595544 -0.13483628153963992
0.4258368817385343 0.46042277142725047 -0.13443126426908564
0.39489183879043893 0.18614852276337504 -0.1320873345331118
0.36083591850893726 0.2882990488304097 -0.1320873345331118
0.2182009001639433 0.3859857675326119 -0.1309843087750065
0.2473449088663823 0.5947420096427783 -0.12926083102796693
0.46298644457597204 0.23155354400913225 -0.12926083102796693
0.39667563825862495 0.38927761002945743 -0.12926083102796693
0.644580677392795 0.33369545268743167 -0.1265980579087908
0.3721850194731927 0.31099725075892065 -0.1265980579087908
0.4028973929254377 0.3829696814752927 -0.12581387553388781
-0.013701648088964399 0.18751868757227153 -0.12384911090226275
0.36083591850893726 0.5393580522416622 -0.12384911090226275
0.26719937251227804 0.38120311678457713 -0.1223669200398087
0.42893914168320535 0.4698932816472327 -0.12110016389573464
0.47433554554022733 0.40179867586169987 -0.12110016389573464
0.4044312881203029 0.38062575173931895 -0.12064344229276917
0.23598719051339162 0.19968644046637088 -0.11835121688920651
0.3780620785905976 0.4698932816472327 -0.11835121688920651
0.2682506939379722 0.3778681873440556 -0.11719648679869
0.4062409397546945 0.5493456057857566 -0.11547300905165049
0.6332315764285394 0.40179867586169987 -0.11547300905165049
0.4216315960357576 0.3778681873440556 -0.11547300905165049
0.3721850194731927 0.1521012198706086 -0.11285332287615034
0.2927413127234043 0.2656008469018988 -0.11285332287615034
0.28527003668998774 0.3874248714513899 -0.11202605355757138
-0.0023525471247089645 0.10670481601358663 -0.11011299325835747
0.23598719051339162 0.4812423826114883 -0.11011299325835747
0.6218824754642841 -0.063540315838981 -0.11011299325835747
0.09710073626820875 0.18614852276337504 -0.10736404625182934
0.5471438629639136 0.18614852276337504 -0.10736404625182934
0.39489183879043893 0.5720438077142674 -0.10736404625182934
0.36083591850893726 0.5039492019287346 -0.10736404625182934
0.19059078665636964 0.14075211890635306 -0.10461509924530128
0.47433554554022733 0.424496877790211 -0.10461509924530128
0.44329571131604484 0.24290264497338782 -0.10461509924530128
0.030264269238014656 0.27694994786615423 -0.10461509924530128
0.644580677392795 0.25223527697360704 -0.10297779538561366
0.5783388101853296 0.18614852276337504 -0.10297779538561366
0.07927997636381973 0.21212133241126127 -0.10297779538561366
0.19059078665636964 0.19749762372763058 -0.10202988262474191
0.644580677392795 0.31099725075892065 -0.10202988262474191
0.28403775010085447 0.45707922459799366 -0.101685187075334
0.18374858000062264 0.19461079850133925 -0.09996170932829442
0.644580677392795 0.18925940009678147 -0.0994446660041826
0.32678861561617073 0.22020444304487682 -0.0994446660041826
-0.005928763449816103 0.20689919483773134 -0.0982382315812549
0.52041272310733 0.33369545268743167 -0.09685944938362322
0.16393720329840283 0.33369545268743167 -0.09685944938362322
0.4516373436117165 -0.029493012946214568 -0.09685944938362322
0.18416221465991214 0.25568223246768607 -0.09651475383421532
0.00899655383954647 0.0726575131208202 -0.0942742327630639
0.47433554554022733 0.424496877790211 -0.0942742327630639
0.2700431107948933 0.16563913757360432 -0.0942742327630639
0.5426886729878164 0.1294030179420976 -0.0942742327630639
0.1015559262443061 0.10670481601358663 -0.09263692890337634
0.4936729658620112 0.10670481601358663 -0.09263692890337634
0.3835427378261835 0.5266474038572455 -0.09197338997076607
0.2700431107948933 0.2882990488304097 -0.09197338997076607
0.22892093175052938 0.38400376812351644 -0.09134432059309662
0.13720606344181924 0.3904495748974443 -0.08968116456720347
0.3494868175446817 0.560694706750012 -0.08968116456720347
0.47139701598152506 0.11228026652525964 -0.08968116456720347
0.6414698000593886 0.2679706288040781 -0.0896208428460571
0.17557929547965506 0.32375960347574867 -0.0896208428460571
0.44224438989035086 0.20186663981637593 -0.08789736509901752
0.6322061071690509 0.22867533617157618 -0.08789736509901752
-0.012693413606946341 0.25568223246768607 -0.08789736509901752
0.07709115962507945 0.08400661408507563 -0.08738032177490569
0.3381377165804263 0.015903390910807415 -0.08738032177490569
0.5961595700897185 0.36775137296893345 -0.08738032177490569
0.02580907926191743 0.3904495748974443 -0.08738032177490569
0.6340329935809129 0.128636070344665 -0.08617388735197799
-0.006540598050015128 0.19561041559462233 -0.08617388735197799
0.4527489867585569 0.11228026652525964 -0.08574301791521807
0.08373516633991696 0.10131033066535276 -0.08574301791521807
0.22463808954913608 0.22020444304487682 -0.08483819209802233
0.07709115962507945 0.004554289946551982 -0.08483819209802233
0.4758522059576223 0.09535571504933119 -0.08483819209802233
0.44238226811011394 0.12096659437033898 -0.08445040960493842
0.4478026056245535 0.1950589027155696 -0.08445040960493842
0.398726576777602 0.38120311678457713 -0.08445040960493842
0.1316478477076167 0.26717782904043996 -0.08445040960493842
-0.007712562918001991 0.20047062284127382 -0.08445040960493842
0.4579711243320867 0.11409853554838637 -0.08272693185789884
0.44641520603818663 0.2340094997986636 -0.08272693185789884
0.023068749644124552 0.33405738301431 -0.08272693185789884
-0.004265607423922825 0.26855661123807156 -0.08272693185789884
0.19059078665636964 0.3791004739331889 -0.08229606242113897
0.034719459214112 0.09535571504933119 -0.08229606242113897
0.4516373436117165 -0.07488941680323642 -0.08229606242113897
0.43360976637768256 0.1979457279418608 -0.08100345411085931
0.6376953837933719 0.19674791090766836 -0.08100345411085931
0.02642091386211646 0.3310412969569908 -0.08100345411085931
9.909997045478246E-4 0.12641278405098402 -0.08100345411085931
0.11938530353743022 0.004554289946551982 -0.08057258467409939
0.16234298638239122 0.34504455365168724 -0.08057258467409939
0.23598719051339162 0.3223463517231762 -0.08057258467409939
0.576968645376433 -0.08624713515622723 -0.08057258467409939
-0.02106089806882343 0.20291796124207004 -0.07927997636381973
-0.011116431468405085 0.21189728030414604 -0.07927997636381973
0.23005842706357552 0.3851412634365626 -0.07927997636381973
0.4317053234672038 0.21024274166698811 -0.07927997636381973
0.5919370496094718 0.11634767400827295 -0.07927997636381973
0.3835427378261835 0.34504455365168724 -0.07884910692705986
0.13720606344181924 0.09320998525426685 -0.07884910692705986
0.6028811333031728 -0.053001249415834104 -0.07884910692705986
0.23598719051339162 0.3464147184605837 -0.07884910692705986
0.4263711598401164 0.20242677008416377 -0.07755649861678021
0.4588759501492826 0.12198344624109228 -0.07755649861678021
0.27327463157059245 0.38683027162866135 -0.07755649861678021
0.19545099390302115 0.2118541933604701 -0.07755649861678021
0.14759863425646783 0.34514796231650957 -0.07755649861678021
0.5872491901375241 -0.08624713515622723 -0.07712562918002028
0.28139221175914886 0.2656008469018988 -0.07712562918002028
0.23598719051339162 0.4798808351913271 -0.07712562918002028
0.15654348376360322 0.09122798584517133 -0.07712562918002028
0.19028917805063775 0.21186281074920532 -0.07583302086974063
0.2292828620774077 0.38296106408655756 -0.07583302086974063
0.6009163686715476 0.10500719043275264 -0.07583302086974063
0.6218824754642841 0.09535571504933119 -0.07540215143298076
0.1594820133223056 -0.01814391198195901 -0.07540215143298076
0.09979797894232567 0.09535571504933119 -0.07460073428060733
0.21328898858488063 0.5947420096427783 -0.07460073428060733
0.4648219483765691 -0.063540315838981 -0.07460073428060733
0.2670011725713685 0.378928126158485 -0.07410954312270104
0.4328169666140445 0.2048827258736951 -0.07410954312270104
0.4768604404396403 -0.07145969608662774 -0.07410954312270104
0.47993684821810595 0.3705434069191375 -0.07410954312270104
0.1201177815799221 -0.06148075993126868 -0.07410954312270104
0.15699158797783344 0.38548595898597043 -0.07410954312270104
0.21577079654061757 0.45365812127012023 -0.07238606537566152
0.47017334678112677 -0.05813721310201202 -0.07238606537566152
0.48271164739083966 -0.009698871021465138 -0.07238606537566152
0.5913165976205376 -0.012956243963369904 -0.07238606537566152
0.038312910316689375 -0.05813721310201202 -0.07238606537566152
0.19720894120500157 0.20201313542487423 -0.07238606537566152
0.11738606935086435 -0.006432880690825254 -0.07238606537566152
0.013227691708528706 -0.003158272971450009 -0.07206722199245921
0.3154395146519153 0.2882990488304097 -0.07206722199245921
0.5537878696787509 -0.05219121487472544 -0.07206722199245921
0.5858359383849515 -0.07481186030461964 -0.07066258762862193
0.5984948824369573 -0.004812811608608048 -0.07066258762862193
0.5843795996887032 -0.04611595581641101 -0.07066258762862193
0.03314247707557075 -0.010138357846960242 -0.07066258762862193
0.04010532717361062 -0.009698871021465138 -0.07066258762862193
0.12725297945266592 -0.06968451400717697 -0.07066258762862193
0.36390370889866763 0.3834953421881398 -0.07066258762862193
0.16234298638239122 0.38046202135335017 -0.06954232709304627
0.36083591850893726 0.5039492019287346 -0.06954232709304627
0.6128342172923263 0.0726575131208202 -0.06954232709304627
0.4859173160003331 -0.07028773121864088 -0.06893910988158242
0.48055730020704024 -0.04626245142490946 -0.06893910988158242
0.6513711797161309 0.21186281074920532 -0.06893910988158242
0.15430296269245175 -0.0752082601864388 -0.06893910988158242
0.1536566585373119 0.3863994021919014 -0.06893910988158242
0.20810993795502677 0.26015465722125375 -0.06893910988158242
0.3040904136876598 0.2882990488304097 -0.06781884934600668
0.6332315764285394 0.3564022720046779 -0.06781884934600668
0.056521452714162305 -0.07028773121864088 -0.06721563213454283
0.023068749644124552 0.38781265394447395 -0.06721563213454283
0.1551991711209123 0.1087816066987693 -0.06721563213454283
0.5126915428005927 -0.07642331199810173 -0.06721563213454283
0.6091373575249265 0.3280079761222011 -0.06721563213454283
0.43915936472315 0.2177571046440806 -0.06721563213454283
0.16789258472785865 0.004554289946551982 -0.0660953715989671
0.3154395146519153 0.18614852276337504 -0.0660953715989671
0.3494868175446817 0.1747994217991196 -0.0660953715989671
0.07111069184285228 -0.07479462552714929 -0.06549215438750325
-0.019570089817634195 0.19710984123454667 -0.06549215438750325
0.12720127512025473 -0.009647166689053948 -0.06549215438750325
0.4796697091673148 -0.046727790416610154 -0.06549215438750325
0.6082152969302603 -0.005898602589242889 -0.06549215438750325
0.33587996073180443 0.37177569350827083 -0.06549215438750325
0.5101321783462389 -0.08624713515622723 -0.06437189385192757
0.4175900407189499 0.583392908678523 -0.06437189385192757
0.16393720329840283 -0.08014602393170708 -0.06437189385192757
0.5686873348019081 -0.06501388931269987 -0.06376867664046372
0.4263539250626462 0.26015465722125375 -0.06376867664046372
0.4858914638341276 0.09688099285546113 -0.06376867664046372
0.014916699900627457 -0.009698871021465138 -0.06376867664046372
0.1826455542425173 0.1065324682388827 -0.06376867664046372
0.04510341264002533 -0.037248662807892505 -0.06376867664046372
0.46448587021589627 -0.05279443208618934 -0.06264841610488799
0.25869400983063784 0.14075211890635306 -0.06264841610488799
0.32678861561617073 0.2656008469018988 -0.06264841610488799
0.1634546295292318 0.015903390910807415 -0.06264841610488799
0.15023555520943832 0.33214432271509614 -0.06204519889342414
-0.02069035035320987 0.11763166492981743 -0.06204519889342414
-0.012452126722360754 0.20714048172231692 -0.06204519889342414
0.6446151469477359 0.18586414893511363 -0.06204519889342414
0.5681789088665314 0.09693269718787233 -0.06204519889342414
0.6419954607722358 0.1518513155972879 -0.06204519889342414
0.19059078665636964 0.3791004739331889 -0.06161432945666428
0.3494868175446817 0.5720438077142674 -0.06161432945666428
0.5288319119016183 -0.08014602393170708 -0.06161432945666428
0.47383573699358594 -0.0752082601864388 -0.06032172114638462
0.48056591759577544 -0.011939392092616609 -0.06032172114638462
0.5120366212567177 -0.013421582955070604 -0.06032172114638462
0.02358579296823644 -0.07769868553091097 -0.06032172114638462
0.19714861948385512 0.2597065530070234 -0.06032172114638462
0.12934700491531892 -0.007122271789641063 -0.06032172114638462
0.5678686828720643 -0.08624713515622723 -0.059890851709624694
0.39489183879043893 0.1747994217991196 -0.059890851709624694
0.22463808954913608 0.1747994217991196 -0.059890851709624694
0.523118583170182 -0.07145969608662774 -0.05859824339934504
0.4326877057830164 0.25277817246392437 -0.05859824339934504
0.6056042281434953 -0.05350105796247551 -0.05859824339934504
0.479505978781346 -0.008552758319683869 -0.05859824339934504
0.14598718256298585 -0.004812811608608048 -0.05859824339934504
0.11175891450678026 -0.05014889374448361 -0.05859824339934504
0.04702509032797443 -0.06857287086033653 -0.05859824339934504
0.05908943455725127 -0.08420481402598527 -0.0574779828637693
0.3721850194731927 0.560694706750012 -0.0574779828637693
0.2019398876206251 0.4358459787544663 -0.0574779828637693
0.04949828089497613 -0.07771592030838133 -0.05687476565230545
-0.022319036824162194 0.20689919483773134 -0.05687476565230545
0.19737267159097036 0.19395587695746427 -0.05687476565230545
0.48406457742226583 -0.07436375609038942 -0.05687476565230545
0.43096422803597695 0.2039003435578825 -0.05687476565230545
0.477325779431341 -0.05502633576860558 -0.05687476565230545
0.4384958257905398 0.1968685543499611 -0.05687476565230545
0.32678861561617073 0.24290264497338782 -0.055754505116729774
0.3494868175446817 0.10670481601358663 -0.055754505116729774
0.5162419069594942 -0.013766278504478568 -0.05515128790526593
0.4696735382344854 -0.004812811608608048 -0.05515128790526593
0.6230372055548005 -0.012956243963369904 -0.05515128790526593
0.05696955692839265 -0.00557975920604064 -0.05515128790526593
0.11211222744492334 -0.01872989441595244 -0.05515128790526593
0.1037016560393703 -0.009698871021465138 -0.05515128790526593
0.03841631898151175 -0.08487697034733073 -0.0540310273696902
0.2019398876206251 0.51529830289299 -0.0540310273696902
0.5888778766084765 -0.021496076199950916 -0.0540310273696902
0.5180687933713563 -0.046615764363052536 -0.05342781015822635
0.5075297269482093 -0.01458493043432235 -0.05342781015822635
0.4663558435714343 0.10525709470607333 -0.05342781015822635
0.015821525717823137 0.10149129582879192 -0.05342781015822635
-0.02101781112514736 0.19395587695746427 -0.05342781015822635
0.1645835074535427 -0.08420481402598527 -0.05230754962265067
0.39489183879043893 0.5720438077142674 -0.05230754962265067
0.49812815583810843 -0.08119734535740133 -0.05230754962265067
0.48040218720980665 -0.07479462552714929 -0.051704332411186826
0.5495653491985042 0.10987601506813936 -0.051704332411186826
0.6209517974808827 0.09834594894044478 -0.051704332411186826
0.11860973855126251 -0.07436375609038942 -0.051704332411186826
0.19720894120500157 0.20201313542487423 -0.051704332411186826
0.1719944617658128 0.09856138365882476 -0.051704332411186826
0.13214765625425823 -0.0010900996750025827 -0.05058407187561109
0.4175900407189499 0.2733134098199008 -0.05058407187561109
0.4003552632485543 0.45991434549187377 -0.04998085466414724
0.6515349101020997 0.20201313542487423 -0.04998085466414724
0.6021228030944755 0.10144820888511598 -0.04998085466414724
0.14873612956951396 0.09693269718787233 -0.04998085466414724
0.016881464532252505 -0.046391712255937426 -0.04998085466414724
0.1937102813785112 0.19298211203038693 -0.04998085466414724
0.050204906771262416 -0.08213664072953784 -0.04842972469181164
0.21328898858488063 0.5947420096427783 -0.04842972469181164
0.5310896677502401 0.09320998525426685 -0.04842972469181164
0.571082968870293 -0.07436375609038942 -0.04825737691710766
0.5055821970940546 -0.009698871021465138 -0.04825737691710766
0.42951650672846364 0.2516320597621431 -0.04825737691710766
0.12216010271016395 -0.009698871021465138 -0.04825737691710766
0.008462275737964228 0.10190493048808143 -0.04825737691710766
0.013175987376117517 0.3211312999115133 -0.04825737691710766
0.4459757192126914 0.12125096819860053 -0.04653389917006814
0.5247300348636641 0.09693269718787233 -0.04653389917006814
0.6130668867881768 0.10442982538749444 -0.04653389917006814
0.1548630929602396 0.324647194515474 -0.04653389917006814
0.1937102813785112 0.21186281074920532 -0.04653389917006814
0.14368633977068807 0.06130841215656464 -0.046275377508012194
0.4175900407189499 0.560694706750012 -0.046275377508012194
0.5310896677502401 0.0726575131208202 -0.046275377508012194
0.515750715801588 -0.006312237248532399 -0.04481042142302855
0.4696735382344854 0.09773411434024575 -0.04481042142302855
0.6417455564989151 0.11763166492981743 -0.04481042142302855
0.10944083693701201 -0.07028773121864088 -0.04481042142302855
-0.02080237640676749 0.260602761435484 -0.04481042142302855
0.18598048368303885 0.11600297845886498 -0.04481042142302855
0.29561090317222516 0.3935173652871747 -0.04481042142302855
0.3721850194731927 0.29964814979466525 -0.044121030324212746
0.28139221175914886 0.004554289946551982 -0.044121030324212746
0.6036049939569295 -0.006432880690825254 -0.04308694367598903
0.6448650512210566 0.19501581577189364 -0.04308694367598903
0.6235714836563828 0.10449014710864074 -0.04308694367598903
0.026239948698677296 -0.006432880690825254 -0.04308694367598903
0.11184508839413215 -0.010155592624430597 -0.04308694367598903
0.10481329918621086 -0.009698871021465138 -0.04308694367598903
0.5694284302331349 -0.08420481402598527 -0.0419666831404133
0.12522789309989443 -0.08487697034733073 -0.0419666831404133
0.4175900407189499 0.583392908678523 -0.0419666831404133
0.3958138993851051 0.4341311183961621 -0.04136346592894945
0.520852209932825 0.10531741642721977 -0.04136346592894945
0.5314429806883832 -0.012956243963369904 -0.04136346592894945
0.11542992210797454 -0.0057951939244206335 -0.04136346592894945
0.1904442910478713 0.2523128334722238 -0.04136346592894945
0.10843260245499382 0.09832009677423918 -0.04136346592894945
0.5274014253715755 -0.08513549200938667 -0.04093259649218958
0.1422730880181156 0.004554289946551982 -0.04024320539337371
0.42444948215216743 0.24290264497338782 -0.04024320539337371
0.20239660922359065 0.24290264497338782 -0.04024320539337371
0.6067072539016009 -0.07482047769335488 -0.03963998818190986
0.5149320638717443 0.10063817434400743 -0.03963998818190986
0.5674464308240396 -0.0515449107195857 -0.03963998818190986
0.1581290832908796 -0.012387496306846829 -0.03963998818190986
-0.011245692299433058 0.12096659437033898 -0.03963998818190986
0.15977500453930238 -0.061403203432651904 -0.03963998818190986
0.5310896677502401 0.03860159283931841 -0.03851972764633419
0.22463808954913608 0.5947420096427783 -0.03851972764633419
0.2624167217642432 0.4590095196746781 -0.03791651043487034
0.4634000792352613 -0.05813721310201202 -0.03791651043487034
0.4741028760443771 -0.008759575649328624 -0.03791651043487034
0.6626341067930344 0.21024274166698811 -0.03791651043487034
0.026239948698677296 -0.009698871021465138 -0.03791651043487034
0.06760341462762669 0.09866479232364714 -0.03791651043487034
0.1182736603905898 -0.06484154153799583 -0.03791651043487034
0.2700431107948933 0.33369545268743167 -0.03679624989929461
0.6156003990763248 0.36775137296893345 -0.03679624989929461
0.5726427162313639 0.09825115766435763 -0.03619303268783076
0.6034929679033718 0.4098731691065803 -0.03619303268783076
0.6068623668988343 -0.05014889374448361 -0.03619303268783076
0.5719705599100184 -0.07642331199810173 -0.03619303268783076
0.06522501533671213 -0.006157124251298832 -0.03619303268783076
-0.017881081625535446 0.19520539832406794 -0.03619303268783076
0.16597090703990955 -0.05432832728105453 -0.03619303268783076
0.07709115962507945 -0.08624713515622723 -0.035072772152255086
0.3835341204374483 0.6174402115712895 -0.035072772152255086
0.48198778673708303 -0.08420481402598527 -0.035072772152255086
0.430274836937161 0.20159950076558472 -0.034469554940791236
0.6502509191805552 0.19710984123454667 -0.034469554940791236
0.6028121941932915 -0.06501388931269987 -0.034469554940791236
0.1561298491043137 -0.006114037307622883 -0.034469554940791236
0.09626484956089461 0.1065324682388827 -0.034469554940791236
0.14793471241714054 -0.07479462552714929 -0.034469554940791236
0.3040904136876598 0.25288158112874676 -0.0333492944052155
0.3494868175446817 0.08400661408507563 -0.0333492944052155
0.07385963884938028 -0.07575977306549152 -0.03274607719375165
0.15567312750134812 -0.010732957669688912 -0.03274607719375165
0.07399751706914348 0.09804434033471288 -0.03274607719375165
0.5257985910668286 -0.07549263401470034 -0.03274607719375165
0.45901382836904575 -0.009698871021465138 -0.03274607719375165
0.6008560469504015 0.3688026943946276 -0.03274607719375165
0.28139221175914886 0.09535571504933119 -0.03162581665817592
0.3040904136876598 0.25288158112874676 -0.03162581665817592
0.2923621476190556 0.38290935975414636 -0.03102259944671207
0.6508024320596079 0.2610422482609791 -0.03102259944671207
0.6191335284577558 0.10098286989341528 -0.03102259944671207
0.05494447057562118 0.09819945333194645 -0.03102259944671207
0.027213713625754643 0.10492963393413585 -0.03102259944671207
0.1976311932530262 0.2517871727593767 -0.03102259944671207
0.07709115962507945 -0.08624713515622723 -0.03020394751686829
0.4062409397546945 0.5493456057857566 -0.03020394751686829
0.4516373436117165 0.03860159283931841 -0.03020394751686829
0.5055132579841729 -0.06810753186863583 -0.029299121699672546
0.4720433201366648 -0.012680487523843606 -0.029299121699672546
0.529909085493518 -0.006432880690825254 -0.029299121699672546
0.11963520781075106 -0.06890033163227402 -0.029299121699672546
0.15594888394087456 -0.04650373830949492 -0.029299121699672546
0.07374761279582277 0.09755314917680659 -0.029299121699672546
-0.0023525471247089645 0.34504455365168724 -0.02878207837556066
0.23598719051339162 0.4798808351913271 -0.02878207837556066
0.5651369706430065 -0.08624713515622723 -0.02878207837556066
0.43217927984763976 0.20037583156518668 -0.027575643952632966
0.6480362502756094 0.2507186165562122 -0.027575643952632966
0.5707555080983554 -0.07436375609038942 -0.027575643952632966
-0.01735542091268832 0.2574746493246072 -0.027575643952632966
-0.022319036824162194 0.2523473030271645 -0.027575643952632966
0.029126773924968628 0.36969890282308815 -0.027575643952632966
0.21346133635958456 0.21021688950078252 -0.0271447745158731
0.4062409397546945 0.19749762372763058 -0.0271447745158731
0.5872491901375241 0.09320998525426685 -0.0271447745158731
0.6034584983484311 0.10512783387504548 -0.025852166205593444
0.45966013252418547 0.10189631309934631 -0.025852166205593444
0.567506752545186 -0.07028773121864088 -0.025852166205593444
0.1646696813408947 -0.072080148075562 -0.025852166205593444
0.11397358341172602 0.10092254817226885 -0.025852166205593444
0.0777633159464249 0.09856138365882476 -0.025852166205593444
0.020345654803802026 0.4358459787544663 -0.025421296768833517
0.2700431107948933 0.560694706750012 -0.025421296768833517
0.5872491901375241 -0.05279443208618934 -0.025421296768833517
0.4365569133251203 0.2507186165562122 -0.02412868845855386
0.6592991773525128 0.25568223246768607 -0.02412868845855386
0.5942120402355638 -0.07642331199810173 -0.02412868845855386
0.07184316988534403 -0.05651714401979481 -0.02412868845855386
0.15718978791874297 0.32388886430677666 -0.02412868845855386
0.1032621692138752 0.10436088627761278 -0.02412868845855386
0.013175987376117517 0.3211312999115133 -0.02412868845855386
0.16234298638239122 0.3791004739331889 -0.023008427922978126
0.3835427378261835 0.4926001009644791 -0.023008427922978126
0.04153581370365343 -0.06142043821012238 -0.022405210711514276
0.2002939663722024 0.20242677008416377 -0.022405210711514276
0.04556013424299079 -0.054181831672556205 -0.022405210711514276
0.05522884440388271 -0.01207727031237982 -0.022405210711514276
0.5194820451239286 -0.06775421893049276 -0.022405210711514276
0.49561187832743064 -0.009698871021465138 -0.022405210711514276
0.614816216701422 0.09693269718787233 -0.022405210711514276
0.4010015674036942 0.370784693803723 -0.022405210711514276
0.4175900407189499 0.41314777682595544 -0.0212849501759386
0.4531884735840521 0.015903390910807415 -0.0212849501759386
0.13788683715189995 -0.07642331199810173 -0.020681732964474755
0.12197913754672478 0.10177566965705347 -0.020681732964474755
0.044207204211564766 -0.013404348177600247 -0.020681732964474755
0.5101580305124447 -0.06890033163227402 -0.020681732964474755
0.48056591759577544 -0.00745834995031379 -0.020681732964474755
0.6529998661870833 0.21024274166698811 -0.020681732964474755
0.5553303822623514 -0.0010900996750025827 -0.01956147242889902
0.2019398876206251 0.5280089512774067 -0.01956147242889902
0.1669188198007813 -0.034766854852155575 -0.01956147242889902
-0.022319036824162194 0.26015465722125375 -0.01895825521743517
0.022456915043925527 -0.005502202707423857 -0.01895825521743517
0.05139410641671963 0.1034819126266227 -0.01895825521743517
0.6529998661870833 0.25568223246768607 -0.01895825521743517
0.5137342468375516 -0.057826987107544886 -0.01895825521743517
0.3292962757381134 0.3871060280681875 -0.01895825521743517
0.45717832456844865 -0.08107670191510848 -0.017837994681859495
0.47433554554022733 0.43896547347660786 -0.017837994681859495
0.06492340673098024 -0.08405831841748694 -0.017837994681859495
0.12054865101668198 -0.009698871021465138 -0.01723477747039565
0.19704521081903276 0.21186281074920532 -0.01723477747039565
0.5128380384090913 -0.07769868553091097 -0.01723477747039565
0.6091373575249265 0.3280079761222011 -0.01723477747039565
0.5948152574470277 0.09470941089419133 -0.01723477747039565
0.10215052606703465 0.09227930727086546 -0.016114516934819915
0.4062409397546945 0.5039492019287346 -0.016114516934819915
0.5236873308267052 -0.08398076191887016 -0.016114516934819915
0.2783933604792999 0.38866577542925845 -0.015511299723356065
0.60514750654053 0.10414545155923291 -0.015511299723356065
0.513010386183795 -0.004812811608608048 -0.015511299723356065
0.6089650097502226 0.10830765031833348 -0.015511299723356065
0.027222331014489884 -0.009698871021465138 -0.015511299723356065
0.11489564400639217 -0.013490522064952147 -0.015511299723356065
0.16789258472785865 0.04995069380357397 -0.01439103918778033
0.20239660922359065 0.22020444304487682 -0.01439103918778033
0.4175900407189499 0.21558552268281078 -0.01439103918778033
0.6131444432867934 0.07401906054098134 -0.01439103918778033
0.5063060577478112 -0.012137592033526124 -0.013787821976316483
0.4281721940857728 0.25568223246768607 -0.013787821976316483
0.6174186680994517 0.11258187513099153 -0.013787821976316483
-0.002860973060085613 0.11600297845886498 -0.013787821976316483
0.1139994355779316 0.09856138365882476 -0.013787821976316483
0.1152834264994761 0.10866958064521168 -0.013787821976316483
0.28139221175914886 0.31099725075892065 -0.01266756144074081
0.42444948215216743 0.23155354400913225 -0.01266756144074081
0.6218824754642841 0.08400661408507563 -0.01266756144074081
0.5889209635521524 -0.009698871021465138 -0.01206434422927696
0.4986624339396908 -0.004812811608608048 -0.01206434422927696
0.5844657735760551 -0.06501388931269987 -0.01206434422927696
0.10752777663779814 0.10995357156675616 -0.01206434422927696
0.1170930781338677 0.10123277416673598 -0.01206434422927696
0.13448296860149683 -0.05813721310201202 -0.01206434422927696
0.4545672557816837 0.09535571504933119 -0.010944083693701225
0.2473449088663823 0.18614852276337504 -0.010944083693701225
0.10746745491665172 -0.01923832035132909 -0.010944083693701225
0.4948707828962038 -0.058128595713276776 -0.010340866482237377
0.5984948824369573 -0.004812811608608048 -0.010340866482237377
0.5851120777311951 -0.05407842300773383 -0.010340866482237377
0.06071812102820371 -0.0551125096559576 -0.010340866482237377
0.12443509333625612 0.09770826217404015 -0.010340866482237377
0.017708733850831524 -0.006432880690825254 -0.010340866482237377
-0.011357718352990674 0.2811379987914604 -0.010340866482237377
0.23598719051339162 0.3223463517231762 -0.009823823158125551
0.3778207917060121 0.34431207560919536 -0.009220605946661704
0.4516373436117165 0.027252491875062974 -0.009220605946661704
0.06847377088988166 -1.5942169160118564E-4 -0.009220605946661704
0.13973095834123225 -0.07833637229731559 -0.008617388735197856
0.0335388769573899 -0.01293039179716431 -0.008617388735197856
-0.011366335741725913 0.28114661618019554 -0.008617388735197856
0.6447702599449695 0.2523300682496942 -0.008617388735197856
0.60101977733637 -0.006208828583710021 -0.008617388735197856
0.35962086669727433 0.4558727901750661 -0.008617388735197856
0.5915665018938583 -0.08420481402598527 -0.00749712819962212
0.3835427378261835 0.35984922749875703 -0.00749712819962212
0.2927413127234043 0.16345032083486405 -0.00749712819962212
0.034977980876167825 -0.05811136093580642 -0.006893910988158272
0.19369304660104084 0.26285189989537067 -0.006893910988158272
0.14268672267740512 -0.07553572095837628 -0.006893910988158272
0.577003114931374 -0.06883139252239248 -0.006893910988158272
0.5064180838013689 0.10168949576970156 -0.006893910988158272
0.6294743949399934 0.1125732577422563 -0.006893910988158272
0.4855209161185141 -0.08487697034733073 -0.0057736504525825365
0.2019398876206251 0.41314777682595544 -0.0057736504525825365
0.1218154071607561 -0.06148075993126868 -0.005170433241118689
-0.009617005828480735 0.10319753879836115 -0.005170433241118689
0.2808406988800961 0.281077677070314 -0.005170433241118689
0.4318862886306431 0.20045338806380347 -0.005170433241118689
0.6017522553788619 0.11160811020391419 -0.005170433241118689
0.10973382815400878 -0.06627202806803864 -0.004050172705543015
0.5211796707047626 -0.01923832035132909 -0.004050172705543015
0.4175900407189499 0.27694994786615423 -0.004050172705543015
0.14571142612345955 -0.009698871021465138 -0.0034469554940791667
0.027075835405991556 0.10319753879836115 -0.0034469554940791667
0.25212755961441713 0.3890535579223422 -0.0034469554940791667
0.32570282463553585 0.5593590114960563 -0.0034469554940791667
0.5735044551048837 0.10156885232740871 -0.0034469554940791667
0.11312907931567664 -0.05486260538263677 -0.0023266949585034314
0.06538874572268093 -0.07807785063525965 -0.0023266949585034314
0.46519249609218244 0.36775137296893345 -0.0023266949585034314
0.5025833458142058 -0.08119734535740133 -0.0023266949585034314
0.051342402084308444 -0.0109742445542745 -0.0017234777470395834
0.19704521081903276 0.11763166492981743 -0.0017234777470395834
0.35619114598066565 0.44674697550449166 -0.0017234777470395834
0.35317505992334647 0.44963380073078274 -0.0017234777470395834
0.4391938342780907 0.21772263508913978 -0.0017234777470395834
0.02256894109748302 -0.01923832035132909 -6.032172114639093E-4
0.12729606639634186 -0.08124904968981239 -6.032172114639093E-4
0.4909757231878944 0.08400661408507563 -6.032172114639093E-4
0.2700431107948933 0.14075211890635306 -6.032172114639093E-4
0.31098432467581805 0.2459704353631182 -6.032172114639093E-4
0.4442953284093279 0.3211312999115133 -6.12302296701571E-17
0.263536982299819 0.31338426743857045 -6.12302296701571E-17
0.2002939663722024 0.20242677008416377 -6.12302296701571E-17
0.6081377404316436 -0.015489756251518152 0.001120260535575674
0.5537878696787509 0.004554289946551982 0.001120260535575674
0.4062409397546945 0.4698932816472327 0.001120260535575674
0.06273458999223995 -0.003907985791412246 0.001120260535575674
0.43313580999724666 0.12096659437033898 0.001723477747039522
0.2704825976203884 0.28878162259958085 0.001723477747039522
0.19028917805063775 0.32375960347574867 0.001723477747039522
0.5917043801136214 -0.01650660812227145 0.0028437382826152573
0.5310896677502401 0.0726575131208202 0.0028437382826152573
0.16234298638239122 0.3564022720046779 0.0028437382826152573
0.05254021911850102 -0.07806923324652441 0.0028437382826152573
0.6513711797161309 0.2507186165562122 0.003446955494079105
0.2638385909055509 0.2903327525719164 0.003446955494079105
0.19196956885400127 0.1980232844404776 0.003446955494079105
0.5744868374206962 -0.05561231820259901 0.0038778249308389703
0.4175900407189499 0.5720438077142674 0.0038778249308389703
0.12384049351352758 -0.002891133920658949 0.0038778249308389703
0.43110210625574 0.2655922295131636 0.005170433241118627
0.2587801837179898 0.6033766331554467 0.005170433241118627
-0.018604942279291967 0.20045338806380347 0.005170433241118627
0.014382421799045092 0.3904495748974443 0.0056013026778785535
0.3835341204374483 0.19749762372763058 0.0056013026778785535
0.6069140712312455 0.44867727058117585 0.00689391098815821
0.37540792286015673 0.560694706750012 0.00689391098815821
-0.02032842002633155 0.25908610101808927 0.00689391098815821
0.00899655383954647 -0.07488941680323642 0.007324780424918076
0.4175900407189499 0.22020444304487682 0.007324780424918076
0.6502509191805552 0.20773508154504558 0.008617388735197733
0.39078996175248476 0.3913285485484345 0.008617388735197733
0.19588186333978114 0.2039003435578825 0.008617388735197733
0.00899655383954647 0.03860159283931841 0.00904825817195766
0.42444948215216743 0.23155354400913225 0.00904825817195766
0.6529998661870833 0.2646270819748213 0.010340866482237317
0.3729174975156846 0.6001968167121586 0.010340866482237317
0.1917282819694158 0.2648942210256125 0.010340866482237317
0.6156003990763248 0.3791004739331889 0.010771735918997181
0.5537878696787509 0.004554289946551982 0.010771735918997181
0.1282956834896248 -0.01814391198195901 0.010771735918997181
0.4324378015096957 0.2579313709275728 0.012064344229276899
0.3769418180550219 0.32819755867437556 0.012064344229276899
0.25647934092569197 0.5944404010370464 0.012064344229276899
0.18760917015399117 0.11763166492981743 0.012064344229276899
0.5111145606620515 0.007286002175609623 0.012495213666036764
0.06282076387959197 0.004554289946551982 0.012495213666036764
0.4062409397546945 0.6174402115712895 0.012495213666036764
0.6008560469504015 0.3688026943946276 0.01378782197631642
0.32615954623850135 0.5986629215172935 0.01378782197631642
0.1937102813785112 0.3271807068036221 0.01378782197631642
0.16789258472785865 0.09784614039380324 0.014218691413076348
0.2019398876206251 0.41314777682595544 0.014218691413076348
0.47160383331116984 -0.05219121487472544 0.014218691413076348
0.42893914168320535 0.5039492019287346 0.014218691413076348
-0.03175507748920389 0.2679706288040781 0.015511299723356005
0.29442170352676794 0.5978442695874497 0.015511299723356005
0.6494322672507115 0.2619298393007045 0.015511299723356005
0.39489183879043893 0.5720438077142674 0.01594216916011587
0.5537878696787509 0.015903390910807415 0.01594216916011587
0.02580907926191743 -0.07882756345522189 0.01594216916011587
0.16234298638239122 0.44719507971872186 0.01594216916011587
0.6010283947251053 0.10995357156675616 0.017234777470395528
0.2564017844270752 0.6060652584408285 0.017234777470395528
0.2683799547690001 0.28164642472683704 0.017234777470395528
0.1976311932530262 0.2517871727593767 0.017234777470395528
0.06847377088988166 0.027252491875062974 0.01766564690715545
0.16234298638239122 0.40179867586169987 0.01766564690715545
0.4803073959337195 -0.0010900996750025827 0.01766564690715545
0.6132650867290863 0.007286002175609623 0.01766564690715545
0.05749521764123965 0.10156885232740871 0.01895825521743511
0.29789451118705257 0.2369480293573661 0.01895825521743511
0.4326877057830164 0.25277817246392437 0.01895825521743511
0.15927519599266085 0.06130841215656464 0.019389124654194977
0.00899655383954647 -0.04945950264566779 0.019389124654194977
0.4062409397546945 0.23155354400913225 0.019389124654194977
0.5224722790150423 0.09535571504933119 0.019389124654194977
0.0312638863312976 -0.007363558674226529 0.020681732964474692
0.19028917805063775 0.21186281074920532 0.020681732964474692
0.18598048368303885 0.11600297845886498 0.020681732964474692
0.29175031301885657 0.251192572936648 0.020681732964474692
0.6501130409607919 0.2614817350864742 0.020681732964474692
0.48632233327088764 -0.06148075993126868 0.020681732964474692
0.4391248951682093 0.28230996365944727 0.020681732964474692
0.413195172463999 0.21351734938636324 0.021112602401234557
0.1544063713572741 -0.08405831841748694 0.021112602401234557
0.15146784179857162 -0.07526858190758523 0.022405210711514214
0.18760917015399117 0.12438769769821255 0.022405210711514214
0.06581961515944079 0.10319753879836115 0.022405210711514214
0.32471182493098805 0.23317361309134946 0.022405210711514214
0.4965253215333618 -0.07479462552714929 0.022405210711514214
0.5913165976205376 -0.009698871021465138 0.022405210711514214
0.5708761515406483 0.09817360116574085 0.022405210711514214
0.5164228721229335 0.03860159283931841 0.02283608014827414
0.2019398876206251 0.560694706750012 0.02283608014827414
0.00899655383954647 0.09535571504933119 0.02283608014827414
0.6460887204214547 0.26485113408193656 0.024128688458553798
0.48782175891081186 0.10055200045665541 0.024128688458553798
0.47321528500465165 0.09856138365882476 0.024128688458553798
0.38024227794060267 0.5011830201447359 0.024128688458553798
0.1590942308292217 -0.07479462552714929 0.024128688458553798
-0.021319419730879252 0.260688935322836 0.024128688458553798
0.1986738972899852 0.20689919483773134 0.024128688458553798
0.5626637800760047 0.06130841215656464 0.025248948994129473
-0.0023525471247089645 0.44719507971872186 0.025248948994129473
0.017105516639367616 -0.040842113910470004 0.025248948994129473
-0.014089430582048314 0.26798786358154847 0.02585216620559332
0.058960173726223294 0.10068126128768339 0.02585216620559332
0.38017333883072113 0.3077140256508103 0.02585216620559332
0.31131178544775556 0.23189823955854022 0.02585216620559332
0.578666270957267 -0.04677949474902122 0.02585216620559332
0.6035274374583128 -0.01458493043432235 0.02585216620559332
0.6131444432867934 0.00319274252639072 0.026972426741169054
0.6332315764285394 0.36775137296893345 0.026972426741169054
0.09979797894232567 0.09784614039380324 0.026972426741169054
-0.004248372646452469 0.12062189882093102 0.027575643952632903
0.10829472423523073 0.09856138365882476 0.027575643952632903
0.14479798291752852 0.08980611670386376 0.027575643952632903
0.319610330799751 0.5839788911125163 0.027575643952632903
0.4321361929039638 0.2622917696275828 0.027575643952632903
0.47054389449674033 0.33214432271509614 0.027575643952632903
0.5775890973653673 0.0783449896860507 0.027575643952632903
0.4175900407189499 0.2755797830572577 0.028695904488208638
0.16789258472785865 -0.05219121487472544 0.028695904488208638
0.19028917805063775 0.21186281074920532 0.029299121699672488
0.20810993795502677 0.2523473030271645 0.029299121699672488
0.13500001192560873 -0.00475248988746162 0.029299121699672488
0.30459022223430127 0.5885547245309064 0.029299121699672488
0.6483550936588117 0.19996219690589717 0.029299121699672488
0.5579242162716461 -0.012956243963369904 0.029299121699672488
0.4175900407189499 0.583392908678523 0.03041938223524816
0.6218824754642841 -0.018307642367927816 0.03041938223524816
0.11492149617259777 -0.08513549200938667 0.03041938223524816
0.06295864209935506 -0.05813721310201202 0.03102259944671201
-0.022319036824162194 0.20689919483773134 0.03102259944671201
0.04905879406948102 -0.008630314818300653 0.03102259944671201
0.31888647014599447 0.21983389532926326 0.03102259944671201
0.46470130493427625 -0.06148075993126868 0.03102259944671201
0.6529998661870833 0.1979457279418608 0.03102259944671201
0.5982363607749014 -0.014645252155468655 0.03102259944671201
0.5293231030595245 -0.07875862434534034 0.03145346888347193
