0.248245020470881 -0.025186847122111958 -0.15366704561866162
0.21616588810741136 0.21047838887460243 -0.15366704561866162
0.2116104330864084 0.13061698877586247 -0.15366704561866162
0.2636571886557113 0.22158969832702868 -0.15366704561866162
0.0480868740091297 0.1612594706536665 -0.15366704561866162
0.007760640439972024 0.49991799811325544 -0.15366704561866162
0.07610155847960867 0.5808432469893554 -0.15366704561866162
0.08282108195370286 0.5726234239574459 -0.15366704561866162
0.29509073757309073 0.39396047843312143 -0.15366704561866162
0.05282418352198904 0.35741681829457705 -0.15366704561866162
0.038775924026081786 0.293440408059494 -0.15366704561866162
-0.09395057685531497 0.5424719492076541 -0.15366704561866162
0.04608647459870926 0.2801923083277549 -0.15366704561866162
0.09973354969634844 0.3550618026250366 -0.15366704561866162
0.03377492550003057 0.3534069267491433 -0.15248499142159497
0.5060692263002983 0.5208585428505204 -0.15184850070009753
0.5422582701797226 0.47384915670564 -0.15184850070009753
0.5628441986578676 0.32419200263241205 -0.15184850070009753
0.5163167269164067 0.31169859904187697 -0.15184850070009753
0.41847901029766116 0.18036328502318177 -0.15184850070009753
0.599396951521005 0.13286289175028906 -0.15184850070009753
0.6363134133678551 0.13762747943692685 -0.15184850070009753
0.574010064457851 0.0561475743606648 -0.15184850070009753
0.43821931538867387 -0.006892285241357683 -0.15184850070009753
0.5670995937673075 0.07054135739109932 -0.15184850070009753
0.4405743310582142 0.0357707785481547 -0.15184850070009753
0.2681308091553788 -0.037562045292940306 -0.15184850070009753
0.07754730168986715 0.07046861559435666 -0.15184850070009753
0.06173505362295275 0.03224280140614054 -0.15184850070009753
0.03641181563194849 0.042153871212314606 -0.15184850070009753
0.21032835891882068 0.1279255422963876 -0.15184850070009753
0.06679060849656077 0.18160898829239813 -0.15184850070009753
-0.0034325035337897393 0.18500057456552013 -0.15184850070009753
0.052678699928503867 0.17011578440707342 -0.15184850070009753
-0.08684915894832232 0.47033027228821855 -0.15184850070009753
0.1252750130775804 0.33049326077523644 -0.15184850070009753
-0.08422136154099727 0.4470983609535628 -0.15184850070009753
0.13424043952610118 0.6074940227709112 -0.15184850070009753
0.03964882558699243 0.6281436003212061 -0.15184850070009753
0.13639541525459953 0.29248567197724784 -0.15184850070009753
-0.09580549267225022 0.4774953392673607 -0.15184850070009753
0.14596096152624644 0.5665676693786277 -0.15184850070009753
0.06676333032278231 0.3636453346406589 -0.15184850070009753
0.45293134377985694 0.36547297228381576 -0.15066644650303093
0.32119594987907757 0.5907088531725654 -0.15066644650303093
0.5123704844431227 0.524013718284229 -0.15002995578153355
0.5015956058006308 0.36807349151736235 -0.15002995578153355
0.5480321502961636 0.3476421393572953 -0.15002995578153355
0.6188008258020832 0.21793442304071495 -0.15002995578153355
0.590240577856035 0.1358634908659197 -0.15002995578153355
0.43463678189910265 0.11934201028076531 -0.15002995578153355
0.5748375023957975 -0.019294761585964493 -0.15002995578153355
0.3628588139633798 0.03391586273121944 -0.15002995578153355
0.6094444121960713 0.05798430472841459 -0.15002995578153355
0.3673324344630474 -0.004182653312697242 -0.15002995578153355
0.019972169568129475 0.044472515983483715 -0.15002995578153355
0.21237422195220532 0.0012093323708451775 -0.15002995578153355
0.2694037905983736 0.05379255869112449 -0.15002995578153355
0.21720245871099278 0.12747090606674663 -0.15002995578153355
0.07952951565110199 0.19751216360524076 -0.15002995578153355
0.20827340316084333 0.2331829221828745 -0.15002995578153355
0.02724634924238575 0.1497662667683418 -0.15002995578153355
-0.07602881668286629 0.44806218976040174 -0.15002995578153355
0.11368178922173472 0.3516974945256931 -0.15002995578153355
0.0702913074647966 0.3420773919064894 -0.15002995578153355
0.08556708478073462 0.5790974438675338 -0.15002995578153355
0.053897125023941776 0.6291801709247877 -0.15002995578153355
0.14306038238113677 0.34753302666218144 -0.15002995578153355
0.06117130469819792 0.2774644909499088 -0.15002995578153355
0.25688310883406024 0.3849223101878581 -0.15002995578153355
-0.06078941026529959 0.477031610313127 -0.15002995578153355
0.08366670534083516 0.33115702967051225 -0.1488479015844669
0.45293134377985694 0.45752771606152753 -0.1488479015844669
0.519581015045229 0.517994334603782 -0.14821141086296946
0.5497415825196137 0.3562620422712888 -0.14821141086296946
0.5734190373593177 0.21259699370472945 -0.14821141086296946
0.5750375423368396 0.21878004642784724 -0.14821141086296946
0.37914388370912083 0.14623828962632748 -0.14821141086296946
0.37002388094252214 0.20663216637183945 -0.14821141086296946
0.6424510024680086 0.05900268988281041 -0.14821141086296946
0.5990605207110706 0.05318334614340547 -0.14821141086296946
0.4242347049649163 0.013011688892325703 -0.14821141086296946
0.5633170203366942 0.012738907154541216 -0.14821141086296946
0.27617787042002473 -0.02738728647357449 -0.14821141086296946
0.07601063123368056 0.06974119762693107 -0.14821141086296946
0.23553339149011837 -0.015466724532387125 -0.14821141086296946
0.21484744304145234 0.1353724837379074 -0.14821141086296946
0.2088098739118197 0.22098048577930965 -0.14821141086296946
0.2832883810516101 0.21812537025716416 -0.14821141086296946
0.0882676239848022 0.12870751661137014 -0.14821141086296946
0.05774334752670474 0.33743100963955813 -0.14821141086296946
0.12982137537399052 0.5920454836877099 -0.14821141086296946
0.04722306517281179 0.6016292154085424 -0.14821141086296946
0.35444804371502114 0.4592553337341634 -0.14821141086296946
0.14877970615002073 0.29898697006111435 -0.14821141086296946
0.13483146662463447 0.614240824418784 -0.14821141086296946
0.05270597810228232 0.34256839903450154 -0.14821141086296946
0.14103270479693789 0.5795157091988035 -0.14821141086296946
0.04691391253665585 0.2941769187515125 -0.14821141086296946
-0.06887284242831672 0.44353401291317734 -0.14821141086296946
0.0491689082356753 0.37400194795188113 -0.14821141086296946
0.13607716989385085 0.3587807269835 -0.14821141086296946
0.4289811072023684 0.4230481044055533 -0.14702935666590286
0.4654611182687631 0.29131271050477414 -0.14702935666590286
0.5363934628173537 0.47907747334651146 -0.14639286594440543
0.4743538029205413 0.2841112726272605 -0.14639286594440543
0.619873767304036 0.2290184543193627 -0.14639286594440543
0.5828845636604435 0.22074407493989637 -0.14639286594440543
0.593423031463522 0.11829634695259104 -0.14639286594440543
0.5837756506705397 0.058266179190791946 -0.14639286594440543
0.5824299274308024 -0.030787965471289206 -0.14639286594440543
0.3795439635912049 0.04213568576312888 -0.14639286594440543
0.4056400831725989 -0.0010911269511383378 -0.14639286594440543
0.0030142382025198215 0.035097916928286024 -0.14639286594440543
0.22167607921066035 0.03866226496867164 -0.14639286594440543
0.038539513186668366 0.04848240752891746 -0.14639286594440543
0.043022226410928815 0.03517975144962141 -0.14639286594440543
0.2620477764027821 0.1313353140186952 -0.14639286594440543
0.21442008498558981 0.14538357351460246 -0.14639286594440543
0.2868072654690315 0.11912378489053763 -0.14639286594440543
0.13934145802267325 0.31205321530099694 -0.14639286594440543
0.005214677553982354 0.503327769835563 -0.14639286594440543
0.13627720983489294 0.6056481996785688 -0.14639286594440543
0.05601572985406892 0.6239063906609519 -0.14639286594440543
0.3353806002438771 0.429531217040234 -0.14639286594440543
0.13972335245557171 0.5886357119654023 -0.14639286594440543
-0.0902589306706299 0.37605690370985845 -0.14639286594440543
0.23778838718913783 0.3553982334349709 -0.14639286594440543
0.14160554644628556 0.3462873233929651 -0.14639286594440543
-0.05657947877882388 0.4678206803006001 -0.14639286594440543
0.16250972028517918 0.3544525900773176 -0.14639286594440543
0.21908465270170663 0.5268870192555603 -0.14639286594440543
0.345146186456566 0.5428083800175885 -0.1452108117473388
0.5189808952221028 0.5081196356959792 -0.1445743210258414
0.535002275954652 0.46862993278936105 -0.1445743210258414
0.4834192493395829 0.35770778548154725 -0.1445743210258414
0.5775471343244578 0.15075737374895914 -0.1445743210258414
0.6068711711363033 0.13656363065956686 -0.1445743210258414
0.4316543682326576 0.12241535119313862 -0.1445743210258414
0.383281073398854 0.18975606952756505 -0.1445743210258414
0.6225924919572893 0.06634961135380908 -0.1445743210258414
0.5747192969760909 -0.012447939967570872 -0.1445743210258414
0.38654536152767655 -0.018549158169353167 -0.1445743210258414
0.3692782775259109 0.015193942794602637 -0.1445743210258414
0.2522094483933507 -0.03229735775369733 -0.1445743210258414
0.21779348580952607 -0.007783372251454054 -0.1445743210258414
0.24719935714270672 -0.022195340731074167 -0.1445743210258414
0.20415439892029574 -0.01952207970078492 -0.1445743210258414
0.22905937158003034 0.13565435820028476 -0.1445743210258414
0.21461103220203903 0.1945297499387957 -0.1445743210258414
0.21054658430904838 0.16536028944502848 -0.1445743210258414
0.23065969110836673 0.19633920213276693 -0.1445743210258414
0.07707448001104043 0.3433503733494842 -0.1445743210258414
0.05313333615814485 0.6397368241770519 -0.1445743210258414
0.21662961706164507 0.5689317777727609 -0.1445743210258414
0.3599127711953061 0.4551817931165801 -0.1445743210258414
0.36565028041337566 0.4663294734673777 -0.1445743210258414
0.12322005731960305 0.3321117657527584 -0.1445743210258414
-0.07676532737488476 0.3782118794383568 -0.1445743210258414
0.2385794542287131 0.3651456341984742 -0.1445743210258414
-0.10993558668949285 0.5428083800175885 -0.14339226682877476
0.24934524014661233 0.3286838085812652 -0.14339226682877476
0.544622378573856 0.5004999324871958 -0.14275577610727735
0.5419036539206027 0.35655300945825913 -0.14275577610727735
0.6113175134621921 0.2190255499918534 -0.14275577610727735
0.5665904011901096 0.20290414928878306 -0.14275577610727735
0.6060073622999851 0.13416315136706236 -0.14275577610727735
0.37716166974788595 0.20132201520963242 -0.14275577610727735
0.3863907852095985 0.19158370717072198 -0.14275577610727735
0.5741373626021502 -0.014802955637111311 -0.14275577610727735
0.590340597826556 0.04315407091752482 -0.14275577610727735
0.6053526861293023 0.05187399380203931 -0.14275577610727735
0.5722278904376582 -0.03841676140466536 -0.14275577610727735
0.48035500115180263 0.06407643020560402 -0.14275577610727735
0.2264770377956695 -0.025305052541818668 -0.14275577610727735
0.25310053540344707 -0.024423058256315033 -0.14275577610727735
0.21684784245187277 0.05491096381604129 -0.14275577610727735
0.2591744754314509 0.07261449859826227 -0.14275577610727735
0.021963476253957177 0.03620722932861009 -0.14275577610727735
0.22765909199273607 0.13428135678676895 -0.14275577610727735
0.25411892055784285 0.13328115708155872 -0.14275577610727735
0.24003429016356442 0.12368833263613346 -0.14275577610727735
0.2118650293750074 0.2322554642744068 -0.14275577610727735
0.0247731281531386 0.15288507130367915 -0.14275577610727735
0.07049134740583869 0.3320844875789799 -0.14275577610727735
-0.0900407052804022 0.4498625492297802 -0.14275577610727735
-0.0976058521416287 0.3775117396447097 -0.14275577610727735
-0.07339192655094837 0.3670551063629665 -0.14275577610727735
0.2224398680764573 0.4019802615239889 -0.14275577610727735
0.029910517548082 0.4144282014915598 -0.14275577610727735
0.12432027699533438 0.34160457022766266 -0.14275577610727735
-0.10993558668949285 0.37513853852598367 -0.14157372191021073
0.07198255423906122 0.44699834098304186 -0.14157372191021073
0.5732917392150181 -0.013930054076200536 -0.14093723118871332
0.6051708316374458 -0.024341223734979645 -0.14093723118871332
0.37431564695033337 0.034843320639687134 -0.14093723118871332
0.38151708482784685 0.03434322078708196 -0.14093723118871332
0.60273398144657 0.21826176112605647 -0.14093723118871332
0.5951779273099365 0.12397020709851081 -0.14093723118871332
0.39492885360225677 0.1525213623199663 -0.14093723118871332
0.37565227746547786 0.15784060620676618 -0.14093723118871332
0.5086697455338448 0.3714650777904843 -0.14093723118871332
0.46135120675280833 0.5024366828254665 -0.14093723118871332
0.007787918613750486 0.42586684902932753 -0.14093723118871332
0.10128840560172077 0.5030004317502215 -0.14093723118871332
0.061044006553898474 0.35255221063741826 -0.14093723118871332
0.21423823049373344 0.5235227111562167 -0.14093723118871332
0.13215820559434535 0.6452288298311152 -0.14093723118871332
0.12126512153214668 0.6017474208282492 -0.14093723118871332
0.06920927323825099 0.33573976286529367 -0.14093723118871332
0.2067640108784352 0.5493642344490116 -0.14093723118871332
0.06589042876187166 0.5669859347098973 -0.14093723118871332
0.05073285686564035 0.17674438063523934 -0.14093723118871332
0.2323964015055954 0.2235173559407066 -0.14093723118871332
0.28618896019671974 0.2160522290500012 -0.14093723118871332
0.024063895634898597 0.15475817256980015 -0.14093723118871332
0.2232218423914398 -0.01830365460534701 -0.14093723118871332
0.2516729776423743 0.057820635685743825 -0.14093723118871332
0.22473123467384792 0.05802067562678579 -0.14093723118871332
0.20753689246882487 -0.0019094721644921883 -0.14093723118871332
0.3571213047453103 0.5667586165950769 -0.13975517699164666
-0.024600366385875098 0.3511883019484952 -0.13975517699164666
0.4637789642190913 0.5095290080078663 -0.13911868627014926
0.4553409157969542 0.31999116387052906 -0.13911868627014926
0.5866307661926852 0.1459200442655788 -0.13911868627014926
0.4125960174861064 0.1734437216080456 -0.13911868627014926
0.5558155225476177 0.20079463718324878 -0.13911868627014926
0.6025794051284921 -0.025323237991004267 -0.13911868627014926
0.3816716611459249 -0.009356413606011967 -0.13911868627014926
0.5604164411915846 0.05200129194633888 -0.13911868627014926
0.03104710812218453 -0.0058466219131834045 -0.13911868627014926
0.23193267255136157 0.04316316364211756 -0.13911868627014926
0.08258467111428956 -0.03021512382194151 -0.13911868627014926
0.019081082558033105 0.19404783553537627 -0.13911868627014926
0.22649522324485508 0.15323059483820628 -0.13911868627014926
0.08251192931754692 0.1668151253798797 -0.13911868627014926
0.030310597430166064 0.18831941904189944 -0.13911868627014926
-0.0674816555656153 0.45957357909491203 -0.13911868627014926
-0.09281398628121243 0.5387712102983762 -0.13911868627014926
0.26793986193892955 0.3674915571434219 -0.13911868627014926
0.3703330335786781 0.45772775600256976 -0.13911868627014926
0.07359196649199033 0.3504245130826983 -0.13911868627014926
0.27349551666514277 0.5432539235226365 -0.13911868627014926
0.12912123558034339 0.39598815601732035 -0.13911868627014926
0.38107154132279875 0.5068739324267628 -0.13793663207308263
0.15263502137737645 0.32723806537100675 -0.13793663207308263
0.09294128442551175 0.5271416155441592 -0.13793663207308263
0.48504684704169776 0.44789852071773095 -0.13730014135158522
0.5241728409646031 0.3158721596299815 -0.13730014135158522
0.5971055849236142 0.21880732460162572 -0.13730014135158522
0.5733735737363533 0.12939856368042454 -0.13730014135158522
0.44213827968817926 0.2232991305504789 -0.13730014135158522
0.5701274710567166 -0.0018276376431568032 -0.13730014135158522
0.37559772111792095 -0.008919962825556581 -0.13730014135158522
0.3846904457107411 0.01566676447342922 -0.13730014135158522
0.5789383211871595 -0.015230313692973833 -0.13730014135158522
0.22203069546978035 0.03517975144962141 -0.13730014135158522
0.08233007482569055 0.0012457032692163735 -0.13730014135158522
0.025273228005743775 0.02038588853710296 -0.13730014135158522
0.21164680398477972 0.13191724839263577 -0.13730014135158522
0.08297565827178076 0.2232991305504789 -0.13730014135158522
0.03617540479253519 0.1651602495039864 -0.13730014135158522
-0.06510845444688927 0.45739132519263537 -0.13730014135158522
0.13712283322202512 0.34890602807569726 -0.13730014135158522
0.08368489079002077 0.5728780202460448 -0.13730014135158522
0.3064748287633016 0.3931966895673246 -0.13730014135158522
0.1336221342537894 0.31656320669903576 -0.13730014135158522
0.13011234256096085 0.2776736236155438 -0.13730014135158522
0.2238765185621229 0.39976163672334075 -0.13730014135158522
0.10407987205171645 0.4130370146288582 -0.13730014135158522
0.022418112483598162 0.3392131836597509 -0.1368455051219442
0.14466070190947314 0.39688833575200955 -0.1361180871545186
-0.01412554765494633 0.5765514809815442 -0.1361180871545186
0.5151073945455615 0.29584088735199854 -0.1361180871545186
0.44552077323670847 0.3279927615122108 -0.13548159643302118
0.5665904011901096 0.16199598134568496 -0.13548159643302118
0.3772798751675927 0.19256572142674647 -0.13548159643302118
0.38810021743304873 0.16774258328834737 -0.13548159643302118
0.5635079675531436 0.21753434315863088 -0.13548159643302118
0.3826900463003207 0.0315426616124934 -0.13548159643302118
0.3833265370218182 0.028823936959240095 -0.13548159643302118
0.5734554082576888 0.038489503201408 -0.13548159643302118
0.26997663224772134 0.05958462425675084 -0.13548159643302118
0.22221254996163672 0.03158812523545746 -0.13548159643302118
0.03507518511680387 0.022104413485145916 -0.13548159643302118
0.20955547732843102 0.13649088886282434 -0.13548159643302118
0.23672453841177782 0.12392474347554674 -0.13548159643302118
0.02738274011127806 0.18831941904189944 -0.13548159643302118
-0.0847487395673809 0.5409170933022817 -0.13548159643302118
0.08445777238041055 0.3533523704015864 -0.13548159643302118
0.11349084200528547 0.5781336150606949 -0.13548159643302118
0.014280123973024106 0.3578896399734036 -0.13548159643302118
0.2955999301502887 0.5322244485915456 -0.13548159643302118
0.07868389226396967 0.42586684902932753 -0.13548159643302118
0.5128069352235779 0.2935495207546079 -0.13502696020338018
0.45496811408864857 0.3547526499888807 -0.13429954223595456
0.0910227195364267 0.5229680549560547 -0.13429954223595456
0.22538591084453102 0.31526294708226243 -0.13429954223595456
0.4710804220671259 0.4631106489615192 -0.13366305151445712
0.49720381982229855 0.3670187354645952 -0.13366305151445712
0.3962563913928085 0.1888377043436902 -0.13366305151445712
0.38521782373712476 0.1706340697088642 -0.13366305151445712
0.5646627435764315 0.005682952870512634 -0.13366305151445712
0.40417615451315486 0.017748998405185044 -0.13366305151445712
0.4546498687278999 0.06289437600853744 -0.13366305151445712
0.022918212336203336 -0.0020003994104204367 -0.13366305151445712
0.07475583523987132 0.07168704068979458 -0.13366305151445712
0.21633864987467485 0.0401625645264869 -0.13366305151445712
0.23908864680591113 0.13249009004198334 -0.13366305151445712
0.016626046917971683 0.15609480308494464 -0.13366305151445712
0.18575981706902048 0.12803465499150146 -0.13366305151445712
0.21883914913770047 0.36349985104717375 -0.13366305151445712
-0.09058626875597144 0.3770116397921046 -0.13366305151445712
0.35653937037136973 0.44126083176497227 -0.13366305151445712
0.07821107058514296 0.5891449045426 -0.13366305151445712
0.22740449570413707 0.5261686940127274 -0.13366305151445712
0.12849383758343877 0.39809766812285474 -0.13366305151445712
0.520799440140667 0.29131271050477414 -0.13320841528481614
0.11670057378655097 0.49489881413801873 -0.13248099731739052
0.4772907529640223 0.44699834098304186 -0.13248099731739052
0.5038506014996501 0.5292056640267294 -0.13184450659589309
0.469507380712568 0.3150992780395918 -0.13184450659589309
0.38118974674250544 0.15736778452793948 -0.13184450659589309
0.44794853070299145 0.17248898552579947 -0.13184450659589309
0.3908280348108948 0.0016457831513004351 -0.13184450659589309
0.5314652060880452 -0.024968621731884265 -0.13184450659589309
0.20850072127566388 0.002245902974426592 -0.13184450659589309
0.20350881547420552 -0.001545763180779452 -0.13184450659589309
0.08285745285207417 0.16995211536440266 -0.13184450659589309
0.1914882335624973 0.2178253103456011 -0.13184450659589309
0.22146694654502552 0.3890413144284057 -0.13184450659589309
0.04742310511385375 0.35838064710141593 -0.13184450659589309
0.3648592133738003 0.48023224936979975 -0.13184450659589309
0.366241307511909 0.4636198415387172 -0.13184450659589309
0.12972135540346955 0.4054809604922247 -0.13184450659589309
0.21088301511898278 0.37513853852598367 -0.13066245239882646
0.12585694745152096 0.5956280171772811 -0.13066245239882646
0.4357642797486123 0.49089801531717786 -0.13002596167732905
0.5359297338631197 0.34646917788482146 -0.13002596167732905
0.22366738589648794 0.56564021147016 -0.13002596167732905
-0.09780589208267067 0.38551333728639153 -0.13002596167732905
0.36698691092852015 0.4794320896056316 -0.13002596167732905
0.3209686317642571 0.5213859208769038 -0.13002596167732905
0.10390711028445296 0.41263693474677415 -0.13002596167732905
0.11760984624583307 0.49489881413801873 -0.12884390748026242
0.2972457133015892 0.6026839714613095 -0.12884390748026242
0.4582596803912494 0.4734581695481486 -0.128207416758765
0.4530040855765993 0.34156819932929133 -0.128207416758765
0.21477470124470982 0.3529250123457239 -0.128207416758765
0.2239310749096798 0.3525885815357895 -0.128207416758765
-0.09479620024244727 0.49708106804029545 -0.128207416758765
-0.09310495346818265 0.3630997711650897 -0.128207416758765
0.07868389226396967 0.49895416930641656 -0.128207416758765
0.08353940719653573 0.5907088531725654 -0.12775278052912398
0.38107154132279875 0.4133734454387926 -0.12702536256169839
0.4443478117642345 0.48387843193152047 -0.12638887184020098
0.4576504678435307 0.3174179228107609 -0.12638887184020098
0.22818647001911957 0.3621359423582507 -0.12638887184020098
0.37467026320945324 0.4641563122896936 -0.12638887184020098
0.021136038316010464 0.35690762571737916 -0.12638887184020098
0.31131215824668207 0.5405079206956048 -0.12638887184020098
0.23316928309598506 0.5663312585392143 -0.12638887184020098
0.1295940572591701 0.5234135984611029 -0.12638887184020098
0.2972457133015892 0.6026839714613095 -0.12520681764313432
0.21488381393982367 0.47094857756053016 -0.12520681764313432
0.5120704245315595 0.5061374217347444 -0.12457032692163691
-0.0909863486380555 0.4692118671633015 -0.12457032692163691
-0.07050953285502443 0.47040301408496094 -0.12457032692163691
0.09947895340774957 0.5782427277558088 -0.12457032692163691
-0.09650563246589737 0.3691737111930935 -0.12457032692163691
0.23724282371356858 0.5299876383417118 -0.12457032692163691
0.0999790532603546 0.403489653806397 -0.12457032692163691
0.39305575233613577 0.5331337210508276 -0.1233882727245703
0.21502020480871598 0.43502322269429755 -0.1233882727245703
0.4605237688148616 0.31878183149968387 -0.12275178200307288
0.22929578241944365 0.5293966112431785 -0.12275178200307288
0.22680437588101102 0.5752057577418068 -0.12275178200307288
0.11578220860267613 0.34658738330452815 -0.12275178200307288
0.3136126175686656 0.5455998464675842 -0.12275178200307288
0.33403487700413975 0.4146373341571946 -0.12275178200307288
0.003232463592747515 0.5099745515129146 -0.12275178200307288
0.14444247651924547 0.6012382282510511 -0.12156972780600625
0.45073090442839425 0.49735384977808006 -0.12093323708450883
0.4584779057814771 0.34575085264198874 -0.12093323708450883
0.3773889878627065 0.46762973308415096 -0.12093323708450883
-0.008015236728571042 0.3626996912830056 -0.12093323708450883
0.38609981802262827 0.46607487717877855 -0.12093323708450883
0.24685383360817958 0.36565482677567207 -0.12093323708450883
0.096314685249448 0.5214222917752753 -0.12093323708450883
0.135258824680497 0.6026839714613095 -0.12047860085486782
0.0697002803662633 0.49489881413801873 -0.11975118288744221
0.43950138955626145 0.48885215228379314 -0.1191146921659448
0.47031663320132927 0.28932140381894644 -0.1191146921659448
0.13154899304662634 0.582070764809386 -0.1191146921659448
0.03084706818114256 0.5729416693181947 -0.1191146921659448
0.24262571667251814 0.3600264302527164 -0.1191146921659448
0.09453251122925527 0.4191927891781977 -0.1191146921659448
-0.09165921025792417 0.45016260914134315 -0.1191146921659448
0.16551031940080982 0.598774099886397 -0.11793263796887815
0.46127846495606595 0.4743037929352808 -0.11729614724738076
0.5284100506248575 0.34072257594215916 -0.11729614724738076
0.13962333248505074 0.5827618118784403 -0.11729614724738076
0.3536933475738171 0.41530110305247053 -0.11729614724738076
0.21829358566213125 0.39046887218947846 -0.11729614724738076
0.104407210137058 0.5137934958418992 -0.11729614724738076
-0.07377382098384683 0.4649928429522329 -0.11729614724738076
0.2212759993285763 0.5428083800175885 -0.11611409305031412
0.5038778796734285 0.5161394187868467 -0.11547760232881671
0.46187858477919186 0.34896058442325417 -0.11547760232881671
0.06679060849656077 0.5747783996859444 -0.11547760232881671
0.23707915467089782 0.34400504952016714 -0.11547760232881671
0.21954838165594048 0.5173487511576919 -0.11547760232881671
0.01183418105755542 0.4245211257895902 -0.11547760232881671
0.08859496207014374 0.4257031799866568 -0.11547760232881671
0.36909642303405443 0.37283807920400014 -0.11429554813175008
0.4935667299851704 0.45991000990484643 -0.11365905741025267
0.5169441249133112 0.3561711150253607 -0.11365905741025267
0.30867526811476415 0.37892111195659683 -0.11365905741025267
0.15488092435180303 0.332584587431585 -0.11365905741025267
0.23282375956145793 0.5325245085031088 -0.11365905741025267
0.07842020325077792 0.49974523634599183 -0.11365905741025267
0.1005700803588879 0.4814597671898304 -0.11365905741025267
0.2040089153268107 0.4110729861168091 -0.11247700321318603
0.46144213399873674 0.476931590342606 -0.11184051249168861
0.5090334545175575 0.5073285686564039 -0.11184051249168861
0.4851014033892547 0.35648936038610934 -0.11184051249168861
0.1953253633406674 0.5855532783284363 -0.11184051249168861
0.17566689277099004 0.34564173994687486 -0.11184051249168861
0.24779947696583288 0.5652674097618544 -0.11184051249168861
0.09650563246589723 0.4144827578391167 -0.11184051249168861
0.32119594987907757 0.5907088531725654 -0.110658458294622
0.11612773213720327 0.44699834098304186 -0.110658458294622
0.4484304451064109 0.4743401638336523 -0.11002196757312457
0.4438568046362222 0.3317389640444528 -0.11002196757312457
0.1738119769540548 0.5874718432175212 -0.11002196757312457
0.2164477625697887 0.5309150962501795 -0.11002196757312457
0.35520273985622525 0.420938592300019 -0.11002196757312457
0.10687133850171228 0.41501922859009305 -0.11002196757312457
0.1869782421644584 0.3164813721777004 -0.10956733134348356
0.21616588810741136 0.4716941809771414 -0.10883991337605795
0.5281099907132945 0.4854605660106713 -0.10820342265456054
0.4770088785016448 0.36218140598121484 -0.10820342265456054
0.2291866697243298 0.5253321633501878 -0.10820342265456054
0.23110523461341498 0.34803312651478663 -0.10820342265456054
0.1843413520325406 0.5953006790919396 -0.10820342265456054
0.07696536731592658 0.420029319840737 -0.10820342265456054
0.005096472134275644 0.5132024687433658 -0.10820342265456054
0.36909642303405443 0.5308332617288443 -0.10702136845749391
0.22476760557221925 0.386849967801536 -0.10702136845749391
0.4545498487573789 0.5148482518946662 -0.10638487773599649
0.48544692692378194 0.36432728898512035 -0.10638487773599649
0.2394978194125879 0.5777153497294253 -0.10638487773599649
0.1923702278480008 0.3372673405968874 -0.10638487773599649
0.3095299842264893 0.5576386138284782 -0.10638487773599649
0.012907122559508289 0.5048280693933783 -0.10638487773599649
0.11029020294861273 0.5098927169915793 -0.10638487773599649
0.0697002803662633 0.5322699122145097 -0.10520282353892987
0.22538591084453102 0.6012382282510511 -0.10520282353892987
0.4619240484021562 0.5315697724208626 -0.10456633281743245
0.5219996797869193 0.3290020539420139 -0.10456633281743245
0.3317798813051203 0.5338338608444747 -0.10456633281743245
0.16185504411449622 0.33704002248206694 -0.10456633281743245
0.36444094804253047 0.41202772219905526 -0.10456633281743245
0.250218141707523 0.5299330819941549 -0.10456633281743245
0.0020322239464952013 0.42586684902932753 -0.10456633281743245
0.14156008282332153 0.5068739324267628 -0.10338427862036581
0.32717896266115326 0.5547834983063326 -0.10338427862036581
0.4736445704023013 0.5291511076791725 -0.1027477878988684
0.46985290424709525 0.32318271020260897 -0.1027477878988684
0.46806163750230967 0.2868572754542921 -0.1027477878988684
0.16392818532165918 0.5895540771492771 -0.1027477878988684
0.14076901578374612 0.5829891299932609 -0.1027477878988684
0.25781056674252795 0.3584352034489729 -0.1027477878988684
0.09860605184683878 0.41632858093145925 -0.1027477878988684
0.07303731029182836 0.43357747948403924 -0.10156573370180177
0.36909642303405443 0.5196764886534537 -0.10156573370180177
0.4635243679304924 0.5129842433531382 -0.10092924298030437
0.4871381736980466 0.31369899845229743 -0.10092924298030437
0.521144963675194 0.31326254767184203 -0.10092924298030437
0.32254167311881504 0.38178532020333517 -0.10092924298030437
0.2713950972842013 0.5752603140893637 -0.10092924298030437
0.2532278335477465 0.3920964698915933 -0.10092924298030437
0.10124294197875658 0.414264532448889 -0.10092924298030437
0.3571213047453103 0.37744809057256 -0.09974718878323773
0.12425662792318459 0.5353068822285116 -0.09974718878323773
0.5193627896550013 0.4870245146406363 -0.09911069806174033
0.4912571779385942 0.5165758695673021 -0.09911069806174033
0.5098608924555043 0.3040516176593152 -0.09911069806174033
0.2424984185282187 0.5803249616875645 -0.09911069806174033
0.15816339792981116 0.3315843877263748 -0.09911069806174033
0.2444715397648607 0.5341430134806309 -0.09911069806174033
0.1030705796219135 0.5135661777270786 -0.09911069806174033
0.23415129735200968 0.37513853852598367 -0.09792864386467369
0.44086529824518456 0.47349454044651984 -0.09792864386467369
0.5164622105098917 0.4757313506963537 -0.09729215314317627
0.5129978824400272 0.49908146745071585 -0.09729215314317627
0.5134434259450755 0.35643480403855243 -0.09729215314317627
0.32349640920106104 0.5433630362177504 -0.09729215314317627
0.24308035290215912 0.3435322278413406 -0.09729215314317627
0.24435333434515397 0.5704502627797619 -0.09729215314317627
0.10343428860562624 0.5148300664454805 -0.09729215314317627
0.22329458418818232 0.3839221104826479 -0.09611009894610965
0.32263260036474317 0.36316342023723935 -0.09611009894610965
0.5236727411119982 0.5012364431792145 -0.09547360822461223
0.5084060565206531 0.3426229553820585 -0.09547360822461223
0.5274462218180186 0.3217551524415362 -0.09547360822461223
0.19786223350206422 0.5897813952640977 -0.09547360822461223
0.24578089210622672 0.5756785794206334 -0.09547360822461223
0.39251018886056654 0.46562933367373055 -0.09547360822461223
0.11122675358167317 0.40577192767919495 -0.09547360822461223
0.38107154132279875 0.4133188890912357 -0.0942915540275456
0.5092607726323781 0.4972265516337807 -0.09365506330604818
0.5058146300116994 0.45469987871316037 -0.09365506330604818
0.4726898343200553 0.3681735114878833 -0.09365506330604818
0.21171045305692937 0.3358670610095931 -0.09365506330604818
0.27130417003827306 0.5815070158846314 -0.09365506330604818
0.10376162669096778 0.5161394187868467 -0.09365506330604818
0.10005179505709713 0.4443796363003095 -0.09365506330604818
0.11564581773378382 0.47094857756053016 -0.09247300910898157
0.47691795125571673 0.46001002987536743 -0.09183651838748415
0.4766087986195606 0.30774326384400014 -0.09183651838748415
0.44779395438491354 0.3303750553555297 -0.09183651838748415
0.3974202601406895 0.4584915448683664 -0.09183651838748415
0.18440500110469027 0.33995878707636223 -0.09183651838748415
0.31146673456476 0.37361096079438977 -0.09183651838748415
0.10782607458395845 0.41097296614628814 -0.09183651838748415
0.23931596492073157 0.3856224499815054 -0.09065446419041752
0.46822530654498046 0.4913071879238547 -0.09001797346892011
0.46156033941844316 0.3386130638366249 -0.09001797346892011
0.4546498687278999 0.3548435772348089 -0.09001797346892011
0.2071368125867408 0.33076604251302105 -0.09001797346892011
0.24156186789515816 0.5763150701421308 -0.09001797346892011
0.26477559378062815 0.3765024472149067 -0.09001797346892011
0.10778061096099438 0.41092750252332394 -0.09001797346892011
0.11760984624583307 0.43502322269429755 -0.08883591927185348
0.5064602134577896 0.5095926570800161 -0.08819942855035606
0.48514686701221904 0.3596536285444108 -0.08819942855035606
0.5272279964277908 0.3264833692298027 -0.08819942855035606
0.20493637323527839 0.33128432781481165 -0.08819942855035606
0.21164680398477972 0.4071994854402677 -0.08819942855035606
0.10404350115334526 0.5174305856790271 -0.08819942855035606
0.09990631146361208 0.5024639609992451 -0.08819942855035606
0.4170059889136242 0.48292369584927447 -0.08701737435328943
0.5225816141608598 0.48244178144585503 -0.08638088363179203
0.48513777428762617 0.30513365188586083 -0.08638088363179203
0.5299649065302297 0.34211376280486056 -0.08638088363179203
0.23897953411079728 0.5894722426279416 -0.08638088363179203
0.25433714594807055 0.50863792099777 -0.08638088363179203
0.10598934421620877 0.5179852418791892 -0.08638088363179203
0.09221386645808614 0.4226753026972477 -0.08638088363179203
0.338926762835077 0.5547834983063326 -0.08519882943472538
0.4932939482473858 0.5264232903013263 -0.08456233871322796
0.4843921708710147 0.3044880684397706 -0.08456233871322796
0.5267824529227426 0.3416773120244052 -0.08456233871322796
0.21698423332076508 0.3347759340584546 -0.08456233871322796
0.2219852318468163 0.518294394515345 -0.08456233871322796
0.33729916513296215 0.5356069421400749 -0.08456233871322796
0.09869697909276691 0.5154392789931995 -0.08456233871322796
0.32119594987907757 0.5810341942058045 -0.08338028451616135
0.4993315173770183 0.516630425914859 -0.08274379379466393
0.45216755491406 0.4763314705194798 -0.08274379379466393
0.5144709038240641 0.34925155161022453 -0.08274379379466393
0.23195085800054716 0.39869778794598076 -0.08274379379466393
0.22762272109436474 0.47565860889961104 -0.08274379379466393
0.2860434766032346 0.45476352778531015 -0.08274379379466393
0.286379907413169 0.3727653374072576 -0.08274379379466393
0.002095873018644988 0.41557388479025514 -0.08274379379466393
0.30544735088431296 0.5787337348838211 -0.0815617395975973
0.47171691278862354 0.473994640299125 -0.08092524887609989
0.5228271177248658 0.5181670963710456 -0.08092524887609989
0.5235545356922915 0.32193700693339256 -0.08092524887609989
0.35466626910524884 0.526441475750512 -0.08092524887609989
0.26853088903746297 0.35822607078333807 -0.08092524887609989
0.07696536731592658 0.5041915786718809 -0.08092524887609989
0.12711174344533008 0.3967883157814886 -0.08092524887609989
0.25600111454855673 0.5420536838763842 -0.07974319467903326
0.48515595973681164 0.46709326233317433 -0.07910670395753584
0.48736549181286715 0.5346703915070143 -0.07910670395753584
0.5106610522196724 0.35978092668871026 -0.07910670395753584
0.27252259513371097 0.5762150501716098 -0.07910670395753584
0.27213160797621977 0.3582533489571165 -0.07910670395753584
0.0805297153563122 0.5025912591435446 -0.07910670395753584
0.12835744671454644 0.4002344584021675 -0.07910670395753584
0.3571213047453103 0.5667586165950769 -0.07792464976046923
0.4797548813286765 0.5179670564300037 -0.07728815903897181
0.5066238825004603 0.45585465473644865 -0.07728815903897181
0.4751630554093023 0.2976594322705626 -0.07728815903897181
0.37527038303257937 0.4181925894729874 -0.07728815903897181
0.29652738805875634 0.5753057777123278 -0.07728815903897181
0.22453119473280597 0.40942720296550866 -0.07728815903897181
0.1152184596779213 0.49489881413801873 -0.07610610484190518
0.4714259456016532 0.47388552760401115 -0.07546961412040776
0.4994951864196891 0.5333974100640193 -0.07546961412040776
0.5199992803764989 0.34923336616103884 -0.07546961412040776
0.369069144860276 0.5144845429109535 -0.07546961412040776
0.31364898846703676 0.5663676294375855 -0.07546961412040776
0.2245402874573987 0.48934315941180545 -0.07546961412040776
0.3342803805681459 0.36316342023723935 -0.07428755992334114
0.20616389105530905 0.5308332617288443 -0.07428755992334114
0.49152086695178593 0.45962813544246894 -0.07365106920184372
0.5169895885362752 0.31597217960050245 -0.07365106920184372
0.2895532682960633 0.5705684681994686 -0.07365106920184372
0.22630427602840586 0.34205011373271094 -0.07365106920184372
0.22743177387791552 0.40496267519043394 -0.07365106920184372
0.2763051685643242 0.3680189351698054 -0.07246901500477711
0.40503087062488 0.4307769203094504 -0.07246901500477711
0.45773230236486595 0.5091380208503752 -0.07183252428327969
0.4997134118099168 0.36282698942730507 -0.07183252428327969
0.22811372822237705 0.5914362711399909 -0.07183252428327969
0.29805496579035023 0.364145434493264 -0.07183252428327969
0.22168517193525322 0.39484247271862505 -0.07183252428327969
0.1402052668589913 0.5369526653798122 -0.07065047008621306
0.11508206880902899 0.44699834098304186 -0.07065047008621306
0.4643699913176246 0.4654565719064669 -0.07001397936471565
0.4811006045684138 0.3544980537002818 -0.07001397936471565
0.4783364162921965 0.2895578146583597 -0.07001397936471565
0.39079166391252357 0.426857956009945 -0.07001397936471565
0.22427659844420694 0.5259413758979068 -0.07001397936471565
0.1298850244461403 0.526341455779991 -0.07001397936471565
0.2908989915358006 0.5542561202799491 -0.068831925167649
0.5039597141947639 0.45957357909491203 -0.06819543444615157
0.4797548813286765 0.3577441563799186 -0.06819543444615157
0.4943123334017816 0.2925038574264335 -0.06819543444615157
0.314449148231205 0.3737473516632821 -0.06819543444615157
0.3426456871935405 0.5375800633767167 -0.06819543444615157
0.12805738680298337 0.5209130991980773 -0.06819543444615157
0.2683308490964209 0.5308332617288443 -0.06701338024908496
0.4642154149995467 0.49118898250414794 -0.06637688952758754
0.5275189636147611 0.5080378011746439 -0.06637688952758754
0.462842413586031 0.3130534150062072 -0.06637688952758754
0.3804077724275228 0.5064920379938646 -0.06637688952758754
0.2961000300028938 0.5616030417509477 -0.06637688952758754
0.2251131291067464 0.4068448691811477 -0.06637688952758754
0.4187245138616673 0.44699834098304186 -0.06519483533052092
0.5113520992887267 0.5082469338402787 -0.0645583446090235
0.45074908987758 0.49099803528769886 -0.0645583446090235
0.4945578369657879 0.3625360222403349 -0.0645583446090235
0.32746083712353075 0.548945969117742 -0.0645583446090235
0.3638681063931829 0.5338884171920316 -0.0645583446090235
0.26185682918633285 0.5344794442905649 -0.0645583446090235
0.29877329103318295 0.34143180846039906 -0.06337629041195689
0.2165295970911241 0.45011714551837906 -0.06337629041195689
0.5098154288325402 0.4560819728512692 -0.06273979969045947
0.4703802822734788 0.2984777774839164 -0.06273979969045947
0.27144965363175827 0.34444150030062254 -0.06273979969045947
0.36019464565768344 0.41048195901827583 -0.06273979969045947
0.10203400901833197 0.5125205143989042 -0.06273979969045947
0.3095754478494534 0.5787337348838211 -0.06155774549339285
0.5088697854748868 0.505700970954289 -0.06092125477189543
0.4815461480734621 0.3039515976887941 -0.06092125477189543
0.5289192432020555 0.336376253586791 -0.06092125477189543
0.2430257965546022 0.5925092126419436 -0.06092125477189543
0.2329510577057574 0.4224388918578345 -0.06092125477189543
0.1270753725469589 0.39405140567904967 -0.06092125477189543
0.0889950419522278 0.43502322269429755 -0.05973920057482878
0.48953865299055094 0.45950083729816965 -0.05910270985333136
0.4787183107250949 0.30868890720165343 -0.05910270985333136
0.34344584695770863 0.5417718094140069 -0.05910270985333136
0.3481195073984183 0.40041631289402385 -0.05910270985333136
0.22263990801749925 0.43257727977882887 -0.05910270985333136
0.38107154132279875 0.5308332617288443 -0.05864807362369038
0.11039022291913371 0.37513853852598367 -0.057920655656264745
0.5171168866805748 0.47704070303771984 -0.057284164934767325
0.49284840474233754 0.3067703423125684 -0.057284164934767325
0.34807404377545414 0.5389439720656398 -0.057284164934767325
0.354202540151015 0.40698126005004 -0.057284164934767325
0.22093956851864188 0.5317243487389405 -0.057284164934767325
0.40503087062488 0.40251673227496526 -0.05682952870512631
0.11470017437613053 0.4455525977727833 -0.05610211073770071
0.49284840474233754 0.3067703423125684 -0.05546562001620329
0.46513378018342155 0.4977903005585354 -0.05546562001620329
0.36571392948552534 0.5253230706255952 -0.05546562001620329
0.4161239946281207 0.4751766944961916 -0.05546562001620329
0.22603149429062122 0.5040097241800244 -0.05546562001620329
0.24964530005817528 0.32357369736010017 -0.054283565819136674
0.08884955835874263 0.49489881413801873 -0.054283565819136674
0.5173896684183594 0.5076286285679671 -0.05364707509763925
0.4881201879540712 0.363945394552222 -0.05364707509763925
0.2982004493838353 0.35417071561494023 -0.05364707509763925
0.2639572485672744 0.5763332555913165 -0.05364707509763925
0.22306726607336191 0.43220447807052326 -0.05364707509763925
0.32209612961376677 0.3511883019484952 -0.05246502090057263
0.21419276687076938 0.467166004129917 -0.05246502090057263
0.4799912921680899 0.45690031806462306 -0.05182853017907522
0.4938486044475479 0.2959045364241483 -0.05182853017907522
0.415696636572258 0.4710940611540155 -0.05182853017907522
0.3999025739545294 0.4413517590109004 -0.05182853017907522
0.1100810702829779 0.5201311248830949 -0.05182853017907522
0.2972457133015892 0.544245030503254 -0.05064647598200857
0.5011773404693608 0.5163576441770743 -0.05000998526051115
0.46453366036029536 0.33508508669461057 -0.05000998526051115
0.3914554328077994 0.501145515933286 -0.05000998526051115
0.38136250850976894 0.5258686341011645 -0.05000998526051115
0.22650431596944795 0.39856139707708843 -0.05000998526051115
0.13659545519564162 0.5315788651454554 -0.05000998526051115
0.14300582603357986 0.518849050715507 -0.04882793106344453
0.45630474460379306 0.4953352649184741 -0.04819144034194711
0.279905887503081 0.5790610729691626 -0.04819144034194711
0.3445096957350686 0.5399168935970715 -0.04819144034194711
0.40053906467602685 0.47752261744113933 -0.04819144034194711
0.10136114739846329 0.5184216926596446 -0.04819144034194711
0.11445467081212438 0.48292369584927447 -0.04700938614488049
0.46094203414613155 0.33148436775585377 -0.046372895423383076
0.45868703844711195 0.48329649755758003 -0.046372895423383076
0.3206776645772869 0.5646309190403568 -0.046372895423383076
0.23180537440706211 0.49348034910153876 -0.046372895423383076
0.09787863387941319 0.5232681148676178 -0.046372895423383076
0.16155498420293316 0.39909786782806494 -0.045190841226316454
0.25056366524205026 0.5921455036582309 -0.04455435050481904
0.250472737996122 0.3324754747364711 -0.04455435050481904
0.22415839302450025 0.4547908059590888 -0.04455435050481904
0.39384681937571114 0.409563593834401 -0.04337229630775242
0.28527059501284496 0.37283807920400014 -0.04337229630775242
0.40501268517569433 0.4834419811510651 -0.042735805586255005
0.3699875100441509 0.4104274026707189 -0.042735805586255005
0.23494236439158508 0.4941804888951859 -0.042735805586255005
0.39854775799019915 0.4124368948057322 -0.04155375138918835
0.4296812469960155 0.47094857756053016 -0.04155375138918835
0.2523731174360214 0.5989104907552891 -0.040917260667690934
0.3719424458316072 0.396415514073183 -0.040917260667690934
0.21537482106783598 0.5190672761057348 -0.040917260667690934
0.25957455531353507 0.6020929443627762 -0.040462624438049946
0.37974400353224697 0.4072904126861959 -0.03973520647062431
0.13942329254400865 0.3871227495393207 -0.03973520647062431
0.4169878034644386 0.46794797844489966 -0.0390987157491269
0.2562557108371556 0.3294657828962477 -0.0390987157491269
0.23333295213865585 0.46709326233317433 -0.0390987157491269
0.27329547672410076 0.5955825535543168 -0.03864407951948588
0.37017845726060006 0.42037484337526426 -0.03791666155206028
0.29728208419996044 0.5683771215725988 -0.03728017083056286
0.2526368064492132 0.34065892687000937 -0.03728017083056286
0.22083045582352806 0.47161234645580613 -0.03728017083056286
0.1261842855368625 0.3955880761352363 -0.03728017083056286
0.08836764395532318 0.47094857756053016 -0.03609811663349624
0.33603527641456016 0.5521920717973788 -0.03546162591199883
0.2841612826125209 0.3464055288126718 -0.03546162591199883
0.2641481957837236 0.5353705313006615 -0.03546162591199883
0.10499823723559143 0.5125477925726828 -0.03546162591199883
0.2857161385178932 0.3329210182415194 -0.034279571714932205
0.2681308091553788 0.583743826134465 -0.033643080993434785
0.27886931689949956 0.3443778512284729 -0.033643080993434785
0.22538591084453102 0.389986957786059 -0.033643080993434785
0.10838982350871328 0.41312794187478646 -0.033643080993434785
0.32587870304437994 0.3511883019484952 -0.032461026796368135
0.27427749098012527 0.5897268389165408 -0.03182453607487072
0.3720424658021283 0.3943150946922414 -0.03182453607487072
0.22781366831081398 0.4296767006337193 -0.03182453607487072
0.1295849645345772 0.5547834983063326 -0.0306424818778041
0.21341079255578674 0.48292369584927447 -0.0306424818778041
0.28814389598417617 0.5851350129971666 -0.030005991156306682
0.2564557507781977 0.5289328822889448 -0.030005991156306682
0.1088171815645758 0.40793599613228615 -0.030005991156306682
0.14290580606305886 0.5118203746052571 -0.028823936959240064
0.2972457133015892 0.544245030503254 -0.028823936959240064
0.25483724580067574 0.3373764532920012 -0.028187446237742646
0.22809554277319147 0.49433506521326376 -0.028187446237742646
0.21988481246587474 0.45216300855176356 -0.027005392040676028
0.41735151244815133 0.4230481044055533 -0.027005392040676028
0.3771343915741075 0.5344976297397507 -0.02636890131917861
0.22572234165446528 0.5274416754557221 -0.02636890131917861
0.12481128412334656 0.39953431860852023 -0.02636890131917861
0.0697002803662633 0.44699834098304186 -0.02518684712211199
0.27162241539902177 0.4230481044055533 -0.02518684712211199
0.42429835403706606 0.47464931646980807 -0.02455035640061457
0.2510637650946553 0.4043261844689365 -0.02455035640061457
0.3139217702048214 0.5807614124680199 -0.024095720170973556
0.36472282250490795 0.37603871826067287 -0.023368302203547922
0.08167539865500746 0.48292369584927447 -0.023368302203547922
0.26467557381010715 0.33641262448516235 -0.022731811482050505
0.22530407632319563 0.4947624232691263 -0.022731811482050505
0.31862270881930954 0.34452333482195796 -0.02227717525240952
0.07879300495908352 0.4800413021533504 -0.02227717525240952
0.3366717671360577 0.5485731674094364 -0.02091326656348647
0.313339835830881 0.36664593375628957 -0.02091326656348647
0.09788772660400592 0.47708616666068393 -0.02091326656348647
0.3421364946163426 0.5667586165950769 -0.019731212366419847
0.2972457133015892 0.5068739324267628 -0.019731212366419847
0.3148401353886962 0.5736509018364346 -0.01909472164492243
0.3763978808820892 0.39555170523686506 -0.01909472164492243
0.10059735853266635 0.5191400179024774 -0.01909472164492243
0.08498515040679407 0.4230481044055533 -0.018640085415281414
0.36000369844123425 0.36316342023723935 -0.01791266744785581
0.14224203716778291 0.518849050715507 -0.01791266744785581
0.41588758378870727 0.4825690795901546 -0.017276176726358394
0.2540189005873219 0.4014437907730125 -0.017276176726358394
0.09372325874049428 0.3995615967822987 -0.017276176726358394
0.22118507208264804 0.46762973308415096 -0.016094122529291776
0.3562393104598068 0.3511883019484952 -0.016094122529291776
0.3074841211931047 0.5689863341203178 -0.015457631807794359
0.3301977472259696 0.36740062989749367 -0.015457631807794359
0.232414586954781 0.4352869117074893 -0.015457631807794359
0.3852996582584602 0.42265711724806193 -0.015002995578153341
0.2174934258979631 0.4763951195916296 -0.014275577610727707
0.3703421263032708 0.4230481044055533 -0.014275577610727707
0.41191406314164486 0.44888962769834845 -0.01363908688923029
0.263166181527699 0.39157818458980254 -0.01363908688923029
0.1366045479202345 0.5154029080948282 -0.01363908688923029
0.41466915869326937 0.41939282911923964 -0.01245703269216367
0.0697002803662633 0.43502322269429755 -0.01245703269216367
