-0.13737082630801625 0.2832129422834429 -0.06141582649161704
-0.10626985177266146 -0.1301810802200644 -0.06141582649161704
-0.159668865712906 0.2678262305530764 -0.06141582649161704
0.4584445784293249 0.021884506173179545 -0.06141582649161704
0.007652411980855486 -0.001838380406315788 -0.06141582649161704
-0.0010686353809541194 0.3827229587535938 -0.06141582649161704
0.41112163692331755 0.408042656821871 -0.06141582649161704
-0.12317148722315442 -0.04799032682054959 -0.060351285499095686
0.025962517052222956 0.0922179106713794 -0.060351285499095686
-0.127446028746971 0.2539953864271643 -0.060351285499095686
0.4118176829568891 0.38245272911703054 -0.060351285499095686
-0.1382306478788989 0.5020580040152384 -0.060351285499095686
0.03516670224909993 -0.12769988082980296 -0.05977807111850726
-0.10434548920925735 0.3898471946266212 -0.05977807111850726
-0.07451377508806266 0.06742229432249716 -0.05977807111850726
0.28132133482750116 -0.20385550567940822 -0.05977807111850726
0.40907444270693033 -0.02547937921715559 -0.05977807111850726
-0.028804022624568392 0.03416767147150296 -0.05977807111850726
0.03214504358571237 0.4213657967821192 -0.05977807111850726
0.45715075168456804 0.36744270112247934 -0.05977807111850726
0.5384980610669312 0.25958013224946874 -0.0587135301259859
0.4873182056572503 0.4070681923748707 -0.0587135301259859
0.04419892313180037 -0.13759192328338618 -0.0587135301259859
0.04767096452279317 0.45891952748752657 -0.0587135301259859
0.3067474869950307 0.5412331125400247 -0.05814031574539748
0.39410535859670687 0.5044081829756509 -0.05814031574539748
0.3314530267983918 0.5044736931905754 -0.05814031574539748
-0.1871995335348816 0.13269503471778782 -0.05814031574539748
0.4603034307778043 0.027780425516374774 -0.05814031574539748
0.002321518241383155 -0.0021086100428789134 -0.05814031574539748
-0.019788179295599014 0.3569938218420388 -0.05814031574539748
0.3655510936665375 0.4301277880282565 -0.05814031574539748
0.012385525009142799 0.37889879995738235 -0.05707577475287612
0.2736402621276162 0.3534562702361218 -0.05707577475287612
0.5088874439211063 0.3510651473913815 -0.05707577475287612
0.15297863501375258 0.04037476433558902 -0.05707577475287612
0.5318651518058365 0.3828294128528458 -0.056502560372287694
0.598177866863052 0.10903765835321695 -0.056502560372287694
0.37287186018433827 -0.12077217560154864 -0.056502560372287694
-0.11915898655903548 0.4605900379680986 -0.056502560372287694
0.2439641347668669 -0.09810564123770917 -0.056502560372287694
0.059593823639032456 0.09785178915487709 -0.056502560372287694
0.03215323236257796 0.29186847943032806 -0.056502560372287694
0.3748617329626666 0.2845886567968552 -0.056502560372287694
0.14771325148920458 0.49127338488331035 -0.05543801937976634
-0.05848014998531772 0.20007229076752447 -0.05543801937976634
-0.00880702951889793 0.07272862173137296 -0.05543801937976634
0.5736033474895396 0.42656567009174273 -0.05543801937976634
-0.07118913168064973 0.3208158056500438 -0.05486480499917791
-0.00784075384876308 -0.1367812343736968 -0.05486480499917791
0.2799128652066268 0.5840686043237111 -0.05486480499917791
0.12137814508959925 -0.17817550142904665 -0.05486480499917791
0.6219007534425472 0.2404839045990085 -0.05486480499917791
0.2614717397054105 0.01359746398524401 -0.05486480499917791
0.03512575836477222 0.23409665864388032 -0.05486480499917791
0.27926595183424835 0.38762803609605756 -0.05486480499917791
-0.125284191654466 0.46970414661945453 -0.05380026400665653
0.2931868725056816 0.6119923334352331 -0.05380026400665653
0.3649696905090835 0.43735028922367075 -0.05380026400665653
0.012770397521823575 0.03829481501173967 -0.05380026400665653
0.2813540899349634 0.5834872011662572 -0.0532270496260681
-0.05510637391671162 0.48242131709165204 -0.0532270496260681
0.5124413730807545 0.07095984592841431 -0.0532270496260681
0.1717391228127252 -0.23820742463038597 -0.0532270496260681
-0.06368821207180693 0.5261330079999522 -0.0532270496260681
0.2742052877313391 -0.12264740550375934 -0.0532270496260681
-0.0020758549354166775 0.007554146658468895 -0.0532270496260681
0.04036657555872355 0.41710763281203367 -0.0532270496260681
0.4000094667167674 0.46000863481064463 -0.0532270496260681
0.13140120797303106 0.5141446386687886 -0.052162508633546746
0.2716094454649601 0.6422662415071675 -0.052162508633546746
0.6706649196768912 0.14614919510788474 -0.052162508633546746
0.26082482633303217 -0.0790421686947112 -0.052162508633546746
0.43339510999761066 0.12648794185370174 -0.052162508633546746
0.31736014181278205 0.5186320883911094 -0.051589294252958315
0.33205080750957694 0.4904545071967555 -0.051589294252958315
0.19637096362429649 -0.2546750549070049 -0.051589294252958315
0.5254369619663807 0.3088028699882834 -0.051589294252958315
-0.08683788427071377 0.4938119057116305 -0.051589294252958315
0.3115215439076457 0.028566548095467503 -0.051589294252958315
-0.07591405593207146 0.21954520215379986 -0.051589294252958315
0.17245154640002797 0.3649451241784869 -0.051589294252958315
0.5048012442651975 0.1528721809145004 -0.051589294252958315
-0.23806821542367163 0.1545181250644758 -0.05052475326043696
0.28949373413931906 0.477123178459642 -0.05052475326043696
0.5736033474895396 0.5020580040152384 -0.05052475326043696
-0.04116088691468175 0.05986405327559547 -0.05052475326043696
0.28361419234985485 0.3834190047871653 -0.05052475326043696
-0.026314634457441498 0.3453330035854973 -0.04995153887984853
0.376761529195474 0.43017692068944985 -0.04995153887984853
0.4455718211966819 0.002730957084660579 -0.04995153887984853
-0.17095300023363244 0.116988960689665 -0.04995153887984853
-0.02415279736493661 -0.1411949851042277 -0.04995153887984853
0.5139808631314776 0.5186157108373785 -0.04995153887984853
0.5296050493909452 -0.14056444928558046 -0.04995153887984853
-0.11377077138150427 0.39138668467734455 -0.04995153887984853
0.05747293043085528 0.10217546333988686 -0.04995153887984853
0.6686996132291594 0.15693381423981276 -0.04954210003657108
0.08826273144531924 -0.13426727987597326 -0.04888699788732718
0.06669349318146343 0.13674029048936898 -0.04888699788732718
-0.04116088691468175 0.4178528115067987 -0.04888699788732718
-0.07629073966788677 0.5344200501878877 -0.04888699788732718
0.10574577005326627 0.486851445375914 -0.04831378350673875
0.09263553829152242 0.48375608772073664 -0.04831378350673875
0.5503308436376496 0.45534922077414736 -0.04831378350673875
-0.07837068899173612 0.06912555991053132 -0.04831378350673875
0.5149225724710159 0.06128071167333545 -0.04831378350673875
0.5471535982138166 0.4687051158418577 -0.04831378350673875
0.16368136637702504 -0.09066204306692512 -0.04831378350673875
0.027665782640257125 0.08727188944458784 -0.04831378350673875
0.05587611894207318 0.4326744976334423 -0.04831378350673875
0.39561209353996785 0.42211916425374957 -0.04831378350673875
-0.10027566710707952 0.3402805282594535 -0.047904344663461294
0.5628187283576116 0.2647881943359578 -0.047904344663461294
0.4765335865253225 0.42656567009174273 -0.047904344663461294
0.13140120797303106 -0.06955956508440551 -0.047904344663461294
0.5427152811526891 -0.0767411223954919 -0.04667602813362897
-0.02019761813887644 0.5142429039911752 -0.04667602813362897
-0.05480338917268626 0.5136205569493936 -0.04667602813362897
0.44996100559661617 0.5201879559955638 -0.04667602813362897
0.522202395104489 0.5212852520955474 -0.04667602813362897
-0.1147779909359667 0.3938596952907402 -0.04667602813362897
0.25547755503982866 -0.2357344140169902 -0.04667602813362897
0.27297697120150677 0.02028769468439744 -0.04667602813362897
0.06287752316211756 0.2819273043155518 -0.04667602813362897
0.39689773150785884 0.29303947452210155 -0.04667602813362897
0.40103306382496107 -0.023546827876886004 -0.04626658929035152
0.17192746468063289 0.46970414661945453 -0.04626658929035152
0.5843879666214676 0.07064867240752348 -0.04626658929035152
-0.05524558312342592 0.016725576747883747 -0.04626658929035152
0.4029738039420963 -0.12756067162308865 -0.04503827276051916
-0.09585372759968315 0.5167732360426298 -0.04503827276051916
0.09261916073779136 0.4850335369117623 -0.04503827276051916
-0.11500727668820213 -0.06650515131355572 -0.04503827276051916
0.48079175049540784 0.5269273193559105 -0.04503827276051916
0.08587979737744451 0.49128976243704153 -0.04503827276051916
0.2718059761097332 -0.09092408392662266 -0.04503827276051916
0.11603906257326133 0.012991494497193406 -0.04503827276051916
0.11502365424193318 0.367049639832933 -0.04503827276051916
0.3099574875263258 0.35510221438609707 -0.04503827276051916
0.5302519627633233 0.13398067268567895 -0.04503827276051916
0.5464002307421859 0.3630780830531419 -0.0439737317679978
0.09462541106985077 0.29714205173174163 -0.0439737317679978
0.5647594684747466 -0.09112880334826143 -0.0439737317679978
0.39678308863174133 -0.1251122273402896 -0.043400517387409375
0.31942371358290045 0.5153565776448898 -0.043400517387409375
-0.10012826912349974 0.07859178596710595 -0.043400517387409375
0.5499705374555653 0.4292434001267772 -0.043400517387409375
0.3752302279216165 -0.12333526276046548 -0.043400517387409375
0.22526096840595308 -0.2739268693179105 -0.043400517387409375
-0.10812870412114098 -0.10021015689215516 -0.043400517387409375
0.3963163283504049 -0.04026831023633696 -0.043400517387409375
0.013433688447933065 -0.008299325353233916 -0.043400517387409375
0.03913825902889116 0.4088451569546949 -0.043400517387409375
0.37730198846860025 0.4353931715528045 -0.043400517387409375
0.3363253490333934 0.2755728134678858 -0.042335976394888016
0.15297863501375258 0.04907943414366757 -0.042335976394888016
0.49810282478917833 0.03829481501173967 -0.042335976394888016
-0.12206600234630527 0.5050141524637017 -0.042335976394888016
-0.11669416472250523 -0.12639786530818076 -0.04176276201429959
0.11269804161211734 -0.1373380712005541 -0.04176276201429959
0.2141815533068654 -0.09798280958472592 -0.04176276201429959
0.5698528876851182 0.09077668594304278 -0.04176276201429959
0.6601914740658542 0.2309276019969129 -0.04176276201429959
0.42348668999029637 0.397823063293666 -0.04176276201429959
0.2726248537962882 0.6152187115202593 -0.04176276201429959
-0.10907860223754466 0.4917974666027057 -0.04176276201429959
-0.07629892844475224 0.2220100239903301 -0.04176276201429959
0.4755591220783222 -0.014711137638958748 -0.04069822102177824
-0.26765426623889993 0.17850305250366866 -0.04069822102177824
0.2877495246669571 -0.13426727987597326 -0.04069822102177824
0.32350172446194375 0.38255918321628274 -0.04069822102177824
-0.10198712147197928 0.07536540788207963 -0.04012500664118981
0.26572171489863045 0.01405603548971473 -0.04012500664118981
0.3075581759047199 -0.1875434621632347 -0.04012500664118981
0.46295659448224225 0.014752081523286456 -0.04012500664118981
0.5364017341893507 0.25219385551674356 -0.04012500664118981
0.46183473205166203 0.35151553011898673 -0.04012500664118981
0.46252258930836815 0.5225053798485142 -0.04012500664118981
0.13508615756252812 0.5828812316782065 -0.04012500664118981
-0.07150030520154056 0.15922667176216634 -0.04012500664118981
0.11192829658675568 -0.0039838399450896145 -0.039060465648668455
0.2824022533737537 -0.25290627910404634 -0.039060465648668455
0.28812620840277237 0.49127338488331035 -0.039060465648668455
0.18642159973265449 0.6117958027904599 -0.039060465648668455
0.471440167314951 0.037426804663991405 -0.039060465648668455
0.03586274828267166 -0.043535632205691 -0.038487251268080024
0.05866849185322543 -0.1171773025575726 -0.038487251268080024
0.2793396508260383 -0.09632048788101946 -0.038487251268080024
0.5390548978937886 -0.11934732842694307 -0.038487251268080024
0.49535958453921936 0.24130278228556348 -0.038487251268080024
0.5102140257733253 0.5284668094066337 -0.038487251268080024
0.1773074910812985 0.47784379082381023 -0.038487251268080024
0.15946414629126734 0.6115255731538966 -0.038487251268080024
0.06288571193898314 0.281632508348392 -0.038487251268080024
-0.13460301972746075 0.29175383655421055 -0.038487251268080024
0.012770397521823575 0.3769908149477094 -0.03742271027555864
0.3107026662210907 -0.1989831834444066 -0.03742271027555864
0.6706649196768912 0.2432107672952363 -0.03742271027555864
-0.20997252199797323 0.14111309733557217 -0.03742271027555864
0.49810282478917833 0.3402805282594535 -0.03742271027555864
-0.08511824112894843 0.056858772165939084 -0.03684949589497021
0.10774383160846021 -0.1446260826108927 -0.03684949589497021
0.21464831358820172 -0.09965332006529785 -0.03684949589497021
0.3662553284769748 -0.05321476646076986 -0.03684949589497021
0.5101976482195941 0.22088816155974988 -0.03684949589497021
0.5578071969158956 0.4479547552645565 -0.03684949589497021
0.25402814153462655 0.4831091743483582 -0.03684949589497021
0.10376408605180339 0.49708741645785015 -0.03684949589497021
-0.023702414637331363 0.3898963272878145 -0.03684949589497021
-0.08894239992515977 0.3034392211413488 -0.03684949589497021
0.17534218463356668 -0.23525946495878836 -0.03578495490244886
0.552189695986129 0.45859197641290467 -0.03578495490244886
0.030220681022308373 0.5236272422790944 -0.03578495490244886
0.02181899595825519 0.08655946585728506 -0.03578495490244886
0.3363253490333934 0.2755728134678858 -0.03578495490244886
-0.127446028746971 0.14614919510788474 -0.03578495490244886
-0.05463961363537532 0.010690448197974104 -0.03521174052186043
0.2012350970824325 -0.26193849998674684 -0.03521174052186043
0.18675733958414195 -0.11305834779420147 -0.03521174052186043
0.5543760994092307 -0.12228709932167521 -0.03521174052186043
0.5183045373164876 0.18620869153415012 -0.03521174052186043
0.5104842554098883 0.526558824396961 -0.03521174052186043
0.2515633196980963 0.4808654494871978 -0.03521174052186043
0.2297484181282739 0.6431670069623777 -0.03521174052186043
0.06458897752701731 0.4321586046909126 -0.03521174052186043
-0.08880319071844549 0.17954302716559334 -0.03521174052186043
0.5321271926655342 0.04904667903620533 -0.034802301678582975
0.3343600425856616 0.37263438565523727 -0.034147199529339076
-0.049226832127247454 0.5224153033029932 -0.034147199529339076
0.5468014808085979 0.016725576747883747 -0.034147199529339076
-0.06428599278299195 -0.1352417443229736 -0.034147199529339076
-0.08822178756099153 0.07499691292313002 -0.03357398514875065
0.052936348047341146 0.09833492698994446 -0.03357398514875065
0.21608953831653835 -0.2632732706158313 -0.03357398514875065
0.3834927037789552 0.09743416153473408 -0.03357398514875065
0.5466049501638247 -0.00802909571667079 -0.03357398514875065
0.654254610838331 0.21580293112624405 -0.03357398514875065
0.3089093240875356 0.34511190661012736 -0.03357398514875065
0.3640607362770077 0.4969400184742703 -0.03357398514875065
-0.10336283598539155 0.5166749707202433 -0.03357398514875065
-0.0747266832865669 0.1832689206394181 -0.03357398514875065
-0.19890129567575107 0.25551031014729086 -0.03357398514875065
-0.11005306668454498 0.2432107672952363 -0.03250944415622929
0.09912923834590277 -0.14782789436532237 -0.03250944415622929
0.40103306382496107 0.40357977343014695 -0.03250944415622929
0.09904735057724724 0.33399973640357744 -0.03250944415622929
0.27551549202982695 0.02543024655596218 -0.03250944415622929
-0.005326799351039537 0.007161085368922531 -0.03193622977564087
0.008651442758452456 -0.14600998590117042 -0.03193622977564087
0.2526114831368866 -0.11420477655537833 -0.03193622977564087
0.5382360202072338 -0.003287793911517889 -0.03193622977564087
0.6716066290164292 0.1888454776848569 -0.03193622977564087
0.43814460057962895 0.4021794925861379 -0.03193622977564087
0.35389846418686133 0.49481093648922764 -0.03193622977564087
-0.11112579645393189 0.5083961173091732 -0.03193622977564087
-0.07455471897239037 0.22965015280588733 -0.03193622977564087
0.09066204306692512 0.5128426231471664 -0.031526790932363415
-0.2277667341268111 0.14442136318925392 -0.03087168878311951
0.5395789796131837 0.3376846859930746 -0.03087168878311951
0.06669349318146343 0.07698678570145838 -0.03087168878311951
0.44443358121237053 0.3510651473913815 -0.03087168878311951
-0.11659589940011864 -0.052379511220483836 -0.030298474402531084
0.057440175323393045 0.11042156164349469 -0.030298474402531084
0.282541462580468 -0.21379668079418462 -0.030298474402531084
0.46068011451361973 0.04047302965797561 -0.030298474402531084
0.5061442036711474 0.2474934975959185 -0.030298474402531084
0.5377037497109731 0.514537699958335 -0.030298474402531084
0.1773566237424918 0.4784907041961886 -0.030298474402531084
0.09094865025721931 0.49128157366017594 -0.030298474402531084
0.057317343670409804 0.2854730446983344 -0.030298474402531084
-0.08440581754164576 0.31577151910086554 -0.030298474402531084
-0.23299936254389683 0.2324261481633084 -0.0292339334100097
0.5628187283576116 0.15693381423981276 -0.0292339334100097
-0.06273012517853767 0.02959014520366112 -0.0292339334100097
0.669559434800042 0.23152538270809803 -0.0292339334100097
-0.1153020726553619 0.509092163342745 -0.028660719029421272
0.4596810837360226 -0.13873016326769746 -0.028660719029421272
0.03668981474609209 -0.07647089275892877 -0.028660719029421272
-0.12684824803578587 0.44223080023553796 -0.028660719029421272
0.05935634910993157 0.4352457735692246 -0.028660719029421272
0.3548074184189374 0.4890460375758811 -0.028660719029421272
0.4773278978812806 0.3762456362529444 -0.028660719029421272
0.5067501731591981 0.21917670719485025 -0.028660719029421272
0.40380087040551677 0.09141541053855562 -0.028660719029421272
0.3882585719147049 -0.13941802052440358 -0.028251280186143847
0.5628187283576116 0.2108569098994525 -0.027596178036899916
0.034339635785679494 0.3942118126959589 -0.027596178036899916
0.36867920642917723 -0.14505189900790116 -0.027596178036899916
0.49810282478917833 0.20956308315469574 -0.027596178036899916
-0.041734101295270234 0.013908637506134844 -0.02702296365631149
0.24346461937806838 -0.2492868397294737 -0.02702296365631149
0.31866215733440434 0.012983305720327817 -0.02702296365631149
0.5219567317985225 0.0656207634120764 -0.02702296365631149
0.5607797229180899 0.285571310020721 -0.02702296365631149
0.31215207972629294 0.5600427330001906 -0.02702296365631149
-0.0343314470088139 0.531824207921509 -0.02702296365631149
-0.11454051640686581 0.41495398449639426 -0.02702296365631149
0.5733658729604387 0.07064867240752348 -0.026613524813034035
0.4161167908113023 -0.0048436615159721695 -0.025958422663790132
-0.06273012517853767 0.2108569098994525 -0.025958422663790132
0.10034936609886957 0.2863574325998137 -0.025958422663790132
0.35789458729724943 0.1158670982590848 -0.025958422663790132
0.1319089121386952 -0.18319522164762816 -0.025385208283201705
0.12701202357309693 0.024570424985079622 -0.025385208283201705
-0.16097907001139392 0.10699865291369519 -0.025385208283201705
0.3191452951694717 0.3747880339708767 -0.025385208283201705
0.5458925265765221 -0.1022164072242147 -0.025385208283201705
0.5610090086703252 0.29337521437358927 -0.025385208283201705
0.3171881774986055 0.5235617320641699 -0.025385208283201705
-0.11020865344499045 0.3936058432079082 -0.025385208283201705
0.09528870199596026 0.08143329153945139 -0.02497576943992425
0.10487775970551812 -0.16902863767022858 -0.024320667290680352
0.3076646300039721 0.04907943414366757 -0.024320667290680352
-0.2460768391981785 0.2324261481633084 -0.024320667290680352
0.26403482686432733 0.46970414661945453 -0.024320667290680352
0.08566688917894028 0.2837615903334348 -0.024320667290680352
0.06394206415463888 0.5082241529949969 -0.02374745291009192
0.2743281193843224 0.3855890306565359 -0.02374745291009192
0.674136961067884 0.16465583082402538 -0.02374745291009192
0.6402599911751081 0.1253415130925249 -0.02374745291009192
0.16616256576728636 -0.12738870730891214 -0.02374745291009192
0.03634588611773902 -0.06973971817544763 -0.02374745291009192
-0.06586642671804288 0.16169149359869658 -0.02374745291009192
-0.13638817308415044 0.2956844494496739 -0.02374745291009192
0.10908679101441024 0.31087463053526737 -0.023338014066814468
0.5098127757069134 0.11897064469112777 -0.022682911917570568
0.40380905918238236 0.5262312733223389 -0.022682911917570568
0.020328638568725264 -0.0048436615159721695 -0.022682911917570568
0.4119323258330068 -0.08034418421633353 -0.022682911917570568
0.5736033474895396 0.30792667086366965 -0.022682911917570568
0.09718030945190213 0.3120701919576374 -0.02210969753698214
-0.1275934267305509 -0.06747961576055604 -0.02210969753698214
0.22174798313063257 0.015063255044177288 -0.02210969753698214
0.3360714969505613 0.06114969124348674 -0.02210969753698214
0.5588799266852825 -0.049447929102617284 -0.02210969753698214
0.3989694920548429 0.41271025963523383 -0.02210969753698214
0.4178036788456053 0.5196147416149753 -0.02210969753698214
0.14715641466234727 0.5917660545773271 -0.02210969753698214
0.5026967286107513 -0.137067841563991 -0.021045156544460757
0.1880429775520331 0.02751019587981165 -0.021045156544460757
-0.00880702951889793 0.5344200501878877 -0.021045156544460757
0.5628187283576116 0.2755728134678858 -0.021045156544460757
0.14218582710495908 -0.025119073035071462 -0.021045156544460757
0.22587512667086926 0.030106038146190724 -0.021045156544460757
0.20753226649203968 0.3641508128225288 -0.02047194216387233
-0.18391583401179654 0.2606610507957211 -0.02047194216387233
0.019517949659035888 0.24655178825638027 -0.02047194216387233
-6.18252653348988E-4 -0.145690623603414 -0.02047194216387233
0.16466401960089097 -0.12758523795368532 -0.02047194216387233
0.3988712267324563 -0.042757698403463856 -0.02047194216387233
0.49934751887274165 0.25319288629434056 -0.02047194216387233
0.5533033696398438 0.4354750593214599 -0.02047194216387233
0.18674915080727636 0.3510651473913815 -0.020062503320594904
0.0019775896130300864 0.46970414661945453 -0.020062503320594904
0.32354266834627143 0.5775585267155996 -0.020062503320594904
0.010166366478579028 -0.15157835416974377 -0.020062503320594904
0.4873182056572503 0.04907943414366757 -0.020062503320594904
0.5585032429494674 0.4442698056750596 -0.018834186790762545
0.5347557900393753 0.2409588536572104 -0.018834186790762545
0.4011067628167511 -0.03304580904092275 -0.018834186790762545
0.32987259286334075 -0.1580311103397963 -0.018834186790762545
0.03849953443337832 -0.12671722760593718 -0.018834186790762545
0.045247086570590636 0.20258624526524802 -0.018834186790762545
-0.12015801733663245 0.3046839152249124 -0.018834186790762545
0.1714934595067587 0.37195471717539674 -0.018834186790762545
0.40823099868977875 -0.15584470691669478 -0.018424747947485092
0.23925558806917624 -0.24706768119890993 -0.01776964579824119
0.034339635785679494 0.31871128999559767 -0.01776964579824119
0.500084508790641 -0.16662932604862268 -0.01776964579824119
0.3766960189805498 0.16771843337174064 -0.01776964579824119
0.15037460397050803 0.6185187885970755 -0.01776964579824119
-0.12315510966942336 -0.14045799518632826 -0.01776964579824119
0.5449999498981771 0.5174119606381427 -0.01719643141765276
0.23825655729157927 0.35591290329578656 -0.01719643141765276
-0.05626099145475395 0.3686382625448494 -0.01719643141765276
-0.13037761086483746 0.07756818885891233 -0.01719643141765276
0.11850388440979158 0.009052692824864293 -0.01719643141765276
0.11832373131874946 -0.17240241373883466 -0.01719643141765276
0.5383179079758892 0.007455881336082304 -0.01719643141765276
0.3114150898083935 0.35287486707866783 -0.01719643141765276
0.6495788192481026 0.2432107672952363 -0.01678699257437531
0.014440908002395622 -0.15093144079736534 -0.01678699257437531
0.16869289781874097 -0.2215432637089939 -0.01613189042513141
0.034339635785679494 0.30529807348982846 -0.01613189042513141
0.48444394497744264 -0.16193715690466318 -0.01613189042513141
0.38043010123124 0.26275737767330165 -0.01613189042513141
0.012770397521823575 0.5344200501878877 -0.01613189042513141
-0.06600563592475729 -0.13590503524908307 -0.01613189042513141
0.5363771678587541 -0.005621595318199426 -0.015558676044542979
0.13515166777745258 -0.20252073505032364 -0.015558676044542979
0.057522063092048575 0.10342834620031591 -0.015558676044542979
-0.11107666379273859 -0.051765352955567646 -0.015558676044542979
0.050070276144399066 0.1653109329732693 -0.015558676044542979
-0.022989991050028694 0.5212033643268917 -0.015558676044542979
0.5582985235278286 0.47922769411408805 -0.015558676044542979
0.5048749432569872 0.15853062572859472 -0.015558676044542979
0.24174497623630314 0.3570593320569633 -0.015558676044542979
0.17241060251570026 -0.2636908982359743 -0.015149237201265526
-0.06177203828526841 0.5305958913916765 -0.015149237201265526
0.641111623969125 0.14579707770266606 -0.014494135052021625
0.26082482633303217 -0.026421088556693676 -0.014494135052021625
0.26082482633303217 0.45891952748752657 -0.014494135052021625
0.42261049086568264 0.5344200501878877 -0.014494135052021625
-0.21372298180239463 0.2108569098994525 -0.014494135052021625
0.03232519667675449 0.398314389905599 -0.014494135052021625
0.5978585045652954 0.2821893451752493 -0.013920920671433197
0.34071453343332764 0.3087046046658968 -0.013920920671433197
0.31143965613899016 0.5548101045831048 -0.013920920671433197
-0.10495964747417354 0.376237447476079 -0.013920920671433197
-0.0701737233493217 0.16992121434857335 -0.013920920671433197
-0.07203257569780123 -0.15595116101594683 -0.013920920671433197
0.2630439848635959 0.00797996305547738 -0.013920920671433197
0.3299462918551308 0.009568585767393894 -0.013920920671433197
0.2049855568868539 -0.09112880334826143 -0.013511481828155744
0.6495788192481026 0.23545599560356154 -0.013511481828155744
-0.17609555210519717 0.09721306455936425 -0.013511481828155744
0.3039714916376096 0.3159352946381766 -0.012856379678911813
0.28941184637066353 0.5020580040152384 -0.012856379678911813
0.023555016653751593 0.39143581733853783 -0.012856379678911813
0.3363253490333934 0.03829481501173967 -0.012856379678911813
-0.011574836099453423 -0.15636059985922426 -0.012856379678911813
0.029622900311123357 0.407027248490543 -0.012283165298323385
-0.16576950447774 0.09384747726762363 -0.012283165298323385
-6.100638764834E-4 3.725893473825104E-4 -0.012283165298323385
0.28475243233416614 -0.13213000911406503 -0.012283165298323385
0.47635343343428027 -0.1547965434779045 -0.012283165298323385
0.5385963263893178 0.25312737607941616 -0.012283165298323385
0.5580856153293242 0.4476927144048591 -0.012283165298323385
0.1699048367948423 0.6096339656979548 -0.012283165298323385
0.009412999006948537 0.0031731510354002387 -0.01187372645504596
0.4892016243363267 -0.1398356481445465 -0.01187372645504596
0.43339510999761066 0.29714205173174163 -0.011218624305802031
0.14218582710495908 -0.05669499662862814 -0.011218624305802031
0.20945662905544368 -0.09112880334826143 -0.011218624305802031
-0.1275442940693576 0.5020580040152384 -0.011218624305802031
-0.016529046103110567 0.35022989215109546 -0.010645409925213602
-0.20605828665624082 0.23835482261396587 -0.010645409925213602
0.03894991716098357 -0.12454720173656669 -0.010645409925213602
0.17874871580963514 -0.25762301457860254 -0.010645409925213602
0.4787036123946929 0.001699171199601373 -0.010645409925213602
0.5848874820102661 0.09646788586459935 -0.010645409925213602
0.3756724218723561 0.26828480205754723 -0.010645409925213602
0.12208237990003644 0.5430919648885041 -0.010645409925213602
0.4251653892477338 0.002190497811534328 -0.010235971081936149
-0.06273012517853767 0.23602102120728433 -0.009580868932692247
0.49810282478917833 0.396807654962338 -0.009580868932692247
0.5546299514920626 0.2540035752040299 -0.009580868932692247
0.4929111402564204 -0.015628280647900186 -0.009580868932692247
0.06669349318146343 -0.015628280647900186 -0.009580868932692247
0.5558910231293571 0.4717513408358418 -0.00900765455210382
0.29652789346682557 0.5748316640193718 -0.00900765455210382
0.35740326068531647 0.28404819752372895 -0.00900765455210382
0.6105920525912241 0.10327275943987042 -0.00900765455210382
0.43185561994688737 -0.010444784892007742 -0.00900765455210382
0.13628990776176386 0.029254405352173524 -0.00900765455210382
-0.04535354066984281 -0.1553615690816273 -0.00900765455210382
0.04326540256912787 0.238805205341571 -0.00900765455210382
-0.10923418899799013 0.5231195381134303 -0.00900765455210382
0.19228476396838748 -0.14026146454155508 -0.008598215708826367
0.023555016653751593 -0.0048436615159721695 -0.007943113559582465
0.5736033474895396 0.45891952748752657 -0.007943113559582465
0.0019775896130300864 0.46169552284494764 -0.007943113559582465
0.49241162486762186 0.13536457597595683 -0.007943113559582465
-0.11667778716877406 -0.02591338439102966 -0.007369899178994037
0.11874135893889247 0.042331882006455254 -0.007369899178994037
0.41810666358963067 -0.02073807741200269 -0.007369899178994037
0.6543610649375832 0.23404752598268705 -0.007369899178994037
0.35877897519872853 0.2860298815251917 -0.007369899178994037
0.011754989190495545 0.12607850301042434 -0.007369899178994037
-0.062197854682277 0.5276724980506756 -0.007369899178994037
0.17292649545822986 0.6259623867678594 -0.007369899178994037
0.5526728338211964 0.4239943941559604 -0.007369899178994037
0.21768634980532034 0.004925549284627701 -0.006305358186472682
0.08557681263341926 0.3155831772329579 -0.006305358186472682
0.034339635785679494 0.3092204976084263 -0.006305358186472682
0.3255407299014654 0.0922179106713794 -0.006305358186472682
0.29156549468630294 -0.21500043099342026 -0.005732143805884254
0.49207588501613436 0.005343176904770713 -0.005732143805884254
0.1191426090053043 0.006276697467443211 -0.005732143805884254
0.12215607889182639 0.3315267257901817 -0.005732143805884254
0.5009934630227172 0.2445864818086486 -0.005732143805884254
0.478556214411113 0.5199914253507906 -0.005732143805884254
0.16044679951513327 0.5073970865315764 -0.005732143805884254
-0.194381090845968 0.2531519424100128 -0.005732143805884254
-0.05387805738687924 -0.15215156855033213 -0.005732143805884254
0.44417972912953846 -0.06955956508440551 -0.004667602813362871
0.0843894399879146 0.31429753926506665 -0.004667602813362871
0.05493440960253509 0.2432107672952363 -0.004667602813362871
0.3828212240759803 0.20021968875110435 -0.004667602813362871
-0.13316179499912412 -0.05617910368609854 -0.004667602813362871
0.1502927162018525 0.46890164648663063 -0.004094388432774442
0.542862679136269 0.3925085471079247 -0.004094388432774442
0.39207454193405056 0.23619298552146087 -0.004094388432774442
0.04333910156091781 0.227349106506668 -0.004094388432774442
-0.20187382167794535 0.2381091593079994 -0.004094388432774442
0.17265626582166674 0.011632157537512306 -0.004094388432774442
0.48256052629836643 -2.4156891753368358E-4 -0.004094388432774442
0.15215156855033213 -0.23910000130873083 -0.0036849495894970183
0.2931868725056816 0.42656567009174273 -0.003029847440253088
0.3363253490333934 0.044469152768363496 -0.003029847440253088
0.19752558116233881 0.028943231831282692 -0.003029847440253088
-0.1382306478788989 0.5020580040152384 -0.003029847440253088
0.13140120797303106 0.46970414661945453 -0.003029847440253088
0.035698972745360595 -0.07459566285671806 -0.0024566330596646597
0.310571645791242 0.0410462440385641 -0.0024566330596646597
0.38490117339982965 0.15125899187198724 -0.0024566330596646597
0.07724063778429044 0.2958973576481783 -0.0024566330596646597
-0.22528553473654972 0.21338724195090708 -0.0024566330596646597
0.28484250887968715 0.5122612199897124 -0.0024566330596646597
0.3785958152133571 0.4384475853236542 -0.0024566330596646597
0.4765335865253225 0.5396199234975115 -0.0020471942163872068
-0.036869967837134095 -0.03720570768862169 -0.0013920920671433052
0.3039714916376096 -0.10191342248018945 -0.0013920920671433052
0.40103306382496107 0.3092204976084263 -0.0013920920671433052
0.15297863501375258 0.3294959091275257 -0.0013920920671433052
-0.11063446984199894 0.4071664576972573 -8.188776865548768E-4
0.24253109881539586 0.6483832578257325 -8.188776865548768E-4
0.6769948441939605 0.20829382274053565 -8.188776865548768E-4
0.3198085860955812 0.36843354312321086 -8.188776865548768E-4
-0.1077028877241325 0.24335816527881618 -8.188776865548768E-4
-0.10566388228461074 -0.13582314748042754 -8.188776865548768E-4
0.4795224900812477 -0.0023870284563075102 -8.188776865548768E-4
0.2560098255360894 -0.2456346452474389 -8.188776865548768E-4
0.023555016653751593 0.04907943414366757 2.456633059664776E-4
0.5088874439211063 0.3510651473913815 2.456633059664776E-4
0.4971447378959092 -0.16005373822558688 2.456633059664776E-4
0.03985068261619395 0.17108402066348127 2.456633059664776E-4
0.04137379511318599 0.450853582274961 8.188776865549059E-4
0.39968191564214556 0.4573227159987446 8.188776865549059E-4
0.44123995823480655 -0.03669800352295756 8.188776865549059E-4
0.2756710787902724 -0.12933763620291278 8.188776865549059E-4
0.5084043060860389 0.12675817149026486 8.188776865549059E-4
0.03746774854831923 0.287823223658747 8.188776865549059E-4
0.1393606990863447 0.027551139764139355 8.188776865549059E-4
-0.2516452074667518 0.19969560703170927 8.188776865549059E-4
-0.04116088691468175 -0.04799032682054959 0.0018834186790762603
0.40103306382496107 0.05986405327559547 0.0018834186790762603
0.2453644156108757 0.6530508606390952 0.0018834186790762603
-0.23788806233262955 0.2270706880932394 0.0018834186790762603
0.15213519099660108 0.6090034298793076 0.0024566330596646887
-0.1202644714358845 0.5179032872500756 0.0024566330596646887
-0.051560633533928875 -0.004196748143593857 0.0024566330596646887
0.04758088797727217 0.24833694161307 0.0024566330596646887
0.508707290830064 0.13000092712902225 0.0024566330596646887
0.5546708953763904 -0.10237199398466017 0.0024566330596646887
0.27279681811046474 -0.13277692248644335 0.0024566330596646887
-0.08294821525957796 0.5372861220908302 0.003521174052186072
0.07747811231339133 0.3942118126959589 0.003521174052186072
0.1961171115414644 -0.29605294440862373 0.003521174052186072
0.08567507795580585 0.2819600594230139 0.003521174052186072
-0.028541981764870855 0.526591579504423 0.0040943884327745
0.2407787005661683 0.6461968544026309 0.0040943884327745
0.6247504477917584 0.257467427818157 0.0040943884327745
0.15448536995701356 -0.22350857015672562 0.0040943884327745
0.366541935667269 0.08791880281696617 0.0040943884327745
0.16908595910828733 0.3646257618807306 0.0040943884327745
0.05621185879356077 0.09398668647433793 0.0040943884327745
-0.07023923356424606 -0.16662932604862268 0.0045038272760519246
0.674988593861901 0.2324261481633084 0.0051589294252958546
-0.24082783322736165 0.22584237156340703 0.0051589294252958546
0.3363253490333934 0.4178528115067987 0.0051589294252958546
0.17583351124549965 0.6338563676662486 0.005732143805884283
0.662263234612838 0.14742664429891042 0.005732143805884283
0.4086568150867872 0.4440405199228243 0.005732143805884283
-0.11219033744645333 0.42941536444095385 0.005732143805884283
0.4133981168919401 0.13521717799237695 0.005732143805884283
0.05252690920406373 0.15731868675249353 0.005732143805884283
-0.12224615543734739 -0.07041938665528819 0.005732143805884283
0.18649529872444442 -0.2480667119765069 0.005732143805884283
-0.011804121851688842 0.3496566777705071 0.0067966847984056375
0.2221164780895823 0.37263438565523727 0.0067966847984056375
0.40103306382496107 0.4398069222833353 0.0067966847984056375
0.4857869043833928 -0.14822095565486862 0.007369899178994066
0.13188434580809855 0.04228274934526196 0.007369899178994066
0.671811348438068 0.21613048220086606 0.007369899178994066
0.04144749410497593 0.28905154018857937 0.007369899178994066
-0.11965031317096832 -0.1030107185801729 0.007369899178994066
-0.046418081662364136 0.37549226878131403 0.007369899178994066
0.5242577780977415 0.5182881597627563 0.007369899178994066
0.42261049086568264 0.2755728134678858 0.00843444017151542
0.5628187283576116 0.2540035752040299 0.00843444017151542
0.037426804663991405 0.21245372138823446 0.00843444017151542
0.07156581541646503 0.07580760183281929 0.00843444017151542
0.5538028850286422 0.49526131921683286 0.009007654552103849
-0.05566321074356893 0.37143063545600163 0.009007654552103849
0.31283174820613346 0.3507375963167596 0.009007654552103849
0.27879919155291205 -0.13008281489767778 0.009007654552103849
-0.2368480876707048 0.21059486903975494 0.009007654552103849
0.2587448770091827 0.015931265391925433 0.009007654552103849
0.6351583831878709 0.2451351298586403 0.009007654552103849
0.20075195924736514 -0.28536659059908237 0.010072195544625203
0.4611386860180903 0.4157810509598147 0.010072195544625203
-0.033741855074494356 0.4049964318278869 0.010072195544625203
0.05099560793020609 0.11378714893523532 0.010072195544625203
-0.20811366964949357 0.23692997543936029 0.010645409925213631
0.16776756603293394 -0.2308211478976608 0.010645409925213631
0.6491284365204976 0.140679092161698 0.010645409925213631
0.25573959589952633 0.021082006040355757 0.010645409925213631
0.06763520252100151 0.27827510983351694 0.010645409925213631
0.3761146158230958 0.44133822355719304 0.010645409925213631
0.17534218463356668 0.6285009075961796 0.010645409925213631
0.7030269658495406 0.2108569098994525 0.011054848768491084
0.030417211667081556 -0.09112880334826143 0.011709950917735015
0.36198078695315833 0.4363922023304014 0.011709950917735015
-0.12569363049774354 0.5252240537678764 0.011709950917735015
-0.0655716307508831 -0.14843386385337298 0.012283165298323443
0.06779897805831246 0.27476212455819643 0.012283165298323443
0.37572155453354944 0.4412727133422686 0.012283165298323443
0.129042840235753 0.03959683053336188 0.012283165298323443
0.6815723704618024 0.17638215929549148 0.012283165298323443
0.15819488587710726 -0.13034485575737534 0.012283165298323443
0.055409358660736985 0.2402628076236387 0.013347706290844797
0.4550134809226598 0.3402805282594535 0.013347706290844797
0.43339510999761066 0.03829481501173967 0.013347706290844797
0.03506024814984775 0.44805302058694313 0.013920920671433227
0.17398284767388558 0.3582630822561989 0.013920920671433227
0.1226637830574904 0.02996682893947631 0.013920920671433227
0.6862972947132241 0.18331805330061138 0.013920920671433227
0.18465282392969584 -0.25567408568460187 0.013920920671433227
-0.05816897646442689 -0.006415906674157626 0.01498546166395458
0.14218582710495908 -0.026421088556693676 0.01498546166395458
0.49810282478917833 0.2324261481633084 0.01498546166395458
0.21079139968452812 0.6616818314553838 0.015558676044543009
0.4865648381856199 0.3819122698439043 0.015558676044543009
-0.10222459600108016 0.2424082671624125 0.015558676044543009
0.37527117180594416 0.10181515715780275 0.015558676044543009
0.5553915077405588 -0.11589166458968143 0.015558676044543009
0.0350848144804444 -0.07599594370072699 0.015558676044543009
0.5487667872563298 0.25741010638009826 0.016623217037064365
0.14395460290791762 -0.10191342248018945 0.016623217037064365
-0.03037626778275385 -0.002698201977198343 0.016623217037064365
-0.10559018329282079 -0.1530195788980804 0.017196431417652792
0.27396781320223823 0.35978619475319107 0.017196431417652792
0.03355351320658676 0.46604376336055414 0.017196431417652792
0.3061742726144422 0.03092491583274557 0.017196431417652792
0.4073138556808373 -0.07332640244255798 0.017196431417652792
0.5375563517273932 0.5316686211610635 0.018834186790762573
-0.2457656656772876 0.20684440923533354 0.018834186790762573
0.4202439343515389 0.24444727260193427 0.018834186790762573
0.01881371484859869 0.13434097886776322 0.018834186790762573
0.38251005055508935 0.15158654294660923 0.018834186790762573
0.2718387312171955 -0.12325337499180995 0.018834186790762573
0.0019775896130300864 0.02751019587981165 0.019145360311653436
0.43339510999761066 0.44813490835559877 0.019145360311653436
0.5505355630592881 0.5281310695551462 0.020471942163872384
0.048948413713818854 0.23432594439611576 0.020471942163872384
0.4765335865253225 0.37332224291194344 0.020471942163872384
0.06381923250165564 0.09883444237874289 0.020471942163872384
0.5377528823721665 0.2439641347668669 0.020471942163872384
0.21074226702333484 -0.2719697516470443 0.020471942163872384
0.15297863501375258 0.04037476433558902 0.021659314809376978
0.2931868725056816 0.3942118126959589 0.021659314809376978
0.6783869362611038 0.16480322880760526 0.022109697536982168
0.12091957358512853 0.010862412512150638 0.022109697536982168
0.27083151166273295 0.47727057644322185 0.022109697536982168
0.03827024868114302 0.2957990923257917 0.022109697536982168
0.3971761499212877 -0.07173777973064158 0.022109697536982168
0.37911989693275217 0.09467454373104406 0.023747452910091952
-0.09623860011236393 0.2340147708752249 0.023747452910091952
0.316852437647118 0.3655101497822099 0.023747452910091952
0.20185744412421416 -0.2780949567424749 0.023747452910091952
-0.013073382265848936 0.3502135145973643 0.024181458083966052
0.4207025058560097 0.45891952748752657 0.024181458083966052
-0.033741855074494356 0.005023814607014292 0.024181458083966052
0.1631490958807644 -0.005908202508493611 0.025385208283201736
0.16456575427850437 0.5135878018419314 0.025385208283201736
0.16067608526736857 0.35639604113085394 0.025385208283201736
0.37707270271636495 -0.06404851825389106 0.025385208283201736
-0.03037626778275385 -0.026421088556693676 0.026703601358555124
0.15297863501375258 0.3294959091275257 0.026703601358555124
0.0595283134241081 -0.06356538041882369 0.027022963656311516
0.27938059471036614 0.3852451020281828 0.027022963656311516
-0.09450257941686753 0.12821577377233256 0.027022963656311516
0.39241847056240364 0.13561842805878876 0.027022963656311516
0.15283123703017268 -0.09964513128843239 0.028660719029421328
0.3170571570687568 -7.98405744390994E-4 0.028660719029421328
-0.060609231970360486 0.37223313558882554 0.028660719029421328
0.27062679224109426 0.36261951154867106 0.028660719029421328
0.49589185503548 0.2626345460203184 0.029217555856278637
0.291254321165412 -0.09242263009301817 0.029217555856278637
-0.03037626778275385 -0.04799032682054959 0.029217555856278637
-0.1028715093734586 0.13379233081777137 0.03029847440253111
0.3693998187933455 0.10588497925998057 0.03029847440253111
-0.04883377083770109 0.38306688738194666 0.03029847440253111
0.3976101550951618 0.22758658103576904 0.03029847440253111
0.4957444570519001 0.26266730112778064 0.03173969913086771
0.3039714916376096 -0.09112880334826143 0.03173969913086771
0.2655743169150505 -0.13756735695278954 0.031936229775640895
0.2710198535306406 0.01605409704490867 0.031936229775640895
0.03462624297597368 0.4597384051740814 0.031936229775640895
0.2727313078955403 0.38650617366547735 0.031936229775640895
0.27083151166273295 -0.1356593719431166 0.03357398514875068
0.11130594954497401 0.3690477013881269 0.03357398514875068
0.02148325610676771 0.12747878385443312 0.03357398514875068
0.5024756316353813 0.12376107915747396 0.03357398514875068
-0.03037626778275385 -0.002698201977198343 0.03426184240545679
0.10983196970917515 0.2863574325998137 0.03426184240545679
0.40103306382496107 0.43735028922367075 0.03426184240545679
0.36935068613215216 0.2728705171022546 0.03521174052186046
0.035395988001335345 0.449215826901851 0.03521174052186046
0.2551745702958034 0.009494886775603952 0.03521174052186046
0.2624134490449487 0.519565608953782 0.03521174052186046
0.1780690473297946 -0.1440446794534387 0.036849495894970274
0.2835077382506027 0.37263438565523727 0.036849495894970274
0.27083151166273295 -0.13591322402594855 0.036849495894970274
0.2647636280053612 0.012590244430781453 0.036849495894970274
0.061845737277058346 0.4428122033929919 0.036849495894970274
0.27470480312013756 0.3560930563868286 0.036849495894970274
0.020402337560515207 -0.07568477017983616 0.03848725126808005
0.27870911500739104 -0.012270882133025149 0.03848725126808005
0.28657852957518354 0.4751742495656413 0.03848725126808005
0.2639038064344786 0.35526598992340813 0.03848725126808005
0.31803981029262257 0.38856155665873016 0.0392979401777694
0.3039714916376096 0.061944002599444936 0.0392979401777694
0.48228210788493786 0.011632157537512306 0.040125006641189835
0.05192912849287859 0.10011189156976857 0.040125006641189835
0.5451801029892192 0.13808324989531903 0.040125006641189835
0.036296753456545726 0.2916310049012273 0.040125006641189835
-0.04662280108400291 0.3510651473913815 0.04176276201429962
0.4549643482614665 0.4394302385475201 0.04176276201429962
0.143348633419867 -0.10191342248018945 0.04176276201429962
0.5330279581207444 0.1445605723959682 0.04176276201429962
0.04491953549596874 0.14566605727281737 0.04176276201429962
0.12232804320600292 0.37171724264629585 0.04176276201429962
0.2716012566880946 -0.1396063623923112 0.04176276201429962
0.3839512752834261 0.1441020008914975 0.0434005173874094
0.06191943626884829 0.10086525904139906 0.0434005173874094
0.07152487153213721 0.2745983490208855 0.0434005173874094
0.41061393275765345 -0.08158887829989686 0.0434005173874094
0.023555016653751593 0.46841031987469794 0.04434222672694755
0.06669349318146343 -0.015628280647900186 0.04434222672694755
0.2624134490449487 0.5203435427560092 0.045038272760519214
0.16357491227777288 0.010043534825595791 0.045038272760519214
-0.02816529802905555 0.34957479000185165 0.045038272760519214
0.3098019007658803 0.340509814011689 0.045038272760519214
0.2844903914744686 -0.09964513128843239 0.046676028133629
0.12136176753586807 0.37298650306045594 0.046676028133629
0.5328232386991059 0.25098191654064234 0.046676028133629
0.10398518302717322 0.00562159531819931 0.046676028133629
0.08826273144531924 0.11378714893523532 0.04685618122467106
-0.03838489155726067 0.3402805282594535 0.04685618122467106
0.49810282478917833 0.3402805282594535 0.04685618122467106
-0.06837219243890094 0.12873166671486216 0.04831378350673878
0.37558234532683515 -0.04387956083404406 0.04831378350673878
0.15327343098091234 0.4748303209372882 0.04831378350673878
0.31997236163289217 0.37022688525676606 0.04831378350673878
0.14218582710495908 0.05115938346751704 0.049378324499260134
0.2931868725056816 -0.03720570768862169 0.049378324499260134
0.3552987450308704 0.43735028922367075 0.049378324499260134
0.2688825827687323 -0.1389840153505294 0.049951538879848566
0.0810566078036362 0.2838926107632835 0.049951538879848566
0.11565419006058054 0.00882340707262899 0.049951538879848566
0.39062512842884844 0.14289825069226175 0.049951538879848566
0.2854321008140067 -0.07906673502530785 0.05036097772312602
0.44633337744517787 0.3389048137460412 0.05101607987236992
0.5008788201465993 0.2647881943359578 0.05101607987236992
0.0606010431934949 -0.035510630877453 0.05101607987236992
0.46716562579113446 0.03424955924015837 0.05158929425295834
0.11767681794637114 0.37255249788658185 0.05158929425295834
0.40780518229277024 0.4549234043771387 0.05158929425295834
0.06192762504571388 0.10116005500855883 0.05158929425295834
0.42425643501565796 0.13375957571030914 0.05158929425295834
0.14570700115714508 -0.07679025505668519 0.051998733096235795
0.14736113408398605 0.40240058956150787 0.05265383524547973
0.3471099681653214 -0.03720570768862169 0.05265383524547973
0.06669349318146343 0.2108569098994525 0.05265383524547973
0.034339635785679494 0.06920744767918685 0.05265383524547973
-0.01927228635306941 0.04194700949377448 0.053227049626068154
0.40178643129659164 0.2899932495281175 0.053227049626068154
0.04890746982949103 0.2495980132503645 0.053227049626068154
0.5462118888742784 0.13808324989531903 0.053227049626068154
0.1213044460978093 0.045738413182523585 0.053227049626068154
0.1626413917151004 -0.06955956508440551 0.05363648846934558
0.10759643362488032 0.3920335980497227 0.05363648846934558
0.13140120797303106 -0.10191342248018945 0.054291590618589514
0.023555016653751593 0.3213071322619767 0.054291590618589514
0.26274918889643617 0.031203334246174167 0.054291590618589514
0.40823099868977875 0.31384715653746165 0.054291590618589514
0.3119801154121164 0.3823790301252407 0.054291590618589514
0.31905521862395075 0.37414930937536384 0.05486480499917794
0.03375823262822553 0.4576257007427699 0.05486480499917794
0.4261152873641376 0.1305004425178207 0.05486480499917794
0.15893187579500667 -0.0191412659232207 0.05486480499917794
-0.06624311045385818 0.12567725294401236 0.05486480499917794
0.39552201699444683 0.17850305250366866 0.05527424384245539
0.055908874049535415 0.1714852707298931 0.05527424384245539
