0.41885525648274985 -9.985304333207797E-4 -0.10267907286033584
0.42941518682003754 0.5808903695351019 -0.10267907286033584
0.20017709158551714 0.5554749439775618 -0.10267907286033584
0.6094803682627276 0.3464994804607095 -0.10267907286033584
0.21706732806612095 0.38605447375800767 -0.10267907286033584
0.31637400568939256 0.2276837789939741 -0.10267907286033584
0.3325388945910747 0.26329175105012725 -0.10145446006475384
0.6091224045224803 0.20125098280625817 -0.10145446006475384
0.3755416439128577 0.5698782744732914 -0.10079505317482508
0.4989731936090944 0.042418703219274524 -0.10079505317482508
0.4710143414761149 0.13209804024958616 -0.10079505317482508
0.4634782627340719 0.5535909242920511 -0.10079505317482508
0.43067748000932976 0.6210199888364808 -0.10079505317482508
0.6314480377957827 0.4210312992195148 -0.10079505317482508
0.38814573560892457 0.5136968074513609 -0.10079505317482508
0.43967367400764357 0.017521383075249964 -0.10079505317482508
0.29406721261294533 0.2113022278284581 -0.10079505317482508
0.3486661030990468 0.14553110060727784 -0.10079505317482508
0.43423827721494507 0.22606352206443475 -0.0995704403792431
0.6575699707353893 0.2384792117919507 -0.0995704403792431
0.3349881201822388 0.3377293688246569 -0.0995704403792431
0.4020969013801316 0.5203568170396414 -0.09891103348931433
0.3898319332274567 0.5418911620450293 -0.09891103348931433
0.3190587337412453 0.439598313220223 -0.09891103348931433
0.2095124091272229 0.2022212529442963 -0.09891103348931433
0.6309958730712601 0.4168110951239707 -0.09891103348931433
0.5890481747733634 0.1614039664577059 -0.09891103348931433
0.4730773430317492 0.009674441085097709 -0.09891103348931433
0.48001995557285626 0.4673310829909414 -0.09891103348931433
0.597667564834575 0.22852216775402637 -0.09891103348931433
0.46284711613942586 0.031142845401492664 -0.09891103348931433
0.645163701106301 0.35013563845374523 -0.09768642069373235
0.3324446936067993 0.22606352206443475 -0.09768642069373235
0.2393458608472855 0.47166432826761623 -0.09702701380380357
0.175185570457217 0.5324804837159031 -0.09702701380380357
0.29231507430542025 0.21465578286866718 -0.09702701380380357
0.351934877253408 0.14799916639529692 -0.09702701380380357
0.44359243495350587 0.14385432308717327 -0.09702701380380357
0.43838312052306866 0.457967505153953 -0.09702701380380357
0.43595273512875987 0.6070594029668461 -0.09702701380380357
0.5507931550590675 0.5092599410919831 -0.09702701380380357
0.5606277378174337 0.47195635131887015 -0.09702701380380357
0.4323636776278619 -5.275255119429852E-4 -0.09702701380380357
0.4378461749126981 0.36254190808283343 -0.0958024010082216
0.6327480113787852 0.15162590428990502 -0.0958024010082216
0.285353621567458 0.43698894595579074 -0.0958024010082216
0.32715059829051407 0.5695674112251823 -0.09514299411829283
0.38758052970327134 0.537906460410174 -0.09514299411829283
0.34447415929878544 0.15600625005871754 -0.09514299411829283
0.3450016848107284 0.1421869656654962 -0.09514299411829283
0.5811352920942181 0.11191076931933848 -0.09514299411829283
0.40937863746463077 -0.01648517224821906 -0.09514299411829283
0.4408417662126602 0.1346697271203083 -0.09514299411829283
0.44088886670479804 0.4658992280299531 -0.09514299411829283
0.48050038059266154 0.5495497020666306 -0.09514299411829283
0.43211875506874553 0.016824295791611005 -0.09514299411829283
0.3473943898113271 0.399770137068526 -0.09391838132271084
0.5967632353855298 0.11440709540264023 -0.09391838132271084
0.285353621567458 0.4589189350951359 -0.09391838132271084
0.23416480671213097 0.5027223927832609 -0.09325897443278208
0.31447114580702673 0.4884038431733791 -0.09325897443278208
0.25549190955211276 0.32677379435341186 -0.09325897443278208
0.3151588129922381 0.43172311093478827 -0.09325897443278208
0.43027241577694486 -0.015081577582513541 -0.09325897443278208
0.4759127926584428 0.13317193147032733 -0.09325897443278208
0.43529332823883105 0.4293492461310446 -0.09325897443278208
0.4481235022971593 0.5678435332129398 -0.09325897443278208
0.5005275098496408 0.257385349336051 -0.09325897443278208
0.5198292915276985 0.0629168373976315 -0.09325897443278208
0.48291192579011527 0.5395267173397132 -0.09325897443278208
0.30759447395491246 0.15162590428990502 -0.0920343616372001
0.6203417417496969 0.46329928086394845 -0.0920343616372001
0.43423827721494507 0.21365725243534653 -0.0920343616372001
0.3631824747759071 0.54204188361987 -0.09137495474727132
0.22939823690778877 0.49560079837203025 -0.09137495474727132
0.2205245041890332 0.2164267613730473 -0.09137495474727132
0.26313160937685875 0.32686799533768746 -0.09137495474727132
0.26678660756674966 0.33443233437501313 -0.09137495474727132
0.5320659993850906 0.528363900703062 -0.09137495474727132
0.631589339272196 0.4582030076146419 -0.09137495474727132
0.6599344154407053 0.4463525237927792 -0.09137495474727132
0.6136817321614164 0.3516428542021538 -0.09137495474727132
0.4844568219322341 0.14066090972023257 -0.09137495474727132
0.3349881201822388 0.36254190808283343 -0.09015034195168935
0.645163701106301 0.21216887688379302 -0.09015034195168935
0.38412335358035904 0.49623194496667616 -0.09015034195168935
0.37572062578298115 0.5594313853171343 -0.08949093506176059
0.19316853835541714 0.5165981977670474 -0.08949093506176059
0.3744865928889716 0.5265175614112615 -0.08949093506176059
0.31481026935041867 0.4185255530377853 -0.08949093506176059
0.20988921306432498 0.40497003140053556 -0.08949093506176059
0.6275198567514928 0.40879459136212243 -0.08949093506176059
0.6231771913763905 0.34325896660163097 -0.08949093506176059
0.5909698748525843 0.15866271781528768 -0.08949093506176059
0.6314480377957827 0.4210312992195148 -0.08949093506176059
0.5077150449498644 0.48576621561366407 -0.08949093506176059
0.46788686879816704 0.02900448305843793 -0.08949093506176059
0.43819471855451764 0.2600983376831864 -0.08826632226617859
0.2888767383793632 0.15162590428990502 -0.08826632226617859
0.5831229328624321 0.4761294549222766 -0.08826632226617859
0.36246654729541306 0.49603412289969767 -0.08760691537624983
0.23188514289266304 0.5656580703777473 -0.08760691537624983
0.36872149265130877 0.5214495484572378 -0.08760691537624983
0.26420550059759995 0.3161667635239865 -0.08760691537624983
0.29720410538932074 0.20142996467638175 -0.08760691537624983
0.5699347950638568 0.0992407369342787 -0.08760691537624983
0.4377613940268501 -0.01865179488655646 -0.08760691537624983
0.48129166886057606 0.06251177316524663 -0.08760691537624983
0.4438938781031877 0.17446964297672296 -0.08760691537624983
0.5785824454203512 0.1418195818268216 -0.08760691537624983
0.4760635142332837 0.19172726329600137 -0.08760691537624983
0.5082331503633797 0.4409077069016531 -0.08760691537624983
0.33214325045711757 0.36254190808283343 -0.08638230258066786
0.6079354721206085 0.1764384435480816 -0.08638230258066786
0.3793850440712995 0.4986152298688474 -0.08638230258066786
0.24599645033713846 0.5811918126847835 -0.08572289569073908
0.3398488909708565 0.5597139882699609 -0.08572289569073908
0.2605410823092814 0.3196333597453262 -0.08572289569073908
0.21895134775163172 0.18089415010431464 -0.08572289569073908
0.30811257936842795 0.19476053498967372 -0.08572289569073908
0.6240909409238633 0.2678510786890632 -0.08572289569073908
0.45925805863852787 -0.0011775123034442185 -0.08572289569073908
0.4414823329057339 0.12971475534741506 -0.08572289569073908
0.4810561663998872 0.46898902031419076 -0.08572289569073908
0.4758751122647326 0.26464824522369496 -0.08572289569073908
0.5092505209935555 0.4705339164563097 -0.08572289569073908
0.5240118152295323 0.09057424638092923 -0.08572289569073908
0.3349881201822388 0.35013563845374523 -0.0844982828951571
0.6327480113787852 0.15162590428990502 -0.0844982828951571
0.4252986038071966 0.4730773430317491 -0.0844982828951571
0.34385243280256683 0.5699724754575669 -0.08383887600522834
0.3441915563459588 0.5139888305026151 -0.08383887600522834
0.27998416546375243 0.3898319332274567 -0.08383887600522834
0.27813782617195193 0.28102979638921094 -0.08383887600522834
0.29224913361642735 0.2006480965068948 -0.08383887600522834
0.44244318294534435 0.17014581779847576 -0.08383887600522834
0.6342081266350561 0.45532045749581035 -0.08383887600522834
0.589264837037197 0.4483778449547033 -0.08383887600522834
0.4294434471153202 0.5791947518181422 -0.08383887600522834
0.5178510708579122 0.17180375512172524 -0.08383887600522834
0.5303232811759931 0.23462639153508116 -0.08383887600522834
0.34564225150380207 0.4842401596684003 -0.08261426320964635
0.5831229328624321 0.07718828651537543 -0.08261426320964635
0.4714570861022098 0.6230924104905426 -0.08261426320964635
0.20031839306193044 0.537887620213319 -0.08195485631971758
0.2573570890407683 0.5013470584128379 -0.08195485631971758
0.2586947430174809 0.3118711986410219 -0.08195485631971758
0.2129319048564249 0.3989694287021838 -0.08195485631971758
0.22309619105975534 0.4139850655957046 -0.08195485631971758
0.44503371001292164 0.17539281262262324 -0.08195485631971758
0.6342081266350561 0.45532045749581035 -0.08195485631971758
0.5806642871728406 0.4633746416513687 -0.08195485631971758
0.44451560459940614 0.6231489310811079 -0.08195485631971758
0.5108142573325294 0.15950110657534008 -0.08195485631971758
0.43423827721494507 0.24223783106454452 -0.0814838513983399
0.540506407576179 0.548654792716013 -0.0807302435241356
0.43423827721494507 0.10050303012357091 -0.0807302435241356
0.20033723325878552 0.5314725331841549 -0.08007083663420683
0.22823956480119975 0.5284204212936273 -0.08007083663420683
0.32540788008141663 0.510211371033166 -0.08007083663420683
0.31736311602428574 0.18016880252539288 -0.08007083663420683
0.34460604067677114 0.459568921886637 -0.08007083663420683
0.2588831449860321 0.4141734675642556 -0.08007083663420683
0.47227663466540704 0.4587022728313022 -0.08007083663420683
0.6383435498447522 0.36418100520922786 -0.08007083663420683
0.6344247888988898 0.4149930161274528 -0.08007083663420683
0.6640886788472565 0.4302441554816622 -0.08007083663420683
0.6314480377957827 0.4210312992195148 -0.08007083663420683
0.5033912197716172 0.5500678074801458 -0.08007083663420683
0.5884735487692825 0.47420775484305555 -0.07884622383862484
0.33553448589103696 0.48538941167656197 -0.07884622383862484
0.5086853150879023 0.016504012445074122 -0.07884622383862484
0.24349070415540927 0.5341949416297178 -0.07818681694869607
0.24132408151707185 0.5243886191666344 -0.07818681694869607
0.2773936383961751 0.28465653428381904 -0.07818681694869607
0.2755096187106645 0.353432672903389 -0.07818681694869607
0.4546139501137438 0.2999830344254491 -0.07818681694869607
0.6506838787848476 0.4493952155848791 -0.07818681694869607
0.6454745643544103 0.4599551459221667 -0.07818681694869607
0.6223953232069035 0.45017708375436605 -0.07818681694869607
0.4707788390154261 0.5908191532777436 -0.07818681694869607
0.5249067245801499 0.07754625025562245 -0.07818681694869607
0.6427992564009849 0.399770137068526 -0.0769622041531141
0.3318983278980011 0.22457514651288124 -0.0769622041531141
0.285353621567458 0.4493952155848791 -0.0769622041531141
0.22652510688738495 0.5144033148334274 -0.07630279726318534
0.33456421575299883 0.5154772060541686 -0.07630279726318534
0.3430705646330799 0.1476317825566223 -0.07630279726318534
0.44868870820281254 0.3676287612337125 -0.07630279726318534
0.49165377713088515 0.04178755662462836 -0.07630279726318534
0.4827329439199917 0.03979049575798693 -0.07630279726318534
0.4771656657493075 0.04054410363219135 -0.07630279726318534
0.44412938056387646 0.007366516970346997 -0.07630279726318534
0.5452541371836659 0.18752589939731243 -0.07630279726318534
0.29693092253492154 0.4268152396540326 -0.07507818446760336
0.28722822115454133 0.22151361452392637 -0.07507818446760336
0.4901088809887663 0.42458267632670244 -0.07507818446760336
0.5459041239751673 0.015147518271506332 -0.07507818446760336
0.2476167072666777 0.5532800610439418 -0.0744187775776746
0.31466896787400533 0.44124683044504504 -0.0744187775776746
0.4766381402373645 0.13844718658975746 -0.0744187775776746
0.4493857954864515 0.35185009636756004 -0.0744187775776746
0.44399749918589076 0.6154809709610792 -0.0744187775776746
0.4477561184584847 0.6157353136186231 -0.0744187775776746
0.45107199310498364 0.6172707896623144 -0.0744187775776746
0.5495308618697754 0.47382153080752587 -0.0744187775776746
0.5112570019586243 0.45128865536881735 -0.07319416478209262
0.645163701106301 0.3377293688246569 -0.07319416478209262
0.28719054076083106 0.21852744332239177 -0.07319416478209262
0.42649495630749584 0.47420775484305555 -0.07319416478209262
0.3416669699673744 0.5313029714124589 -0.07253475789216385
0.3512377899697689 0.4573646188545896 -0.07253475789216385
0.4405591632598335 0.43498246499072185 -0.07253475789216385
0.44337577268967215 0.43796863619225646 -0.07253475789216385
0.5780926003021182 0.12995967790653143 -0.07253475789216385
0.6034703454659481 0.17845434461157822 -0.07253475789216385
0.5829345308938809 0.11931496668339574 -0.07253475789216385
0.5680130949846358 0.18763894057844308 -0.07253475789216385
0.5444628489157514 0.18570782040079456 -0.07253475789216385
0.6575699707353893 0.38735444734101 -0.07131014509658185
0.5174648468223825 0.4723143150591173 -0.07131014509658185
0.3317476063231603 0.2756980206792155 -0.07131014509658185
0.32262895104528827 0.5260748167851665 -0.07065073820665307
0.2800218458574627 0.5152040231997695 -0.07065073820665307
0.2653453325073339 0.32406080600627646 -0.07065073820665307
0.47703378437132177 0.4618203254108224 -0.07065073820665307
0.5161366129440972 0.11750630778530535 -0.07065073820665307
0.5329609087357082 0.09377707984629755 -0.07065073820665307
0.5044933712876409 0.0603074701331991 -0.07065073820665307
0.5399412016705257 0.08879384777812165 -0.07065073820665307
0.5558423278162363 0.45338933731816194 -0.07065073820665307
0.43423827721494507 0.20125098280625817 -0.07017973328527541
0.5197162503465679 0.4493952155848791 -0.0694261254110711
0.36031876485393083 0.13564941735677388 -0.0694261254110711
0.5714231706154101 0.5114265637303204 -0.0694261254110711
0.2858434666856909 0.5313029714124589 -0.06876671852114233
0.31353855606269887 0.240391491772744 -0.06876671852114233
0.439409911251672 0.13404800062408972 -0.06876671852114233
0.5345623254683926 0.0810787871659551 -0.06876671852114233
0.5315573140700027 0.0833113504932853 -0.06876671852114233
0.4942066238047522 0.05036926629212984 -0.06876671852114233
0.5805700861885649 0.4034910759474097 -0.06876671852114233
0.5382550040519936 0.10443121116786083 -0.06876671852114233
0.5925901317821236 0.1256641130235669 -0.06754210572556035
0.43423827721494507 0.5014129991018308 -0.06754210572556035
0.43819471855451764 0.20125098280625817 -0.06754210572556035
0.26545837368846453 0.5350710107834804 -0.06688269883563158
0.2669844296337283 0.32406080600627646 -0.06688269883563158
0.4772410265367279 0.13793850127466953 -0.06688269883563158
0.5180959934170284 0.11891932254943846 -0.06688269883563158
0.5183126556808624 0.11087455849230757 -0.06688269883563158
0.5200742140868148 0.10283921453360428 -0.06688269883563158
0.6288763509250607 0.26784165859063563 -0.06688269883563158
0.579872998904926 0.4483119042657103 -0.06688269883563158
0.43423827721494507 0.20125098280625817 -0.06641169391425389
0.5261784378678696 0.015147518271506332 -0.0656580860400496
0.4378650151095533 0.2920701517463039 -0.0656580860400496
0.285353621567458 0.47420775484305555 -0.0656580860400496
0.47436789651632405 0.5959248466254777 -0.06499867915012085
0.4567428923583709 0.6111477256844045 -0.06499867915012085
0.4418497167444084 0.5836692985712302 -0.06499867915012085
0.5639718727592152 0.17938693435590594 -0.06499867915012085
0.6468404786264055 0.4216718659125883 -0.06499867915012085
0.4733882062798585 0.14120727542903064 -0.06499867915012085
0.3111458510621002 0.15577074759802878 -0.06499867915012085
0.4380157366843941 0.33560042658002975 -0.06377406635453887
0.5210915847169906 0.25088548142103895 -0.06377406635453887
0.645163701106301 0.40125851262007933 -0.06377406635453887
0.6529823828011707 0.4438373575126224 -0.0631146594646101
0.6538961323486434 0.45141111664837563 -0.0631146594646101
0.6599344154407053 0.4463525237927792 -0.0631146594646101
0.5274407310571619 0.11952220884880198 -0.0631146594646101
0.5922133278450215 0.16966539277867052 -0.0631146594646101
0.4478032189506224 0.35401671900589743 -0.0631146594646101
0.29743018775158203 0.382776279505219 -0.0631146594646101
0.2772334967229067 0.33573230795801556 -0.0631146594646101
0.285353621567458 0.22606352206443475 -0.061890046669028094
0.285353621567458 0.42458267632670244 -0.061890046669028094
0.6270017513379773 0.2002807126682202 -0.061890046669028094
0.564169694826194 0.48261048264043344 -0.06123063977909932
0.48765023529917484 0.5627943604557709 -0.06123063977909932
0.4792380874033693 0.5636798497079613 -0.06123063977909932
0.5861091040639664 0.15128678074651322 -0.06123063977909932
0.5688232234494055 0.4797185124231746 -0.06123063977909932
0.43692300526679784 0.4684049742116826 -0.06123063977909932
0.2922397135179999 0.2736161789267261 -0.06123063977909932
0.28518405979576206 0.3563529034159307 -0.06123063977909932
0.4912958133906381 0.30051055993739206 -0.06000602698351735
0.4322694766435863 0.35013563845374523 -0.06000602698351735
0.6575699707353893 0.2384792117919507 -0.06000602698351735
0.5095048636510996 0.051085193772623994 -0.059346620093588584
0.5070556380599355 0.053920643399317555 -0.059346620093588584
0.5349485495039222 0.08869022669541846 -0.059346620093588584
0.5352217323583213 0.15963298795332578 -0.059346620093588584
0.5832265539451351 0.155384523562499 -0.059346620093588584
0.44810466210030414 0.2398074456702357 -0.059346620093588584
0.3261614879556209 0.17933041376534062 -0.059346620093588584
0.28369568424420866 0.3500225972726146 -0.059346620093588584
0.4914465349654789 0.3129168295664803 -0.05812200729800661
0.39701946832768015 0.35013563845374523 -0.05812200729800661
0.6575699707353893 0.30051055993739206 -0.05812200729800661
0.5996552056027888 0.16592561370293163 -0.05746260040807784
0.5139605702073323 0.028467537448067345 -0.05746260040807784
0.4479351003286081 0.02039451309565379 -0.05746260040807784
0.47936054868292755 0.024322694139943715 -0.05746260040807784
0.6083028559592832 0.2120275754073797 -0.05746260040807784
0.4402954005038621 0.46765136633747817 -0.05746260040807784
0.31029804220362045 0.39377895446860167 -0.05746260040807784
0.2804080698929924 0.3138211590155255 -0.05746260040807784
0.533497854346079 0.3873638674394376 -0.05623798761249586
0.35772823778635354 0.4121764066976142 -0.05623798761249586
0.6317023804533266 0.19764308510850512 -0.05623798761249586
0.5652059056532247 0.15532800297193367 -0.0555785807225671
0.5759165575653533 0.44406343987488367 -0.0555785807225671
0.4662383515733452 0.6116658310979199 -0.0555785807225671
0.6157258935201955 0.4457967379855535 -0.0555785807225671
0.5510192374213287 0.1614039664577059 -0.0555785807225671
0.6062963749942141 0.24007120842620724 -0.0555785807225671
0.43364481101400915 0.12892346707950053 -0.0555785807225671
0.29619615485757245 0.3815610868080645 -0.0555785807225671
0.6323335270479727 0.21015297582029654 -0.055107575801189405
0.496279045458814 0.46822599234155904 -0.054353967926985124
0.5283827408999172 0.027553787900594685 -0.054353967926985124
0.5210915847169906 0.4881118201221249 -0.054353967926985124
0.4586269120438817 -0.010964994569672577 -0.05369456103705635
0.5718376549462226 0.14477749273307355 -0.05369456103705635
0.5695391509298995 0.4391367283972731 -0.05369456103705635
0.46587096773467057 0.6144447601340483 -0.05369456103705635
0.6162157386384285 0.3485907423116264 -0.05369456103705635
0.5722050387848971 0.13025170095778565 -0.05369456103705635
0.48360901307375426 0.47121216354309364 -0.05369456103705635
0.3264723512037302 0.18272164919925996 -0.05369456103705635
0.43447377967563394 0.291476685545368 -0.05322355611567866
0.6111288854875493 0.4559421839920289 -0.05246994824147434
0.43819471855451764 0.281048636586066 -0.05246994824147434
0.285353621567458 0.46180148521396747 -0.05246994824147434
0.5784317238455101 0.46574850645511234 -0.05181054135154558
0.631589339272196 0.4582030076146419 -0.05181054135154558
0.627284354290804 0.2016183666449328 -0.05181054135154558
0.45189154166818074 0.020837257721748922 -0.05181054135154558
0.5500678074801458 0.15919966342565825 -0.05181054135154558
0.5872018354815628 0.4455141350327269 -0.05181054135154558
0.4452409521783279 0.46765136633747817 -0.05181054135154558
0.3506914242609709 0.14242246812618511 -0.05181054135154558
0.4367722836919571 0.31996306319029055 -0.05133953643016792
0.5066976743196886 0.15162590428990502 -0.050585928555963604
0.3044764213753921 0.20125098280625817 -0.050585928555963604
0.6111288854875493 0.46180148521396747 -0.050585928555963604
0.5790817106370115 0.48078298354548815 -0.04992652166603483
0.6095934094438582 0.16496476366332125 -0.04992652166603483
0.5447548719670056 0.1113078830199751 -0.04992652166603483
0.6056934886948507 0.34597195494876637 -0.04992652166603483
0.556991579824398 0.12020987603401333 -0.04992652166603483
0.6291306935826044 0.29657295879467455 -0.04992652166603483
0.45119445438454175 0.17321676988585824 -0.04992652166603483
0.3469328049883769 0.15182372635688365 -0.04992652166603483
0.3207072509660672 0.43495420469543905 -0.04992652166603483
0.5210915847169906 0.4990202941012323 -0.04870190887045286
0.4921907227412557 0.42458267632670244 -0.04870190887045286
0.5410433531865494 0.03996005752968291 -0.04870190887045286
0.595218339243411 0.3576057765067954 -0.048042501980524094
0.6399355464790089 0.3541486003838831 -0.048042501980524094
0.5889257134938051 0.4487169684980952 -0.048042501980524094
0.281849344952408 0.32406080600627646 -0.048042501980524094
0.2861354897369451 0.3237970432503049 -0.048042501980524094
0.445005449717639 0.22790044125780778 -0.048042501980524094
0.5462526676169865 0.08571347559231145 -0.048042501980524094
0.5224857592842685 0.14902595712390024 -0.048042501980524094
0.5447548719670056 0.14759410216291205 -0.048042501980524094
0.6699762403644777 0.25088548142103895 -0.04681788918494212
0.5210915847169906 0.18884471317716994 -0.04681788918494212
0.4393533906611068 0.2384792117919507 -0.04681788918494212
0.6058442102696918 0.3534044126081063 -0.04615848229501335
0.6518237106945817 0.31064658584543986 -0.04615848229501335
0.6338972633869466 0.276743651604674 -0.04615848229501335
0.3472436682364862 0.14498473489847966 -0.04615848229501335
0.3148573698425564 0.37803796999615946 -0.04615848229501335
0.44785031944276016 0.17296242722831426 -0.04615848229501335
0.5004898294559306 0.01387580498378666 -0.04615848229501335
0.4868118465391226 -1.6956177169597387E-4 -0.04615848229501335
0.6575699707353893 0.3749481777119218 -0.04493386949943137
0.2897245472378431 0.38735444734101 -0.04493386949943137
0.33105993913794884 0.2756980206792155 -0.04493386949943137
0.5799483596923464 0.1186743999903221 -0.04427446260950261
0.3152530139765137 0.38897470427054937 -0.04427446260950261
0.30728361070680316 0.2718263602254909 -0.04427446260950261
0.44600398015095966 0.17106898744437601 -0.04427446260950261
0.5600436917149253 0.12719958906725826 -0.04427446260950261
0.5319246979086775 0.5330362695231288 -0.04427446260950261
0.5801461817593251 0.4234899449091063 -0.04427446260950261
0.6304966078545998 0.21231017836020633 -0.04427446260950261
0.6246373066326613 0.40723085502314843 -0.04427446260950261
0.43423827721494507 0.23360902090490532 -0.0430498498139206
0.35976297904670507 0.1392196346608168 -0.0430498498139206
0.6079354721206085 0.4990202941012323 -0.0430498498139206
0.28883905798565296 0.26329175105012725 -0.0430498498139206
0.4681694717509937 0.016164888901682176 -0.04239044292399183
0.2863898323944889 0.2895267251708644 -0.04239044292399183
0.44943289597858926 0.32568106293581567 -0.04239044292399183
0.451590098518499 0.31728775523686537 -0.04239044292399183
0.6330211942331843 0.4186197540220611 -0.04239044292399183
0.6407174146484957 0.4607181738947987 -0.04239044292399183
0.47904026533639066 0.6067296995218818 -0.04239044292399183
0.6419702877393603 0.45421830597978663 -0.04239044292399183
0.6203417417496969 0.4579769252523806 -0.04116583012840985
0.6203417417496969 0.1392196346608168 -0.04116583012840985
0.35980065944041534 0.39827234141854484 -0.04116583012840985
0.5210915847169906 0.4881118201221249 -0.04116583012840985
0.47839027854488947 -0.007385357167202195 -0.04050642323848109
0.30988355787280797 0.3915087107475612 -0.04050642323848109
0.45303137357791484 0.20255095638926063 -0.04050642323848109
0.4529277524952116 0.3816929681860502 -0.04050642323848109
0.5365028657444685 0.13109950981626553 -0.04050642323848109
0.649892590516933 0.29240927528969585 -0.04050642323848109
0.644042709393422 0.46443911277368227 -0.04050642323848109
0.6183164205877728 0.4358867944397671 -0.04050642323848109
0.6084158971404139 0.16742340935291272 -0.039281810442899114
0.33755038695453343 0.13583781932532507 -0.039281810442899114
0.49366025809595404 -0.005501337481691419 -0.039281810442899114
0.5707166632333437 0.548654792716013 -0.039281810442899114
0.6060043519429602 0.14239420783090245 -0.03862240355297034
0.35368701556093296 0.13782546009353888 -0.03862240355297034
0.43958889312179555 0.43307018500992844 -0.03862240355297034
0.4575718610199957 0.3172123944494448 -0.03862240355297034
0.548777253995571 0.14270507107901173 -0.03862240355297034
0.6381080473840632 0.3543746827461444 -0.03862240355297034
0.6570330251250188 0.4533704971213068 -0.03862240355297034
0.6300067627363671 0.3888993434831288 -0.03862240355297034
0.42925504514676915 0.46180148521396747 -0.03739779075738837
0.43535926892782395 0.38735444734101 -0.03739779075738837
0.645163701106301 0.1764384435480816 -0.03739779075738837
0.4963167258525243 0.013904065279069323 -0.036738383867459604
0.4536154196804231 0.2765646697345504 -0.036738383867459604
0.45649796979925455 0.2285598481477365 -0.036738383867459604
0.4630260980095493 0.2900354104859523 -0.036738383867459604
0.3547609067816741 0.18191152073449035 -0.036738383867459604
0.6541222147109047 0.3106936863375777 -0.036738383867459604
0.5342326220234281 0.5209408631421498 -0.036738383867459604
0.3349881201822388 0.22606352206443475 -0.03551377107187762
0.285353621567458 0.399770137068526 -0.03551377107187762
0.6578337334913608 0.2756980206792155 -0.03551377107187762
0.4670107996444045 0.022240852387454303 -0.03485436418194886
0.44849088613583393 0.13962469889320167 -0.03485436418194886
0.4544161280467651 0.31431100413375834 -0.03485436418194886
0.4628376960409982 0.3875899498016989 -0.03485436418194886
0.34342852837332694 0.4620558278715113 -0.03485436418194886
0.634989994804543 0.3879102331482358 -0.03485436418194886
0.6056369681042855 0.4608500552727843 -0.03485436418194886
0.6327480113787852 0.15162590428990502 -0.03362975138636685
0.5583103936042554 0.5734673319741894 -0.03362975138636685
0.496279045458814 0.15162590428990502 -0.03362975138636685
0.29775989119654633 0.12681336503172858 -0.03362975138636685
0.3248144138804807 0.41396622539884936 -0.032970344496438084
0.44989448080153943 0.37314893891225903 -0.032970344496438084
0.45188212156975327 0.29517878422739663 -0.032970344496438084
0.6014073439103139 0.13906891308597588 -0.032970344496438084
0.6301292240159251 0.2298315614354563 -0.032970344496438084
0.6009080786936536 0.46516446035260417 -0.032970344496438084
0.5583103936042554 0.03996005752968291 -0.03174573170085611
0.5955292024915202 0.5114265637303204 -0.03174573170085611
0.49351895661954087 0.2384792117919507 -0.03174573170085611
0.285353621567458 0.21365725243534653 -0.03174573170085611
0.3050322071826179 0.2744357274899233 -0.03108632481092734
0.4419533378271116 0.3721504084789384 -0.03108632481092734
0.5783186826643795 0.12734089054367156 -0.03108632481092734
0.574192679553111 0.11093107908287289 -0.03108632481092734
0.5308696468847914 0.5604204956520276 -0.03108632481092734
0.5161271928456699 0.5982798712323661 -0.030615319889549648
0.3473943898113271 0.399770137068526 -0.029861712015345362
0.5086853150879023 0.08959455614446366 -0.029861712015345362
0.536681847614592 0.5858736016032778 -0.029861712015345362
0.5507743148622125 0.5315855743652855 -0.0292023051254166
0.489166871146011 0.5737216746317333 -0.0292023051254166
0.34282564207396343 0.45633782812598617 -0.0292023051254166
0.4831003277586663 0.13129733188324416 -0.0292023051254166
0.5130468206598595 0.01435623000359192 -0.0292023051254166
0.4408323461142327 0.3219318637616493 -0.02797769232983462
0.6438448873264435 0.3749481777119218 -0.02797769232983462
0.4520611034398767 0.1252967291848924 -0.02797769232983462
0.4584573502721857 0.3482421986698068 -0.02797769232983462
0.3422415959714551 0.14855495220252257 -0.027318285439905856
0.45246616767226155 0.3981498801389866 -0.027318285439905856
0.5138098486324916 0.04792946079939341 -0.027318285439905856
0.6429688181726809 0.26717283160227934 -0.027318285439905856
0.5157503889085675 0.5804382048105793 -0.027318285439905856
0.30031273787041346 0.26329175105012725 -0.026847280518528163
0.5210915847169906 0.3749481777119218 -0.026093672644323877
0.4667376167900055 0.35013563845374523 -0.026093672644323877
0.5453483381679414 0.024369794632081575 -0.026093672644323877
0.5356079563938508 0.5858736016032778 -0.026093672644323877
0.30988355787280797 0.33408379073319355 -0.025434265754395113
0.4857850558105191 0.4731809641144524 -0.025434265754395113
0.47636495738296536 0.030483438511563835 -0.025434265754395113
0.6286408484643717 0.3877595115733949 -0.025434265754395113
0.5637552104953815 0.4830249669712459 -0.025434265754395113
0.533497854346079 0.5858736016032778 -0.024963260833017416
0.6173555705481623 0.18884471317716994 -0.0242096529588131
0.5459041239751673 0.5764535031757241 -0.0242096529588131
0.30095330456348707 0.26223670002624117 -0.0242096529588131
0.30378875419018075 0.3837559697416846 -0.0242096529588131
0.3416952302626571 0.4561965266495727 -0.023550246068884336
0.47318096411445226 0.16850672067208136 -0.023550246068884336
0.5626153785856474 0.11588605085576613 -0.023550246068884336
0.6515882082338927 0.33281207744547386 -0.023550246068884336
0.4795301104546234 0.5715079515012583 -0.023550246068884336
0.43669692290453654 0.36254190808283343 -0.023079241147506674
0.49426314439531754 0.1764384435480816 -0.022325633273302357
0.35634348331750304 0.47042087527517906 -0.022325633273302357
0.6122216169051456 0.13623346345928233 -0.022325633273302357
0.6086702397979578 0.4423301417642138 -0.022325633273302357
0.5437092410415473 0.5479106049402362 -0.021666226383373594
0.6310900740555356 0.21661516334159833 -0.021666226383373594
0.44598513995410455 0.13448132515175726 -0.021666226383373594
0.3499001359930563 0.1488846556474869 -0.021666226383373594
0.5346565264526679 0.07375937068774582 -0.021666226383373594
0.6203417417496969 0.1392196346608168 -0.0211952214619959
0.4414258123151686 0.32383472364401517 -0.020441613587791615
0.3036851331074777 0.18884471317716994 -0.020441613587791615
0.6605373017400687 0.2756980206792155 -0.020441613587791615
0.5210915847169906 0.35013563845374523 -0.020441613587791615
0.5870322737098669 0.4613116400957345 -0.01978220669786285
0.5894909193994583 0.46454273385638556 -0.01978220669786285
0.4469177296984324 0.2431044801198796 -0.01978220669786285
0.31695805179190084 0.24536530374249244 -0.01978220669786285
0.3110610701762522 0.33366930640238124 -0.01978220669786285
0.5194995880827339 0.03884848591523161 -0.01978220669786285
0.6232902325575211 0.42458267632670244 -0.019311201776485157
0.3562492823332276 0.13029880144992337 -0.018557593902280872
0.6086702397979578 0.3749481777119218 -0.018557593902280872
0.5822657039055247 0.08959455614446366 -0.018557593902280872
0.4589095149967083 0.392422460295034 -0.018557593902280872
0.5962922304641523 0.42754058723295446 -0.01789818701235211
0.6470759810870944 0.31326537320829984 -0.01789818701235211
0.44426126194186216 0.13711895271147231 -0.01789818701235211
0.31449940610230936 0.24187044722587003 -0.01789818701235211
0.5378122594258985 0.03704924711556882 -0.01789818701235211
0.5697087127015955 0.0714043460808574 -0.01742718209097441
0.4417178353664227 0.3221391059270555 -0.01667357421677013
0.5633407261645693 0.05236632715877126 -0.01667357421677013
0.6217924369075402 0.44152943339787165 -0.01667357421677013
0.30359093212320215 0.2214194135396508 -0.01667357421677013
0.5978653869015537 0.43248613890742 -0.016014167326841366
0.3171558738588795 0.34295752345194924 -0.016014167326841366
0.4746693396660058 0.1592279237209409 -0.016014167326841366
0.6450695001220255 0.2682373027245929 -0.016014167326841366
0.5982704511339386 0.16139454635927833 -0.016014167326841366
0.5185858385352614 0.04315347089662375 -0.016014167326841366
0.6215663545452789 0.44597571985567713 -0.01554316240546367
0.45977616405204325 0.3971136693119557 -0.014789554531259352
0.6079354721206085 0.11440709540264023 -0.014789554531259352
0.49485661059625347 0.35013563845374523 -0.014789554531259352
0.5481366873024975 0.5177945502673469 -0.014130147641330588
0.6038377293046227 0.44513733109562487 -0.014130147641330588
0.3066053636200193 0.34822335847295177 -0.014130147641330588
0.4533422368260241 0.2549738041385972 -0.014130147641330588
0.5522909507090488 0.0884358840378745 -0.014130147641330588
0.43423827721494507 0.3253230991955686 -0.013659142719952928
0.5782433218769593 0.07419269521541323 -0.01290553484574861
0.4950073321710942 0.3749481777119218 -0.01290553484574861
0.43423827721494507 0.2788820139477286 -0.01290553484574861
0.30066128151223287 0.25088548142103895 -0.01290553484574861
0.5960002074128979 0.4581935875162143 -0.012246127955819846
0.6553845079001969 0.29730772647202375 -0.012246127955819846
0.6002769320990075 0.446164121824228 -0.012246127955819846
0.44530689286732067 0.43908020780670776 -0.012246127955819846
0.3170899331698866 0.3751742600741831 -0.012246127955819846
0.5843192853627313 0.08959455614446366 -0.01177512303444215
0.3349881201822388 0.3253230991955686 -0.011021515160237867
0.5210915847169906 0.47420775484305555 -0.011021515160237867
0.645163701106301 0.20125098280625817 -0.011021515160237867
0.6000225894414634 0.16419231559226174 -0.010362108270309102
0.5776310154791683 0.09998492471005538 -0.010362108270309102
0.6058442102696918 0.439984537255753 -0.010362108270309102
0.4435830148550784 0.27207128278460724 -0.010362108270309102
0.31694863169347326 0.1544613539165987 -0.010362108270309102
0.3093371921640099 0.38710010468346606 -0.010362108270309102
0.4479351003286081 0.3861769350375658 -0.009137495474727125
0.3301179292951935 0.2756980206792155 -0.009137495474727125
0.5210915847169906 0.102000825773552 -0.009137495474727125
0.5977240854251402 0.4866140244721439 -0.009137495474727125
0.3098176171838152 0.1515788037977673 -0.008478088584798359
0.4862466406334693 0.12608801745280682 -0.008478088584798359
0.6292343146653075 0.3708504348959359 -0.008478088584798359
0.6277270989168989 0.1831455536284999 -0.008478088584798359
0.6048739401316536 0.43831717983407575 -0.008478088584798359
0.29477371999501173 0.18585854197563534 -0.007253475789216382
0.3349881201822388 0.36254190808283343 -0.007253475789216382
0.4982855264238829 0.3377293688246569 -0.007253475789216382
0.6057405891869885 0.1299973583002417 -0.007253475789216382
0.638305869451042 0.34482270294060485 -0.006594068899287616
0.6221127202540769 0.17584497734714583 -0.006594068899287616
0.5708297044144744 0.5030144158345151 -0.006594068899287616
0.4441576408591591 0.1284336219612678 -0.006594068899287616
0.32048116860380593 0.3491842085125623 -0.006594068899287616
0.49842682790029624 0.26329175105012725 -0.005369456103705606
0.3349881201822388 0.35013563845374523 -0.005369456103705606
0.5210915847169906 0.11440709540264023 -0.005369456103705606
0.6032348430052593 0.4852386901017212 -0.005369456103705606
0.5487866740939986 0.5122084318998076 -0.00471004921377684
0.5811352920942181 0.48975091724851927 -0.00471004921377684
0.4810844266951698 0.16208221354448982 -0.00471004921377684
0.3167037091343569 0.4171313784705074 -0.00471004921377684
0.5210915847169906 0.11440709540264023 -0.0034854364181948626
0.5210915847169906 0.4493952155848791 -0.0034854364181948626
0.4400033774526079 0.37788724842131854 -0.0034854364181948626
0.31155091529448503 0.33121066071278976 -0.0034854364181948626
0.44762423708049887 0.35286746699773586 -0.0028260295282660974
0.47818303637948334 0.16538866809256117 -0.0028260295282660974
0.5697934935874434 0.5142054927664489 -0.0028260295282660974
0.6254662752942862 0.41533213967084465 -0.0028260295282660974
0.6184200416704758 0.12681336503172858 -0.0023550246068884035
0.46080295478064653 0.3749481777119218 -0.0016014167326841198
0.3349881201822388 0.102000825773552 -0.0016014167326841198
0.64674627764213 0.3749481777119218 -0.0016014167326841198
0.31088208830612873 0.4528900721015014 -9.420098427553547E-4
0.44676700812359155 0.468941919822053 -9.420098427553547E-4
0.6027920983791643 0.44734163412767225 -9.420098427553547E-4
0.6261068419873598 0.41421114795796576 -9.420098427553547E-4
0.6327480113787852 0.1764384435480816 -4.710049213776606E-4
0.5210915847169906 0.28810429030830387 2.826029528266231E-4
0.32257243045472295 0.31141903391649933 2.826029528266231E-4
0.30518292875745867 0.3426183999085573 2.826029528266231E-4
0.3165718277563712 0.19897131898679027 9.420098427553882E-4
0.44830248416728274 0.47711856525716967 9.420098427553882E-4
0.6377406635453887 0.2510550431927349 9.420098427553882E-4
0.5989863786144326 0.14299709413026582 9.420098427553882E-4
0.6380892071872081 0.20125098280625817 0.002166622638337366
0.30194241489838025 0.4144843308123649 0.002166622638337366
0.441604794185292 0.36395492284696657 0.002166622638337366
0.3061626189939243 0.4075417182712577 0.002826029528266131
0.47593163285529794 0.44304606924470785 0.002826029528266131
0.6413674014399968 0.3506914242609709 0.002826029528266131
0.6189193068871361 0.43917440879098324 0.002826029528266131
0.6575699707353893 0.2384792117919507 0.004050642323848142
0.2994460888150785 0.3559760994788286 0.004050642323848142
0.49902971419965975 0.26329175105012725 0.004050642323848142
0.35324427093483796 0.4384019607199239 0.004710049213776908
0.4828177248058397 0.4417931961538431 0.004710049213776908
0.6182881602924902 0.419128439337149 0.004710049213776908
0.6076246088724994 0.4058555206527257 0.004710049213776908
0.30668072440743976 0.23570028275582233 0.0059346620093588855
0.29775989119654633 0.4866140244721439 0.0059346620093588855
0.6453615231732797 0.2180093379088764 0.0059346620093588855
0.4569972350159149 0.46186742590296015 0.00659406889928765
0.4829025056916877 0.1572591231495823 0.00659406889928765
0.6509947420329567 0.30802779848258 0.00659406889928765
0.5963299108578624 0.13950223761364342 0.00659406889928765
0.3001149158034348 0.4121764066976142 0.007818681694869628
0.6699762403644777 0.30051055993739206 0.007818681694869628
0.3261614879556209 0.23238440810932337 0.007818681694869628
0.31347261537370597 0.45090243133328767 0.008478088584798394
0.486990828409246 0.15246429304995743 0.008478088584798394
0.6453521030748521 0.3528486268008807 0.008478088584798394
0.5996081051106512 0.45467989080273685 0.008478088584798394
0.285353621567458 0.2384792117919507 0.00970270138038037
0.533497854346079 0.399770137068526 0.00970270138038037
0.48981685793751223 0.4736802293311127 0.010362108270309136
0.3114096138180717 0.1858397017787803 0.010362108270309136
0.6435434441767617 0.34593427455505626 0.010362108270309136
0.6448999383503295 0.2963374563339858 0.010362108270309136
0.48202643653792515 0.39965709588739534 0.011586721065891113
0.3381626933523244 0.4701571125192074 0.011586721065891113
0.6627792851658265 0.2664757443186404 0.011586721065891113
0.3162327042129792 0.41407926657998 0.012246127955819879
0.4863408416177449 0.16652850000229513 0.012246127955819879
0.6062304343052215 0.17128564970820973 0.012246127955819879
0.6184859823594688 0.41487997494632217 0.012246127955819879
0.285353621567458 0.18884471317716994 0.01347074075140189
0.6699762403644777 0.3253230991955686 0.01347074075140189
0.34934435018583065 0.4388352852475913 0.014130147641330654
0.48403291750299415 0.16439955775766799 0.014130147641330654
0.6502882346508903 0.3512095296744864 0.014130147641330654
0.30274312326472225 0.16403217391899338 0.015354760436912633
0.4714570861022098 0.21365725243534653 0.015354760436912633
0.315940681161725 0.4178002054588637 0.016014167326841397
0.4868683671296879 0.18119559325399634 0.016014167326841397
0.6327668515756402 0.3544688837304199 0.016014167326841397
0.33049473323229556 0.38735444734101 0.017238780122423376
0.44743583511194784 0.46578618684882245 0.01789818701235214
0.31116469125895535 0.45452916922789577 0.01789818701235214
0.4507234494631641 0.12852782294554324 0.01789818701235214
0.39701946832768015 0.35013563845374523 0.01912279980793412
0.47270995919307457 0.4066750692159228 0.01912279980793412
0.623968479644305 0.3722446094632138 0.019782206697862882
0.31075020692814304 0.18134631482883712 0.019782206697862882
0.4841459586841248 0.4343230581007932 0.019782206697862882
0.336080851599835 0.13678924926650798 0.02100681949344486
0.29977579226004286 0.4025773263999369 0.02100681949344486
0.47925692760022437 0.16211989393819995 0.021666226383373625
0.30931835196715485 0.39776365610345693 0.021666226383373625
0.3349881201822388 0.3253230991955686 0.022890839178955638
0.43380495268727753 0.47420775484305555 0.022890839178955638
0.48432494055424824 0.15511134070809995 0.023550246068884402
0.31622328411455164 0.4216718659125883 0.023550246068884402
0.4749236823235497 0.43739401018817564 0.023550246068884402
0.5210915847169906 0.3377293688246569 0.02477485886446638
0.6458890486852226 0.30476844442664636 0.025434265754395145
0.31040166328632346 0.1465955717295914 0.025434265754395145
0.480679362462785 0.416170528430897 0.025434265754395145
0.5210915847169906 0.22606352206443475 0.027318285439905887
0.4844474018338065 0.4407193049331019 0.027318285439905887
0.3403575762859445 0.4589942958825564 0.027318285439905887
0.4764403181703859 0.163872032245725 0.027318285439905887
0.315940681161725 0.42378196796036055 0.02920230512541663
0.32382530354558753 0.1821658633920343 0.02920230512541663
0.5210915847169906 0.20125098280625817 0.03015373506659955
0.285353621567458 0.399770137068526 0.03015373506659955
0.34372055142458113 0.45697839481905994 0.031086324810927372
0.4851162288221628 0.16332566653692682 0.031086324810927372
0.31107049027467976 0.1392196346608168 0.03297034449643815
0.4871509700825145 0.43632011896743444 0.03297034449643815
0.31725949494158256 0.1775594352609605 0.03297034449643815
0.492859549729612 0.16011341297313106 0.03297034449643815
0.3491842085125623 0.4400033774526079 0.03485436418194889
0.47534758675278965 0.15914314283509293 0.03485436418194889
0.5210915847169906 0.21365725243534653 0.03554203136716032
0.48600171807435294 0.4379309557985461 0.03673838386745964
0.3453784887478305 0.14695353546983841 0.03673838386745964
0.39701946832768015 0.35013563845374523 0.03823617951744067
0.4986058097704198 0.12681336503172858 0.03823617951744067
0.4603978905482618 0.446823528714157 0.03862240355297038
0.35278268611188773 0.1334262741278713 0.03862240355297038
0.4931609928792937 0.13088284755243168 0.040506423238481123
0.3441915563459588 0.4575059203310028 0.040506423238481123
0.5019876251059116 0.43698894595579074 0.040920907569293494
0.434388998789786 0.43698894595579074 0.040920907569293494
0.31920003521765866 0.1827970099866805 0.0423904429239919
0.4820075963410701 0.43691358516837026 0.0423904429239919
0.43298540412408043 0.15162590428990502 0.04361505571957387
0.4857191151215263 0.4345491404630545 0.04427446260950264
0.3156015576183332 0.18596216305833854 0.04427446260950264
0.29775989119654633 0.21365725243534653 0.04474546753088034
0.2991352255669692 0.20125098280625817 0.04549907540508462
0.49139943447334117 0.1628169812218389 0.04615848229501338
0.3086683651756536 0.41651907207271643 0.04615848229501338
0.3164211061815303 0.21844266243654378 0.046629487216391076
0.29825915641320666 0.1814499359115403 0.047383095090595365
0.4901088809887663 0.13056256420589493 0.04804250198052413
0.31139077362121664 0.4190059780575907 0.04804250198052413
0.43379553258885006 0.4280681127448973 0.049267114776106104
0.285353621567458 0.2384792117919507 0.049267114776106104
0.48908209026016297 0.4356889723727883 0.04992652166603487
0.31211612120013826 0.18906137544100365 0.04992652166603487
0.3018105335203944 0.2246881876940119 0.05039752658741256
0.36463316993375045 0.1764384435480816 0.05115113446161688
0.3212912970685757 0.22606352206443475 0.05115113446161688
0.3085176436008127 0.41215756650075913 0.05181054135154565
0.4495930376518576 0.13064734509174292 0.05181054135154565
0.5210915847169906 0.36254190808283343 0.053035154147127624
0.3349881201822388 0.2756980206792155 0.053035154147127624
0.4823938203765998 0.16095180173318333 0.05369456103705639
0.34982477520563593 0.4643449117894068 0.05369456103705639
0.3212912970685757 0.2384792117919507 0.05416556595843408
0.3349881201822388 0.25088548142103895 0.05491917383263837
0.42716378329585214 0.4493952155848791 0.05491917383263837
0.35629638282536535 0.17265156398020512 0.055578580722567134
0.4452692124736104 0.4707223184248606 0.055578580722567134
0.4372244484164795 0.4866140244721439 0.05680319351814911
0.428454336780427 0.11440709540264023 0.05680319351814911
0.4908530687645431 0.12991257741439372 0.05746260040807787
0.31507403210639007 0.420560294298137 0.05746260040807787
0.4218320075858567 0.4866140244721439 0.057933605329455566
0.3016127114534158 0.43698894595579074 0.058687213203659855
0.5210915847169906 0.3129168295664803 0.058687213203659855
0.483128588053949 0.1613286056702854 0.05934662009358862
0.3097139961011121 0.4044142455933099 0.05934662009358862
0.4218320075858567 0.14491879420948686 0.05981762501496631
0.3349881201822388 0.3749481777119218 0.06057123288917063
0.285353621567458 0.1407080102123703 0.06057123288917063
0.5210915847169906 0.3749481777119218 0.06057123288917063
0.36357811890986436 0.47016653261763497 0.06123063977909939
0.4913523339812034 0.16063151838664644 0.06123063977909939
0.40942573795676845 0.11440709540264023 0.06170164470047705
0.33103167884266615 0.26329175105012725 0.062455252574681375
0.5210915847169906 0.3129168295664803 0.062455252574681375
0.49149363545761676 0.1605938379929363 0.06311465946461013
0.31497983112211464 0.399261451753438 0.06311465946461013
0.43332452766747237 0.42458267632670244 0.06358566438598783
0.47627075639868993 0.4066750692159228 0.06433927226019212
0.4248181787873913 0.11142092420110576 0.06433927226019212
0.42020233055789 0.42458267632670244 0.06433927226019212
0.4907211873865573 0.1654263484862713 0.06499867915012088
0.3210652147063144 0.15245487295152982 0.06499867915012088
0.4941501032141869 0.47715624565088005 0.06499867915012088
0.3846131986985919 0.42458267632670244 0.06546968407149857
0.44072872503152954 0.4866140244721439 0.06622329194570285
0.5210915847169906 0.1392196346608168 0.06622329194570285
0.387797191967105 0.12681336503172858 0.06622329194570285
0.30930893186872727 0.1443064878116959 0.06688269883563162
0.4899298991186429 0.4365273611328406 0.06688269883563162
0.37974300781154663 0.4866140244721439 0.06735370375700932
0.3473943898113271 0.4121764066976142 0.0681073116312136
0.4218320075858567 0.11712950384820328 0.0681073116312136
0.30104750554776266 0.1978974277660491 0.0681073116312136
0.322148526025483 0.3480161163075457 0.06876671852114237
0.4910132104378115 0.18119559325399634 0.06876671852114237
0.3349881201822388 0.3129168295664803 0.06923772344252006
0.298485238775468 0.2384792117919507 0.06999133131672437
0.404093962246773 0.42458267632670244 0.06999133131672437
0.4878292171692983 0.15913372273666546 0.07065073820665314
0.3068031856869979 0.213223927907679 0.07065073820665314
0.491889279591574 0.4417931961538431 0.07065073820665314
0.3992237713597278 0.11440709540264023 0.0711217431280308
