0.40943994874834494 0.5465230597810886 -0.18360801845562758
0.3576203674491557 0.41345915496817326 -0.18360801845562758
0.6587592698779682 0.30927618833021164 -0.18360801845562758
0.42865106236489225 0.5263825356241627 -0.18291590422343082
0.3563448997926789 0.5177212203755288 -0.18291590422343082
0.1472967396307331 0.3906391599980285 -0.18291590422343082
0.4850287102504059 0.5123721660952653 -0.18291590422343082
0.3039716271077321 0.2804842362708262 -0.18291590422343082
0.18463135878466141 0.5069143510070852 -0.18291590422343082
0.34913702443165817 0.26818437763007225 -0.18291590422343082
0.27298468419766553 0.2747891248744643 -0.18291590422343082
0.4875598708710112 0.4721405545122847 -0.18291590422343082
0.4890528601433215 0.32237692201107904 -0.18291590422343082
0.3394177631423808 0.344218069709974 -0.18291590422343082
0.2677641654176672 0.38663478479746155 -0.18291590422343082
0.30103508529398304 0.466000512538082 -0.18291590422343082
0.3719965687865 0.5435173065441198 -0.1824215369147188
0.5155113985055864 0.27021128359579133 -0.18163054922077965
0.359241892221731 0.40043752005669986 -0.18163054922077965
0.3514012267055591 0.4915988517831881 -0.18163054922077965
0.12209389423259652 0.49150986566761995 -0.1809384349885829
0.15297207633474652 0.4091779340747276 -0.1809384349885829
0.24212627678786408 0.4644580865349006 -0.1809384349885829
0.24515180471718134 0.4327889167388116 -0.1809384349885829
0.3386168881022674 0.4545015289374415 -0.1809384349885829
0.49542031107953166 0.2797525726539325 -0.1809384349885829
0.36370108534631307 0.2707452002892003 -0.1809384349885829
0.36404714246241143 0.5292103166299952 -0.1809384349885829
0.2345921190030936 0.29107358402343664 -0.1809384349885829
0.2349184014268435 0.5158722866409461 -0.1809384349885829
0.41472967895156304 0.26031405007537767 -0.1809384349885829
0.5827156904518922 0.46470527018925667 -0.1809384349885829
0.5537457661613706 0.4911736958976959 -0.1809384349885829
0.6275350306597199 0.4915988517831881 -0.17965307998593175
0.382150873307444 0.24416801377284447 -0.17965307998593175
0.3573534091024512 0.374394250233753 -0.17965307998593175
0.3514012267055591 0.4915988517831881 -0.17965307998593175
0.16567731616864426 0.4062315049148042 -0.178960965753735
0.30103508529398304 0.4209933127529437 -0.178960965753735
0.19736626065708185 0.438998170136234 -0.178960965753735
0.34353089915086443 0.45522330520816096 -0.178960965753735
0.4891912829897608 0.3227130917810031 -0.178960965753735
0.334760823094314 0.2763711002623426 -0.178960965753735
0.34838558612241605 0.5262342254315492 -0.178960965753735
0.40469402258470993 0.27281165563961635 -0.178960965753735
0.4195942532692889 0.5280831591661318 -0.178960965753735
0.6167973727144958 0.45412580978282047 -0.178960965753735
0.5178349248565327 0.5108791768229551 -0.178960965753735
0.578118074480871 0.32562985890240376 -0.178960965753735
0.5545861905861807 0.5306637565176083 -0.17767561075108387
0.381943239037785 0.25146487524943334 -0.17767561075108387
0.35730397237158007 0.41345915496817326 -0.17767561075108387
0.2871532512653508 0.4655456946140669 -0.17767561075108387
0.3208789890656818 0.39564215716219375 -0.1769834965188871
0.2828819177180793 0.3878904777615899 -0.1769834965188871
0.1686731820594388 0.42705425595775254 -0.1769834965188871
0.23731113920100952 0.4573886340203195 -0.1769834965188871
0.34299698245745547 0.34373358974743634 -0.1769834965188871
0.3689117167801372 0.4701729726236111 -0.1769834965188871
0.4781965540440065 0.4627080262620603 -0.1769834965188871
0.32408248922613536 0.5250477438906405 -0.1769834965188871
0.4401006092346616 0.27266334544700277 -0.1769834965188871
0.4100134148264509 0.5290620064373814 -0.1769834965188871
0.6537760474061516 0.39611674977855726 -0.1769834965188871
0.4986732479708565 0.518927476608786 -0.1769834965188871
0.4963793836584329 0.2921908541411259 -0.1769834965188871
0.5806294604091278 0.517642121606135 -0.17569814151623595
0.411338319213799 0.24416801377284447 -0.17569814151623595
0.3284329215428007 0.34835098041080614 -0.17569814151623595
0.3347707104404883 0.4739103894774736 -0.17569814151623595
0.2732615298905443 0.4644580865349006 -0.17500602728403916
0.15458371376114755 0.40374978102507003 -0.17500602728403916
0.1999666327009069 0.3455726361358448 -0.17500602728403916
0.30178652360322533 0.40519333356650905 -0.17500602728403916
0.37352910744350715 0.33773197061967297 -0.17500602728403916
0.47097879133681164 0.33286739630194706 -0.17500602728403916
0.34355067384321286 0.2728413176781391 -0.17500602728403916
0.3572149862560119 0.5310790250569264 -0.17500602728403916
0.4278798493633017 0.2712197929055638 -0.17500602728403916
0.4475556682500383 0.5280930465123062 -0.17500602728403916
0.6328544229014607 0.43877076117422636 -0.17500602728403916
0.49383833569165336 0.3284971892929333 -0.17500602728403916
0.5015801277460828 0.47903203479572964 -0.17500602728403916
0.5024897635941129 0.5567070263405552 -0.17372067228138807
0.42435995412527233 0.2509012965175017 -0.17372067228138807
0.3292140218905656 0.3353293454993328 -0.17372067228138807
0.34622025731025763 0.4770051288300106 -0.17372067228138807
0.2772659050911113 0.3869709545673857 -0.17302855804919132
0.14748459920804355 0.4124407583122266 -0.17302855804919132
0.2057210681743142 0.389462565803294 -0.17302855804919132
0.3173294317891297 0.4211020735608605 -0.17302855804919132
0.3429277710342358 0.3396105663927784 -0.17302855804919132
0.3394968619117747 0.46864043396660393 -0.17302855804919132
0.3193761124471974 0.27588662029980493 -0.17302855804919132
0.40664182978103514 0.5346384696796528 -0.17302855804919132
0.4850682596351029 0.2812257872338942 -0.17302855804919132
0.4501164909091663 0.5286170758595408 -0.17302855804919132
0.6274658192365002 0.4466806381136181 -0.17302855804919132
0.5224622028660767 0.28931363640442204 -0.17302855804919132
0.49512369069430445 0.3284774146005847 -0.17302855804919132
0.47421195353578793 0.4915988517831881 -0.17174320304654014
0.3571457748327922 0.3728221621920489 -0.17174320304654014
0.4224912456983412 0.24969504028424447 -0.17174320304654014
0.5024897635941129 0.5436853914290818 -0.17174320304654014
0.3208789890656818 0.4731490638220572 -0.1710510888143434
0.31081367066030596 0.4166725424748011 -0.1710510888143434
0.36918856247301596 0.33834498608247576 -0.1710510888143434
0.4928594884204036 0.4727337952827391 -0.1710510888143434
0.37803773729896023 0.266770487127156 -0.1710510888143434
0.3945594927561145 0.5374563633393109 -0.1710510888143434
0.4359676985338296 0.2612928973466274 -0.1710510888143434
0.48528578125093624 0.32405777086069976 -0.1710510888143434
0.4869962921390797 0.5087830594340164 -0.1710510888143434
0.6047051483434009 0.3435061807854289 -0.1710510888143434
0.47644649377116605 0.5567070263405552 -0.16976573381169224
0.16390748120345536 0.32230771058785934 -0.16976573381169224
0.46571872317211627 0.40043752005669986 -0.16976573381169224
0.6327160000550215 0.3353293454993328 -0.16976573381169224
0.13158574655986638 0.4147939467016956 -0.1690736195794955
0.29917626421322596 0.4191344916721868 -0.1690736195794955
0.3431452926500691 0.45763581767467537 -0.1690736195794955
0.37345989602028745 0.46977747877664155 -0.1690736195794955
0.6058718551919612 0.33898766358380134 -0.1690736195794955
0.4297485577902329 0.2648226799308309 -0.1690736195794955
0.4509668026801509 0.5343220746020769 -0.1690736195794955
0.5080365647978613 0.5261946760468521 -0.1690736195794955
0.500512294359265 0.2683326878226858 -0.1690736195794955
0.5794627535605675 0.4800998681825476 -0.1690736195794955
0.4938877724225245 0.27729062345654687 -0.1690736195794955
0.15206244048671652 0.4160002029349528 -0.16778826457684437
0.45177756506643846 0.32230771058785934 -0.16778826457684437
0.46586703336472984 0.36137261532227966 -0.16778826457684437
0.6717809047894416 0.374394250233753 -0.16778826457684437
0.1393176512681218 0.3855471767182952 -0.1670961503446476
0.2828819177180793 0.3878904777615899 -0.1670961503446476
0.31161454570041935 0.43915636767502175 -0.1670961503446476
0.3381324081397296 0.4687294200821721 -0.1670961503446476
0.6533607788668335 0.40064515432635894 -0.1670961503446476
0.4845936670187394 0.27194156917628337 -0.1670961503446476
0.462861280127761 0.46383518372592364 -0.1670961503446476
0.4310042507543613 0.5411146814237796 -0.1670961503446476
0.5466169895697439 0.2862287843980594 -0.1670961503446476
0.5788497380977646 0.48146432195459254 -0.1670961503446476
0.5034290614806657 0.5088819328957588 -0.1670961503446476
0.15443540356853394 0.3286652741778953 -0.16581079534199644
0.359241892221731 0.40043752005669986 -0.16581079534199644
0.4634248588596927 0.40043752005669986 -0.16581079534199644
0.6848025397009152 0.34835098041080614 -0.16581079534199644
0.1505595638682321 0.3962353979326481 -0.16511868110979966
0.3432046167271145 0.4560044055559259 -0.16511868110979966
0.3525184968232482 0.3469469772540642 -0.16511868110979966
0.5441945897570551 0.5080019590862515 -0.16511868110979966
0.4672413744829491 0.33225438083914427 -0.16511868110979966
0.4630194776665488 0.33697064496425655 -0.16511868110979966
0.4212849894650839 0.5453365782401798 -0.16511868110979966
0.6325874645547563 0.35320566738235776 -0.16511868110979966
0.6467263695839188 0.3997552931706773 -0.16511868110979966
0.5047836279065365 0.47855744217936613 -0.16511868110979966
0.150885846291982 0.374394250233753 -0.16383332610714857
0.4753786603843482 0.31821434927172415 -0.16383332610714857
0.38837001405104055 0.34835098041080614 -0.16383332610714857
0.6978241746123887 0.4395024247911201 -0.16383332610714857
0.1581925951147449 0.334805316152098 -0.1631412118749518
0.37730607368206653 0.3307218421821371 -0.1631412118749518
0.6558721647950903 0.39989371601711665 -0.1631412118749518
0.4451036063988268 0.26409101631393705 -0.1631412118749518
0.40650340693459586 0.5389790146501438 -0.1631412118749518
0.49092156857025265 0.2674724887055271 -0.1631412118749518
0.4926518541507446 0.32167492043270807 -0.1631412118749518
0.36962360570468245 0.5396810162285148 -0.1631412118749518
0.583813185877233 0.4805843481450852 -0.1631412118749518
0.46245589893461725 0.54988475748033 -0.1626468445662398
0.3288580774282931 0.33937327008459667 -0.16185585687230064
0.3347707104404883 0.47857721687171473 -0.16185585687230064
0.6587592698779682 0.31979632465960245 -0.16185585687230064
0.47644649377116605 0.5477490907066942 -0.16185585687230064
0.30486148826341375 0.4493106721959657 -0.16116374264010389
0.3524097360153315 0.4540170489749037 -0.16116374264010389
0.472066399415978 0.33244224041645487 -0.16116374264010389
0.4741724041510909 0.26770978501370873 -0.16116374264010389
0.4766145786561281 0.3421219523210353 -0.16116374264010389
0.3833076928098299 0.5316228290965096 -0.16116374264010389
0.6332598040946047 0.3509216904161085 -0.16116374264010389
0.6438491518472153 0.41085878292434835 -0.16116374264010389
0.46245589893461725 0.24416801377284447 -0.16066937533139192
0.3279781036187856 0.34002583493209654 -0.15987838763745274
0.3841678919269888 0.48066344691447926 -0.15987838763745274
0.5806294604091278 0.29444516906885243 -0.15987838763745274
0.6717809047894416 0.4264807898796467 -0.15987838763745274
0.3438868436131371 0.45864432698444785 -0.15918627340525598
0.3808061942277473 0.3265889314813051 -0.15918627340525598
0.5061876310632785 0.2746704767203734 -0.15918627340525598
0.4537945836859834 0.5371300809155609 -0.15918627340525598
0.49213771214968416 0.26664195162689097 -0.15918627340525598
0.49476774623203196 0.322871289319791 -0.15918627340525598
0.4513326344885978 0.5289235835909423 -0.15918627340525598
0.6117844882041562 0.4528206800878208 -0.15918627340525598
0.150885846291982 0.32230771058785934 -0.15790091840260484
0.35678983037051953 0.41345915496817326 -0.15790091840260484
0.4666481337124947 0.41345915496817326 -0.15790091840260484
0.6978241746123887 0.36137261532227966 -0.15790091840260484
0.1762172271903836 0.46144244595175765 -0.15720880417040808
0.3383004930246918 0.3441191962482317 -0.15720880417040808
0.500512294359265 0.5234954305412847 -0.15720880417040808
0.4900415947607454 0.2701618468649202 -0.15720880417040808
0.46364238047552586 0.3367234613099005 -0.15720880417040808
0.40210353788705916 0.5422616135799913 -0.15720880417040808
0.6669855418949356 0.39628483466351927 -0.15720880417040808
0.5080563394902098 0.27764656791881953 -0.15720880417040808
0.6563467574114538 0.40082312655749525 -0.15720880417040808
0.45342875187753645 0.4655456946140669 -0.15592344916775694
0.46839819398533517 0.5511799998291554 -0.15592344916775694
0.6717809047894416 0.36387411390436225 -0.15592344916775694
0.1620189980841756 0.3386317191215287 -0.15523133493556018
0.33874542360253257 0.33562596588455984 -0.15523133493556018
0.5059503347550967 0.5125600256725759 -0.15523133493556018
0.4650859330169649 0.26439752404533856 -0.15523133493556018
0.4632073372438594 0.32573861971032037 -0.15523133493556018
0.4988116708172958 0.5213202143829521 -0.15523133493556018
0.5906057926989353 0.4929534182090589 -0.15523133493556018
0.5103106544179363 0.32310858562797273 -0.15523133493556018
0.6066727302320745 0.4899872143567871 -0.15394597993290904
0.5936510953206012 0.27021128359579133 -0.15394597993290904
0.3278100187338236 0.41345915496817326 -0.15394597993290904
0.150885846291982 0.41345915496817326 -0.15394597993290904
0.3729556413654012 0.46366709884096147 -0.15325386570071228
0.33399949743889756 0.34273496778383816 -0.15325386570071228
0.4978624855845688 0.2710022712897306 -0.15325386570071228
0.4561873214601494 0.5421924021567716 -0.15325386570071228
0.4222836114286821 0.2554791377961745 -0.15325386570071228
0.4734110784956745 0.458980496754372 -0.15325386570071228
0.41510539810618424 0.5471360752438913 -0.15325386570071228
0.5125155326147918 0.4758186472891018 -0.15325386570071228
0.30715535257583726 0.3353293454993328 -0.15196851069806114
0.2934416034321671 0.47857721687171473 -0.15196851069806114
0.6587592698779682 0.30927618833021164 -0.15196851069806114
0.3208789890656818 0.4929237561705362 -0.15127639646586438
0.3707903125532428 0.3375045616576655 -0.15127639646586438
0.6620023194231188 0.396314496702042 -0.15127639646586438
0.43388146849106507 0.25966148522787785 -0.15127639646586438
0.4764168317326433 0.4622334336456968 -0.15127639646586438
0.4716807929151826 0.531682153173555 -0.15127639646586438
0.5820433509120441 0.5006457735326173 -0.15127639646586438
0.511862967767292 0.3203994527762311 -0.15127639646586438
0.327701257925907 0.3874158851452265 -0.14999104146321324
0.2934416034321671 0.47857721687171473 -0.14999104146321324
0.607394506502794 0.30927618833021164 -0.14999104146321324
0.3208789890656818 0.4949012254053841 -0.14929892723101648
0.37074087582237153 0.3374551249267942 -0.14929892723101648
0.663248125041073 0.39663089177961763 -0.14929892723101648
0.4673303605985173 0.2633494653508692 -0.14929892723101648
0.43766832207579875 0.25405535994708395 -0.14929892723101648
0.4709095799135919 0.32361284028285897 -0.14929892723101648
0.5009275628985831 0.47824104710179055 -0.14929892723101648
0.5170142751240708 0.2808599554254474 -0.14929892723101648
0.150885846291982 0.40043752005669986 -0.14801357222836534
0.45317168087700627 0.48227508434088023 -0.14801357222836534
0.4711369888755995 0.2962545534187382 -0.14801357222836534
0.619694365143548 0.517642121606135 -0.14801357222836534
0.34272013676457685 0.4566767450957742 -0.14732145799616858
0.4731540074951443 0.3320170845309625 -0.14732145799616858
0.45604889861370995 0.2572786347998861 -0.14732145799616858
0.46788405198427463 0.32527391444013115 -0.14732145799616858
0.5079278039899446 0.48026795306750963 -0.14732145799616858
0.5033796247497945 0.5379309559556744 -0.14732145799616858
0.5164605837383133 0.4757692105582306 -0.14732145799616858
0.5232828525985386 0.2818882394275683 -0.14732145799616858
0.15206244048671652 0.3353293454993328 -0.14603610299351744
0.34622025731025763 0.4759372954431927 -0.14603610299351744
0.5184281656269869 0.2597010346125748 -0.14603610299351744
0.619694365143548 0.5071219852767441 -0.14603610299351744
0.34352101180469014 0.4590595955237659 -0.14534398876132068
0.3807963068815732 0.332491677147326 -0.14534398876132068
0.4669150920591992 0.2625387029645815 -0.14534398876132068
0.5323693237326648 0.2759953811077215 -0.14534398876132068
0.4781866666978322 0.272594134023783 -0.14534398876132068
0.48480130128839843 0.3998739413247682 -0.14534398876132068
0.5235201489067203 0.29493953637756437 -0.14534398876132068
0.150885846291982 0.34835098041080614 -0.14405863375866954
0.34622025731025763 0.4770051288300106 -0.14405863375866954
0.42435995412527233 0.2962545534187382 -0.14405863375866954
0.5676078254976543 0.5436853914290818 -0.14405863375866954
0.34933477135514307 0.46170940429846213 -0.14336651952647278
0.36803174297062985 0.3298616430649782 -0.14336651952647278
0.4681510103309791 0.26141154550071816 -0.14336651952647278
0.4968342015824479 0.263715297159316 -0.14336651952647278
0.4841190744023759 0.2735136572179873 -0.14336651952647278
0.4849594988271863 0.4008429012498437 -0.14336651952647278
0.5407043565575486 0.4229608946416175 -0.14336651952647278
0.5272773404529314 0.4991231222217843 -0.14336651952647278
0.328363710119581 0.3353293454993328 -0.14208116452382163
0.3563745618312015 0.3754027595435255 -0.14208116452382163
0.6327160000550215 0.3286257247931983 -0.14208116452382163
0.31198037750886615 0.4997855744154584 -0.14138905029162488
0.3727381197495679 0.4704695930088383 -0.14138905029162488
0.6377783212962321 0.35486674153963005 -0.14138905029162488
0.4688925612940471 0.5400666227293103 -0.14138905029162488
0.6407741871870266 0.3523256935728505 -0.14138905029162488
0.47051408606662243 0.24942808193753999 -0.14138905029162488
0.4926716288430931 0.33371770807293166 -0.14138905029162488
0.5472695544172437 0.3512084234551614 -0.14138905029162488
0.4675775442528733 0.4264807898796467 -0.1408946829829129
0.6587592698779682 0.31979632465960245 -0.14010369528897373
0.359241892221731 0.41345915496817326 -0.14010369528897373
0.30715535257583726 0.30927618833021164 -0.14010369528897373
0.1620189980841756 0.3386317191215287 -0.13941158105677698
0.3383301550632145 0.3352403593837647 -0.13941158105677698
0.6476063433934262 0.43523109124384873 -0.13941158105677698
0.4636819298602229 0.5398293264211286 -0.13941158105677698
0.49753620316081887 0.263052844965642 -0.13941158105677698
0.4740834180355228 0.3865655733742418 -0.13941158105677698
0.4709095799135919 0.5308021793640477 -0.13941158105677698
0.5418611760599348 0.41742398078404336 -0.13941158105677698
0.5347719488530049 0.48897870504701463 -0.13941158105677698
0.6662044415471706 0.40081323921132095 -0.13941158105677698
0.5415546683285333 0.5567070263405552 -0.13812622605412583
0.5676078254976543 0.26770978501370873 -0.13812622605412583
0.30715535257583726 0.34835098041080614 -0.13812622605412583
0.32863066846628547 0.48241350718731957 -0.13743411182192908
0.3477626833134389 0.34420818236379985 -0.13743411182192908
0.473757135611773 0.46915457596766447 -0.13743411182192908
0.5042793732516503 0.34531556513531464 -0.13743411182192908
0.5218096380185769 0.2769841157251454 -0.13743411182192908
0.6254191385784327 0.33461745657478753 -0.13743411182192908
0.6715534958274342 0.4156838078573772 -0.13743411182192908
0.5519561565038331 0.30215729908475925 -0.13743411182192908
0.6587592698779682 0.30927618833021164 -0.13614875681927793
0.5091834969540732 0.4852610628855005 -0.13614875681927793
0.30715535257583726 0.4525240597025936 -0.13614875681927793
0.32863066846628547 0.5164951894499231 -0.13545664258708118
0.3467541740036664 0.34551331205879937 -0.13545664258708118
0.46965388694946353 0.4747607012484582 -0.13545664258708118
0.4925332059966537 0.33357928522649233 -0.13545664258708118
0.6176476844854805 0.4697873661228157 -0.13545664258708118
0.6202678312216537 0.4727140205903907 -0.13545664258708118
0.5909913991997308 0.5007644216867082 -0.13545664258708118
0.5516793108109546 0.5026133554212909 -0.13545664258708118
0.5095394414163458 0.2962545534187382 -0.13417128758443003
0.6587592698779682 0.4915988517831881 -0.13417128758443003
0.2941337176643639 0.34835098041080614 -0.13417128758443003
0.15206244048671652 0.3874158851452265 -0.13417128758443003
0.26983062076808323 0.45724032382770585 -0.13347917335223328
0.34618070792556066 0.45382918939759326 -0.13347917335223328
0.47878979481446077 0.3737911221171245 -0.13347917335223328
0.46801258748453983 0.5401061721140071 -0.13347917335223328
0.535355302277285 0.5213795384599975 -0.13347917335223328
0.5177558260871387 0.5329279587915092 -0.13347917335223328
0.4808068134340057 0.5464439610116946 -0.13347917335223328
0.6213158899161234 0.3385229583136121 -0.13347917335223328
0.6158086380970719 0.30927618833021164 -0.13219381834958213
0.4634248588596927 0.4525240597025936 -0.13219381834958213
0.150885846291982 0.36137261532227966 -0.13219381834958213
0.26372024083240314 0.3999925894788591 -0.13150170411738538
0.3512034797820743 0.3383054366977788 -0.13150170411738538
0.48368403117070935 0.4699851130463006 -0.13150170411738538
0.46105189577787514 0.4794670780273962 -0.13150170411738538
0.5411492871353895 0.28323291850726484 -0.13150170411738538
0.5365813332028907 0.2846468090101811 -0.13150170411738538
0.502905032133431 0.2754614644143126 -0.13150170411738538
0.5569591536679983 0.5002799417241703 -0.13150170411738538
0.6327160000550215 0.5046204866946615 -0.13021634911473423
0.5299963606508472 0.5064496457368958 -0.13021634911473423
0.30715535257583726 0.4395024247911201 -0.13021634911473423
0.3208789890656818 0.4842822156142509 -0.12952423488253748
0.2648375109500922 0.3510205638778508 -0.12952423488253748
0.3460818344638182 0.45392806285933557 -0.12952423488253748
0.4786414846218473 0.370053705263262 -0.12952423488253748
0.478423963006014 0.3787051331657215 -0.12952423488253748
0.6039042733032874 0.4838372850364101 -0.12952423488253748
0.6592140878019834 0.43237364819949353 -0.12952423488253748
0.6086205374283997 0.48999710170296135 -0.12952423488253748
0.6692892935535333 0.4038387671406382 -0.12952423488253748
0.5676078254976543 0.26770978501370873 -0.12823887987988636
0.45611811003692965 0.4568052805960392 -0.12823887987988636
0.45472399422636184 0.4828880998036831 -0.12823887987988636
0.2711159757707343 0.4614721079902803 -0.12754676564768958
0.3447865921149928 0.45947486406308397 -0.12754676564768958
0.36878318127987214 0.4720317937043681 -0.12754676564768958
0.4751117020376437 0.34005549697061926 -0.12754676564768958
0.4923947831502144 0.5367642491071143 -0.12754676564768958
0.5514222398104242 0.2851312889727187 -0.12754676564768958
0.5341787080825505 0.2854081346655975 -0.12754676564768958
0.5198914928607745 0.28027660200116716 -0.12754676564768958
0.5890732540419281 0.512935744827197 -0.12626141064503846
0.38670893989376837 0.3353293454993328 -0.12626141064503846
0.359241892221731 0.3874158851452265 -0.12626141064503846
0.1524282722951633 0.4655456946140669 -0.12626141064503846
0.2371331669698732 0.44833182492471596 -0.12556929641284167
0.34441087296037176 0.34169679643554296 -0.12556929641284167
0.4791852886614304 0.4157035825497256 -0.12556929641284167
0.4741625168049168 0.4352113165515002 -0.12556929641284167
0.49140604853279046 0.5372586164158261 -0.12556929641284167
0.47406364334317436 0.26057112107590785 -0.12556929641284167
0.5697929290021613 0.49164828851405923 -0.12556929641284167
0.5633364919503829 0.303343780625668 -0.12556929641284167
0.2835245952194049 0.47505732163368536 -0.12428394141019053
0.359241892221731 0.41345915496817326 -0.12428394141019053
0.5415546683285333 0.30457969889744796 -0.12428394141019053
0.6717809047894416 0.47857721687171473 -0.12428394141019053
0.17843199273341315 0.3523454682651989 -0.12359182717799376
0.3418500503012437 0.37900175355094856 -0.12359182717799376
0.47543798446139357 0.4696192812378537 -0.12359182717799376
0.47238279449355364 0.32056753766119317 -0.12359182717799376
0.6508296182462282 0.4400066794460063 -0.12359182717799376
0.5622192218326939 0.29447483110737516 -0.12359182717799376
0.46729081121382027 0.24977413905363832 -0.12359182717799376
0.6009973935280611 0.32221872447229116 -0.12359182717799376
0.476110324001242 0.31411110060941483 -0.12230647217534263
0.3867682639708138 0.4525240597025936 -0.12230647217534263
0.5415546683285333 0.4655456946140669 -0.12230647217534263
0.5493360097676598 0.26631566920314104 -0.12230647217534263
0.26235578706035817 0.35690353485152326 -0.12161435794314586
0.37621846560290023 0.3296935581800162 -0.12161435794314586
0.470662396259236 0.4699356763154293 -0.12161435794314586
0.473885671112038 0.4777763418316013 -0.12161435794314586
0.5734116977019328 0.5055498972350401 -0.12161435794314586
0.4725113299938188 0.25324459756079637 -0.12161435794314586
0.5103996405335045 0.25953294972761265 -0.12161435794314586
0.5873528558076107 0.308050157404606 -0.12161435794314586
0.6587592698779682 0.4915988517831881 -0.12032900294049474
0.44506405701412993 0.2962545534187382 -0.12032900294049474
0.30715535257583726 0.4264807898796467 -0.12032900294049474
0.15314016121970855 0.4655456946140669 -0.12032900294049474
0.18260445281894233 0.36001804889640887 -0.11963688870829797
0.3501356463952565 0.34213183966720945 -0.11963688870829797
0.4704349872972284 0.4755615762885716 -0.11963688870829797
0.4726991895711292 0.4804162632601232 -0.11963688870829797
0.5935126724741618 0.32044888950710226 -0.11963688870829797
0.5455194941444031 0.275560337876055 -0.11963688870829797
0.6021443256842728 0.30310648431748627 -0.11963688870829797
0.6004634768346522 0.33184899964600045 -0.11963688870829797
0.5253789699874774 0.5436853914290818 -0.11835153370564684
0.5415546683285333 0.30677468974812905 -0.11835153370564684
0.32769137057973274 0.4525240597025936 -0.11835153370564684
0.150885846291982 0.4655456946140669 -0.11835153370564684
0.18084450519992773 0.4452370855721791 -0.11765941947345007
0.3673594034307816 0.3292189655636527 -0.11765941947345007
0.4784536250445367 0.3621339409776961 -0.11765941947345007
0.4836741438245351 0.2611841365387107 -0.11765941947345007
0.4791061898920365 0.5437546028523015 -0.11765941947345007
0.6680138258970564 0.42671808618782847 -0.11765941947345007
0.5669552606501544 0.5196986896103768 -0.11765941947345007
0.150885846291982 0.4264807898796467 -0.11637406447079895
0.3276419338488616 0.41345915496817326 -0.11637406447079895
0.3560482794074517 0.374394250233753 -0.11637406447079895
0.4647497632470408 0.3841629482539016 -0.11637406447079895
0.3208789890656818 0.5041755561168207 -0.11568195023860219
0.35078821124275616 0.3379198301969836 -0.11568195023860219
0.4841190744023759 0.3569628589285687 -0.11568195023860219
0.4746371094212803 0.3588216800093258 -0.11568195023860219
0.5168363028929345 0.5318304633661685 -0.11568195023860219
0.5571865626300058 0.28932352375059633 -0.11568195023860219
0.4921871488805553 0.2545002905249248 -0.11568195023860219
0.6324292670159686 0.4552529672466836 -0.11568195023860219
0.6978241746123887 0.38992727107348324 -0.11439659523595103
0.523213641175319 0.4395024247911201 -0.11439659523595103
0.28111208275289046 0.4655456946140669 -0.11439659523595103
0.25795591801282153 0.3379099428508093 -0.11439659523595103
0.30486148826341375 0.5288049354368514 -0.11370448100375426
0.37130445455430316 0.46986646489220973 -0.11370448100375426
0.4735593886882881 0.330840490336228 -0.11370448100375426
0.5152444401588819 0.47944730333504776 -0.11370448100375426
0.60218387506897 0.3124994631830137 -0.11370448100375426
0.4780976805822641 0.5369916580691217 -0.11370448100375426
0.5949067882847295 0.483214382227433 -0.11370448100375426
0.6137817321313529 0.4766689590600864 -0.11370448100375426
0.25795591801282153 0.3353293454993328 -0.1132101136950423
0.7108556968700361 0.4264807898796467 -0.11241912600110313
0.4677555164840095 0.3858437971035224 -0.11241912600110313
0.359241892221731 0.4264807898796467 -0.11241912600110313
0.30715535257583726 0.41345915496817326 -0.11241912600110313
0.16390748120345536 0.3874158851452265 -0.11241912600110313
0.2269294257180579 0.3627469564404989 -0.11172701176890636
0.3511144936665061 0.3456220728667161 -0.11172701176890636
0.47068217095158443 0.3241863063609648 -0.11172701176890636
0.4832786499775656 0.5434975318517712 -0.11172701176890636
0.6177366706010485 0.330138488757857 -0.11172701176890636
0.6013830000288564 0.30528170047581893 -0.11172701176890636
0.6870865166671645 0.3942777033901486 -0.11172701176890636
0.16593438716917444 0.34271519309148973 -0.11123264446019437
0.6618540092305053 0.3353293454993328 -0.11123264446019437
0.6780494822639097 0.36137261532227966 -0.11044165676625524
0.33583854382730605 0.4842031168448569 -0.11044165676625524
0.4634248588596927 0.45529251663138065 -0.11044165676625524
0.2647386374883499 0.3398874120856572 -0.11044165676625524
0.28111208275289046 0.4655456946140669 -0.11044165676625524
0.3489491648543477 0.337939604889332 -0.10974954253405847
0.4829325928614672 0.3351612606143706 -0.10974954253405847
0.47683210027196143 0.35438226157709224 -0.10974954253405847
0.4869962921390797 0.5396315794976436 -0.10974954253405847
0.49211793745733573 0.5446246893156346 -0.10974954253405847
0.4781668920054838 0.5514074087911629 -0.10974954253405847
0.49335385572911566 0.5500825044038147 -0.10974954253405847
0.26817943395698524 0.34188465601285356 -0.10925517522534649
0.6465088479680854 0.32230771058785934 -0.10925517522534649
0.6709701424031541 0.3565970271201219 -0.10846418753140734
0.5236783464455081 0.44107451283282423 -0.10846418753140734
0.27997503794285294 0.4525240597025936 -0.10846418753140734
0.28424637149012444 0.3321950567620988 -0.10846418753140734
0.17387392614708874 0.4551639811311155 -0.10777207329921057
0.34290799634188734 0.33789016815846085 -0.10777207329921057
0.48311056509260353 0.35896999020193937 -0.10777207329921057
0.4733814164571518 0.36758186871970205 -0.10777207329921057
0.5577995780928088 0.28396458212415854 -0.10777207329921057
0.6204853528374873 0.47571977382735947 -0.10777207329921057
0.6554766709481208 0.35346273838288794 -0.10777207329921057
0.5827651271827636 0.2878700838629831 -0.10777207329921057
0.6471910748541081 0.44037251125445326 -0.10777207329921057
0.17615790311333815 0.47857721687171473 -0.10727770599049859
0.47719793208040834 0.31368594472392247 -0.10727770599049859
0.5236783464455081 0.36137261532227966 -0.10727770599049859
0.6516206059401675 0.3293870504486147 -0.10727770599049859
0.5024897635941129 0.5567070263405552 -0.10727770599049859
0.25305179431039876 0.3599191754346664 -0.10579460406436268
0.3454589316548411 0.4545114162836157 -0.10579460406436268
0.47832508954427155 0.442923446567407 -0.10579460406436268
0.5067709844875586 0.45306786374217667 -0.10579460406436268
0.6544187249074771 0.3531463433053123 -0.10579460406436268
0.549810602384023 0.5167423731042792 -0.10579460406436268
0.49829752881623546 0.5421034160412035 -0.10579460406436268
0.6472503989311535 0.4671078953095968 -0.10579460406436268
0.16593438716917444 0.3379297175431577 -0.1053002367556507
0.47989717758597566 0.4844107511145159 -0.1053002367556507
0.3868374753940334 0.4535721183970629 -0.1053002367556507
0.4675775442528733 0.41345915496817326 -0.1053002367556507
0.619694365143548 0.517642121606135 -0.1053002367556507
0.2567892111642613 0.35794170619981847 -0.10381713482951475
0.37575376033271096 0.32924862760217544 -0.10381713482951475
0.4764069443864691 0.47018285996978537 -0.10381713482951475
0.47730669288832495 0.3525926519195549 -0.10381713482951475
0.6136334219387392 0.31792761623267124 -0.10381713482951475
0.5956582265939716 0.4959789461383762 -0.10381713482951475
0.6848519764317863 0.40758607134067504 -0.10381713482951475
0.6422968384978595 0.3324224657241063 -0.10381713482951475
0.65321246867422 0.3666129087946265 -0.10381713482951475
0.150885846291982 0.4525240597025936 -0.1033227675208028
0.30715535257583726 0.34835098041080614 -0.1033227675208028
0.386115699123314 0.3353293454993328 -0.1033227675208028
0.6455596627353587 0.32230771058785934 -0.1033227675208028
0.266725994069372 0.3969670615495418 -0.10183966559466685
0.34120737279991814 0.4583279319068722 -0.10183966559466685
0.36864475843343286 0.4751067583645567 -0.10183966559466685
0.47384612172734103 0.3616099116304613 -0.10183966559466685
0.50707749221896 0.37872490785806995 -0.10183966559466685
0.6608850493054297 0.36424983305898334 -0.10183966559466685
0.549059164074781 0.5174938114135214 -0.10183966559466685
0.6550614024088026 0.4492019113880491 -0.10183966559466685
0.5997318132177584 0.2975003590366924 -0.10183966559466685
0.6678951777429656 0.3999530400941621 -0.10183966559466685
0.6717809047894416 0.47857721687171473 -0.10055431059201572
0.4634248588596927 0.40043752005669986 -0.10055431059201572
0.38542358489111717 0.4770051288300106 -0.10055431059201572
0.3852752746985036 0.47971426168175224 -0.10055431059201572
0.1574213821131542 0.3319973098386141 -0.10055431059201572
0.17637542472917134 0.45036861823660934 -0.09986219635981897
0.346773948696015 0.4575962682899785 -0.09986219635981897
0.47162146883813716 0.4770446782147076 -0.09986219635981897
0.47425150292048496 0.3198457613904737 -0.09986219635981897
0.5516496487724316 0.2847555698180977 -0.09986219635981897
0.6593920600331197 0.42542284383900314 -0.09986219635981897
0.6699121963625105 0.4058656731063574 -0.09986219635981897
0.5470520328014102 0.5144089594071587 -0.09986219635981897
0.2784128372473231 0.4750177722489885 -0.09936782905110698
0.6978241746123887 0.39294291165662637 -0.09857684135716784
0.4634248588596927 0.41345915496817326 -0.09857684135716784
0.2941337176643639 0.47857721687171473 -0.09857684135716784
0.16390748120345536 0.32230771058785934 -0.09857684135716784
0.27802723074652774 0.46829437685050557 -0.09788472712497107
0.3415336552236681 0.4631331821475525 -0.09788472712497107
0.48304135366938383 0.43458841374252305 -0.09788472712497107
0.47663435334847665 0.32646039598103993 -0.09788472712497107
0.4994246862800987 0.2611050377693168 -0.09788472712497107
0.5335656926197477 0.2643085379297704 -0.09788472712497107
0.669773773516071 0.356804661389781 -0.09788472712497107
0.6365522903706264 0.47015319793126265 -0.09788472712497107
0.6848025397009152 0.4525240597025936 -0.09659937212231995
0.641199343072519 0.437515068210098 -0.09659937212231995
0.5545861905861807 0.34835098041080614 -0.09659937212231995
0.32712779184780105 0.42478016633767757 -0.09659937212231995
0.32863066846628547 0.5326412257524563 -0.09590725789012318
0.16976079013860515 0.4543235567063052 -0.09590725789012318
0.3494534195092339 0.4550552203231989 -0.09590725789012318
0.4743108269975304 0.3605025288589465 -0.09590725789012318
0.4887760144504427 0.4493996583115339 -0.09590725789012318
0.6129808570912393 0.321388187393655 -0.09590725789012318
0.6678061916273975 0.42698504453453295 -0.09590725789012318
0.6676282193962613 0.4473332029611178 -0.09590725789012318
0.6393405219917618 0.4707563260478912 -0.09590725789012318
0.619694365143548 0.5071219852767441 -0.094621902887472
0.6439974620398287 0.3602850072431132 -0.094621902887472
0.619694365143548 0.28323291850726484 -0.094621902887472
0.44506405701412993 0.2962545534187382 -0.094621902887472
0.3270684677707556 0.36137261532227966 -0.094621902887472
0.2732615298905443 0.34255699555270186 -0.09392978865527525
0.34084154099147124 0.4615314320673258 -0.09392978865527525
0.48582958529051934 0.4607997684504321 -0.09392978865527525
0.46803236217688826 0.32386002393721486 -0.09392978865527525
0.5074927607582781 0.41176841877237835 -0.09392978865527525
0.5711079460433351 0.29305105325828457 -0.09392978865527525
0.6777627492248565 0.4072696762630994 -0.09392978865527525
0.689795649518906 0.4112542767713178 -0.09392978865527525
0.5652546371081852 0.5197382389950738 -0.09392978865527525
0.5135833660016096 0.24416801377284447 -0.0934354213465633
0.6465088479680854 0.44388251914630833 -0.09264443365262412
0.6534893143670987 0.34835098041080614 -0.09264443365262412
0.5545861905861807 0.4264807898796467 -0.09264443365262412
0.3328327905903374 0.47606583094345784 -0.09264443365262412
0.5033598500574461 0.5376442229166215 -0.09195231942042735
0.5666685276111015 0.5059355037358354 -0.09195231942042735
0.6824592386576205 0.3955927204313226 -0.09195231942042735
0.6693980543614501 0.3891560580718926 -0.09195231942042735
0.5020843824009691 0.2512572409797743 -0.09195231942042735
0.478423963006014 0.4385235775198705 -0.09195231942042735
0.47690131169518113 0.47840913198675256 -0.09195231942042735
0.49958288381888655 0.41224301138874186 -0.09195231942042735
0.36925777389623565 0.33175012618425803 -0.09195231942042735
0.2681398845722882 0.34586925652107203 -0.09195231942042735
0.6495146012050542 0.4381181963267267 -0.09066696441777622
0.6797896551905757 0.36204495486212795 -0.09066696441777622
0.5031917651724839 0.24509742431322307 -0.09066696441777622
0.3550199954053308 0.4395024247911201 -0.09066696441777622
0.5545861905861807 0.30927618833021164 -0.09066696441777622
0.5031027790569157 0.5335113122157894 -0.08997485018557946
0.685207920894059 0.39893464343821544 -0.08997485018557946
0.552608721351333 0.279564713076622 -0.08997485018557946
0.6412586671495645 0.32424563043801025 -0.08997485018557946
0.48155825174324784 0.35424383873065296 -0.08997485018557946
0.48172633662821 0.3992510385157911 -0.08997485018557946
0.49677487750540245 0.3398083133162632 -0.08997485018557946
0.3678043340086224 0.4729612042447466 -0.08997485018557946
0.5155113985055864 0.5567070263405552 -0.08948048287686748
0.6492377555121757 0.4655456946140669 -0.08868949518292833
0.5415546683285333 0.25428276890909157 -0.08868949518292833
0.359241892221731 0.36137261532227966 -0.08868949518292833
0.38503797839032183 0.32230771058785934 -0.08868949518292833
0.281013209291148 0.4722196532816787 -0.08799738095073156
0.3713440039390002 0.4717846100500121 -0.08799738095073156
0.48236901412953553 0.4493996583115339 -0.08799738095073156
0.5177162767024418 0.32081472131554917 -0.08799738095073156
0.500186011935515 0.3960277636629891 -0.08799738095073156
0.5034982729038854 0.25537037698825793 -0.08799738095073156
0.6625362361165277 0.3695988873392469 -0.08799738095073156
0.5480209927264859 0.5233075709639743 -0.08799738095073156
0.4987721214325988 0.5501319411346858 -0.08799738095073156
0.6535288637517955 0.4264807898796467 -0.08671202594808043
0.5155113985055864 0.2457401018145486 -0.08671202594808043
0.3549112345974141 0.41345915496817326 -0.08671202594808043
0.5220370469805844 0.31590071026695216 -0.08671202594808043
0.49781304885369765 0.5462758761267326 -0.08601991171588368
0.6710986779034193 0.427321214304457 -0.08601991171588368
0.5914165550852232 0.2995272650024115 -0.08601991171588368
0.6280195106222578 0.33703985638747613 -0.08601991171588368
0.4825272116683233 0.33982808800861175 -0.08601991171588368
0.48928026910532896 0.454768487284146 -0.08601991171588368
0.34088109037616826 0.3468382164461475 -0.08601991171588368
0.27718680632171744 0.3962156232402995 -0.08601991171588368
0.5936510953206012 0.517642121606135 -0.0847345567132325
0.6327160000550215 0.3085148626747952 -0.0847345567132325
0.42435995412527233 0.30677468974812905 -0.0847345567132325
0.3268113967702254 0.374394250233753 -0.0847345567132325
0.16594427451534874 0.34255699555270186 -0.08404244248103575
0.37123524313108347 0.32898166925547095 -0.08404244248103575
0.4714237219146524 0.36490239790648316 -0.08404244248103575
0.5023810027861964 0.46812629196554356 -0.08404244248103575
0.584228454416551 0.29964591315650235 -0.08404244248103575
0.6638117037730046 0.43117727931241046 -0.08404244248103575
0.5674990646897377 0.5146165936768177 -0.08404244248103575
0.5234904868681975 0.5447927742005966 -0.08404244248103575
0.7108556968700361 0.41345915496817326 -0.08275708747838462
0.4638994514760561 0.4092075961132503 -0.08275708747838462
0.4053861368169068 0.4655456946140669 -0.08275708747838462
0.15206244048671652 0.41345915496817326 -0.08275708747838462
0.5057624751777863 0.548856473478209 -0.08206497324618785
0.6725521177910324 0.4448317043790352 -0.08206497324618785
0.6350593010983162 0.32613411355729 -0.08206497324618785
0.5075520848353235 0.3383350987363015 -0.08206497324618785
0.47644649377116605 0.3667018949101946 -0.08206497324618785
0.3407822169144258 0.3467393429844052 -0.08206497324618785
0.1762172271903836 0.46144244595175765 -0.08206497324618785
0.6587592698779682 0.4915988517831881 -0.08077961824353672
0.5595990750965203 0.257189648684318 -0.08077961824353672
0.359241892221731 0.41345915496817326 -0.08077961824353672
0.38485011881301134 0.32230771058785934 -0.08077961824353672
0.5428202486388358 0.5338969187165846 -0.08008750401133996
0.6785537369187957 0.4185906876326036 -0.08008750401133996
0.6358799508307781 0.32607478948024454 -0.08008750401133996
0.47393510784290915 0.3296540087953192 -0.08008750401133996
0.4788491188915062 0.3601960211275452 -0.08008750401133996
0.371047383553773 0.46547648319084733 -0.08008750401133996
0.23868548031922876 0.3509909018393281 -0.08008750401133996
0.15206244048671652 0.3874158851452265 -0.07880214900868883
0.5192982520903201 0.4868924750042501 -0.07880214900868883
0.44506405701412993 0.5046204866946615 -0.07880214900868883
0.7032622150082203 0.40043752005669986 -0.07880214900868883
0.32863066846628547 0.5326412257524563 -0.07811003477649206
0.33667896825211646 0.4671474446942938 -0.07811003477649206
0.4826161977838915 0.4387312117895295 -0.07811003477649206
0.4765157051943858 0.3214376241245263 -0.07811003477649206
0.5690118286543963 0.2951372833010491 -0.07811003477649206
0.6737287119857669 0.3589007787787198 -0.07811003477649206
0.5513925777719016 0.534776892526092 -0.07811003477649206
0.150885846291982 0.4395024247911201 -0.07682467977384093
0.32599074703776354 0.4264807898796467 -0.07682467977384093
0.5261699576814165 0.3874158851452265 -0.07682467977384093
0.6587592698779682 0.4915988517831881 -0.07682467977384093
0.5936510953206012 0.27021128359579133 -0.07682467977384093
0.368822730664569 0.46522929953649134 -0.07613256554164417
0.33661964417507106 0.4087428908430611 -0.07613256554164417
0.47516113876851496 0.4328976775467282 -0.07613256554164417
0.5195058863599792 0.32148706085539747 -0.07613256554164417
0.533041663272513 0.25940441422734767 -0.07613256554164417
0.6736397258701986 0.4423598678354753 -0.07613256554164417
0.5300062479970215 0.5220914273845427 -0.07613256554164417
0.5800461069848477 0.2760052684538958 -0.074847210538993
0.6444028432329725 0.4655456946140669 -0.074847210538993
0.5545861905861807 0.374394250233753 -0.074847210538993
0.3170426987500768 0.4298326002327139 -0.074847210538993
0.150885846291982 0.41345915496817326 -0.074847210538993
0.34970060316358986 0.4639834939185372 -0.07415509630679624
0.33223954981988296 0.38478585106287877 -0.07415509630679624
0.4776725246967717 0.42959530392453216 -0.07415509630679624
0.4783053148519231 0.4789529360263358 -0.07415509630679624
0.5384599289759961 0.2612632353081047 -0.07415509630679624
0.6732936687541002 0.44306186941384645 -0.07415509630679624
0.5669651479963287 0.5068352522376911 -0.07415509630679624
0.3228564583005297 0.36137261532227966 -0.07366072899808429
0.3545552901351414 0.3874158851452265 -0.07366072899808429
0.5783850328275754 0.27470013875889615 -0.07366072899808429
0.676665253799516 0.45132769081551066 -0.07366072899808429
0.3123462093173131 0.5126984485190151 -0.07217762707194834
0.34058446999094105 0.4560538422867971 -0.07217762707194834
0.35007632231821106 0.34464322559546634 -0.07217762707194834
0.5037948932891125 0.4725162736669059 -0.07217762707194834
0.5564647863592862 0.27619312803120627 -0.07217762707194834
0.6185869823720332 0.30734815582623487 -0.07217762707194834
0.5623576446791331 0.5222001881924594 -0.07217762707194834
0.594926562977078 0.4908573008201201 -0.07217762707194834
0.32017698748731077 0.36137261532227966 -0.07168325976323636
0.6556249811407344 0.4569931401733498 -0.07089227206929721
0.6587592698779682 0.34835098041080614 -0.07089227206929721
0.47101834072150867 0.40563826414434984 -0.07089227206929721
0.4592425114279894 0.48463816007652355 -0.07089227206929721
0.15206244048671652 0.34835098041080614 -0.07089227206929721
0.168969802444666 0.39376356138908825 -0.07020015783710046
0.3479208808522268 0.33695087027190795 -0.07020015783710046
0.47962033189309694 0.37191252634401883 -0.07020015783710046
0.47395488253525775 0.47795431406273764 -0.07020015783710046
0.6328346482091124 0.3288926831399028 -0.07020015783710046
0.6770706349926597 0.38478585106287877 -0.07020015783710046
0.6233032464971455 0.4800207694131537 -0.07020015783710046
0.5919801338171546 0.28210576104340146 -0.06970579052838848
0.5806294604091278 0.5306637565176083 -0.06970579052838848
0.6174005008311244 0.517642121606135 -0.06891480283444933
0.6567323639122492 0.32230771058785934 -0.06891480283444933
0.4634248588596927 0.3905501738824604 -0.06891480283444933
0.35444652932722487 0.4395024247911201 -0.06891480283444933
0.30715535257583726 0.36137261532227966 -0.06891480283444933
0.3173294317891297 0.5213301017291263 -0.06822268860225256
0.3495424056248021 0.46412191676497655 -0.06822268860225256
0.37947140249422506 0.34290305266880017 -0.06822268860225256
0.5125847440380115 0.4646459461122112 -0.06822268860225256
0.5408032300192911 0.27078474967389726 -0.06822268860225256
0.6385297596054742 0.32321734643588934 -0.06822268860225256
0.5735501205483722 0.5169203453354155 -0.06822268860225256
0.6064749833085898 0.48315505815038756 -0.06822268860225256
0.6618540092305053 0.34539466390470863 -0.06772832129354057
0.32639612823090736 0.36377524044261983 -0.06772832129354057
0.622828653880782 0.3023847080467667 -0.06693733359960143
0.6423957119596018 0.4395024247911201 -0.06693733359960143
0.4634248588596927 0.374394250233753 -0.06693733359960143
0.359241892221731 0.36137261532227966 -0.06693733359960143
0.5545861905861807 0.4915988517831881 -0.06693733359960143
0.27023600196122705 0.4578731139828571 -0.06624521936740467
0.34781212004431006 0.33685199681016564 -0.06624521936740467
0.3671814311996453 0.47355444501520094 -0.06624521936740467
0.47935337354639246 0.4713891162030426 -0.06624521936740467
0.5664015692643972 0.2809983782718867 -0.06624521936740467
0.6836951569294004 0.4141314945080216 -0.06624521936740467
0.5883613651173829 0.5047391348487524 -0.06624521936740467
0.6056147841914309 0.2902628216371491 -0.06575085205869269
0.6516206059401675 0.4560835043253198 -0.06575085205869269
0.6066727302320745 0.5139343667907952 -0.0649598643647535
0.601116041682152 0.28323291850726484 -0.0649598643647535
0.527099368221795 0.4264807898796467 -0.0649598643647535
0.31683506448041776 0.374394250233753 -0.0649598643647535
0.17229195075921047 0.4568052805960392 -0.06426775013255674
0.27023600196122705 0.46144244595175765 -0.06426775013255674
0.3458445381556364 0.4584762420994858 -0.06426775013255674
0.47617953542446156 0.4223775412173373 -0.06426775013255674
0.5200991271304335 0.48025806572133534 -0.06426775013255674
0.5956582265939716 0.2872768430925288 -0.06426775013255674
0.6819352093103858 0.3698856203782998 -0.06426775013255674
0.5608448807144745 0.5098607801670084 -0.06426775013255674
0.6066727302320745 0.5139343667907952 -0.06377338282384479
0.7058032629749998 0.40043752005669986 -0.06298239512990561
0.46699419082859306 0.41659344370540724 -0.06298239512990561
0.4621098418185188 0.4873769549667879 -0.06298239512990561
0.15206244048671652 0.4264807898796467 -0.06298239512990561
0.664820213082777 0.36056185293599197 -0.06229028089770884
0.5581456352089071 0.519500942686892 -0.06229028089770884
0.6555359950251661 0.4531370751653964 -0.06229028089770884
0.5127528289229735 0.4653380603444079 -0.06229028089770884
0.47794937038965046 0.37884355601216085 -0.06229028089770884
0.340248300221017 0.34624497567569323 -0.06229028089770884
0.155513124301526 0.4037102316403732 -0.06229028089770884
0.6173214020617304 0.2962545534187382 -0.06179591358899686
0.6978241746123887 0.3719916251134129 -0.06100492589505772
0.5316673221542938 0.3353293454993328 -0.06100492589505772
0.32332116357071894 0.40043752005669986 -0.06100492589505772
