-0.1324991611733888 0.39391106088267847 -0.14308764705549537
-0.14181370542364655 0.2517280970150178 -0.14308764705549537
0.25370824542104375 0.5621452079755397 -0.14308764705549537
0.6191633274618794 0.4039918164042656 -0.14308764705549537
-0.16483696940793074 0.3361682716999607 -0.14308764705549537
0.1348901095983805 0.5474025645982734 -0.14308764705549537
-0.09763193259734969 0.2221504956494818 -0.14308764705549537
0.35980542784741854 0.19107739758568842 -0.14308764705549537
0.45846205262690737 0.2208303967121311 -0.14308764705549537
0.38452728067416797 0.5187758037260739 -0.14308764705549537
-0.10822041847945627 0.3585914907127219 -0.14308764705549537
0.009748422921974371 0.4394775528740284 -0.14308764705549537
0.21370832447320753 0.47321854319582424 -0.14308764705549537
-0.19640856637114323 0.33497741321801505 -0.14262607400047764
0.5846653573298545 0.5295119929857863 -0.14262607400047764
0.23206970060181276 0.14044283345024378 -0.14262607400047764
0.645454528675689 0.4200822531021835 -0.14262607400047764
0.6697794286751233 0.2498633418727461 -0.14262607400047764
0.16436616489181252 0.20493382069732063 -0.14124135483542444
-0.06828511775932258 0.4068904951897769 -0.14124135483542444
-0.1222245449686942 0.3662905292704176 -0.14124135483542444
-0.03204240147933064 0.46863050702894804 -0.14124135483542444
0.4805252446567549 0.22593539470062712 -0.14124135483542444
-0.07272545054859307 0.5345154449021783 -0.14124135483542444
-0.15951964781412648 0.2244029721579683 -0.14124135483542444
0.34263491020075915 0.19248057967294233 -0.14124135483542444
0.5525767985450222 0.46504870012201044 -0.14124135483542444
0.25682847927296365 0.5609635809546941 -0.14124135483542444
0.33390194799982376 0.5510305288107127 -0.14124135483542444
-0.09525944709455852 0.3683768394790978 -0.14124135483542444
0.18771253001460925 0.28610605815273804 -0.14124135483542444
0.1364686894465412 0.3083261850212915 -0.14124135483542444
-0.17276679449313526 0.5331307257371253 -0.14077978178040673
0.645454528675689 0.35559126585510664 -0.14077978178040673
0.29285887194764737 0.5804235009542416 -0.14004126489237836
-0.10116758219878544 0.44626267678278897 -0.14004126489237836
-0.02002303912666897 0.1859447052138913 -0.14004126489237836
0.247283148495197 0.23116040168342783 -0.14004126489237836
0.7062529314826241 0.4322400873713504 -0.14004126489237836
0.47523561744625165 0.17691633625774464 -0.14004126489237836
-0.1545254273588347 0.23596999291671256 -0.13939506261535353
-0.10125989680978903 0.41219858532248077 -0.13939506261535353
-0.12703413620197893 0.3834241210726756 -0.13939506261535353
-0.1530391621216776 0.24396443822961958 -0.13939506261535353
0.5545430997593976 0.46947056998908027 -0.13939506261535353
-0.1689911269030902 0.2147745582302986 -0.13939506261535353
-0.1012691282708893 0.3528125960638999 -0.13939506261535353
0.3849150020403829 0.2569531039978184 -0.13939506261535353
0.3404932112254769 0.553255310935898 -0.13939506261535353
-0.1648092750246297 0.3909385304083643 -0.13939506261535353
0.6257915165319339 0.37746059720184655 -0.13939506261535353
0.4848271055295202 0.23645002889393105 -0.13939506261535353
0.18762944686470606 0.28603220646393523 -0.13939506261535353
0.13711489172356595 0.3661059000484106 -0.13939506261535353
0.04680350777879746 0.565985495793287 -0.1389334895603358
-0.11071291297655209 0.3240196688918941 -0.13819497267230743
0.15182060925643076 0.23770550760357922 -0.13819497267230743
0.30501670621681437 0.2863460761413473 -0.13819497267230743
-9.323775711358002E-4 0.4808806559091185 -0.13819497267230743
0.645454528675689 0.4808806559091185 -0.13819497267230743
0.7184107657517911 0.4079244188330165 -0.13819497267230743
-0.15729486568894102 0.3850950155318398 -0.13754877039528263
-0.09351470094659159 0.4188360058536356 -0.13754877039528263
-0.16030432200765668 0.3917693619073961 -0.13754877039528263
-0.15121133282380747 0.3917878248295969 -0.13754877039528263
0.3452751080754605 0.17953807121024523 -0.13754877039528263
0.373800322875556 0.5624313832696505 -0.13754877039528263
-0.1870570962764841 0.5154340148077456 -0.13754877039528263
0.37257253854920885 0.26433827287810213 -0.13754877039528263
0.4338971346388642 0.2042506925758944 -0.13754877039528263
0.4431747530447205 0.2108696501848486 -0.13754877039528263
-0.17332068215915655 0.5117968191342059 -0.13754877039528263
-0.16600936496767574 0.5058240638022766 -0.13754877039528263
0.6258007479930342 0.3709524171260966 -0.13754877039528263
0.17976424200720395 0.2913772224410405 -0.13754877039528263
0.1762193609446678 0.33608518855005753 -0.13754877039528263
0.6543351942542301 0.37271562619626436 -0.1370871973402649
0.6462022770248178 0.34713524748718194 -0.13634868045223655
0.08022139696208093 0.17751638122926766 -0.13634868045223655
0.36736599448860896 0.34713524748718194 -0.13634868045223655
-0.015462697343093829 0.3714509160255158 -0.13634868045223655
-0.08864048948560434 0.338309970675243 -0.13570247817521172
-0.1581903174156755 0.38511347845404054 -0.13570247817521172
-0.09672724940951495 0.34563975078892445 -0.13570247817521172
-0.15735025445554315 0.23807476604759345 -0.13570247817521172
0.32494743073247984 0.5453901060783962 -0.13570247817521172
-0.06824819191492112 0.20017038676953763 -0.13570247817521172
0.5497335085261127 0.2547744791781348 -0.13570247817521172
0.38992768541787537 0.4881181214117965 -0.13570247817521172
0.31916853608365786 0.18693247155162926 -0.13570247817521172
0.045335705463841164 0.5411990227388351 -0.13570247817521172
0.36551047080743765 0.5540307536683278 -0.13570247817521172
0.5339107842001051 0.2552360522331525 -0.13570247817521172
-0.09609027859359047 0.40937375822577227 -0.13570247817521172
0.18746328056489966 0.2858845030863295 -0.13570247817521172
0.002086310208680118 0.3030457892718887 -0.13570247817521172
-0.06966983692437569 0.3295585455521069 -0.13450238823216565
0.1279572823120142 0.17256831807947762 -0.13450238823216565
0.1347977949873769 0.5051963244474523 -0.13450238823216565
0.6489163265883219 0.34713524748718194 -0.13450238823216565
-0.06143537362285948 0.30599985682400205 -0.13385618595514082
-0.1222245449686942 0.3755773791373743 -0.13385618595514082
-0.16297221426565903 0.35148326566544896 -0.13385618595514082
-0.03481183980943698 0.38737518642362734 -0.13385618595514082
0.24057187627523935 0.19672705177910535 -0.13385618595514082
0.4578066188887822 0.5353278134790097 -0.13385618595514082
-0.19284522238640636 0.507633430177946 -0.13385618595514082
-0.05388403844276948 0.3133480998598843 -0.13385618595514082
0.37224020594959606 0.547993378108696 -0.13385618595514082
-0.1687880347588825 0.23828708965290157 -0.13385618595514082
0.3239781273169426 0.1805073746257825 -0.13385618595514082
0.482925424542847 0.22190124619977222 -0.13385618595514082
-0.16900035836419058 0.4966849173129255 -0.13385618595514082
0.008502175673426461 0.30444897135914256 -0.13385618595514082
0.16458771995822105 0.27183421929158996 -0.13385618595514082
1.3847191650532336E-4 0.3999392049812099 -0.13385618595514082
0.6697794286751233 0.38360875029468267 -0.13339461290012308
0.7184107657517911 0.32515513860723777 -0.13265609601209472
0.08616645791070932 0.5781433300624539 -0.13265609601209472
-0.11503323677151792 0.3957019643361471 -0.13265609601209472
-0.1321852914959767 0.36400112691752967 -0.1320098937350699
-0.1499835484974602 0.39175089898519544 -0.1320098937350699
0.3726833160824131 0.26080262327666626 -0.1320098937350699
0.13054209142011347 0.5361124876725396 -0.1320098937350699
-0.09036677271137061 0.3343865997075923 -0.1320098937350699
0.1141747108891849 0.5560247492660044 -0.1320098937350699
0.3306432422313985 0.16636477622003937 -0.1320098937350699
-0.18185978367698447 0.5067564413734124 -0.1320098937350699
-0.14495240219776698 0.22443066654126936 -0.1320098937350699
0.35451580063691535 0.18399686692171652 -0.1320098937350699
0.002658660796902077 0.5393711934409648 -0.1320098937350699
0.44692272625146423 0.20594004995725923 -0.1320098937350699
0.3832718019645198 0.4623254190974058 -0.1320098937350699
0.16179058724481366 0.46841818342363994 -0.1320098937350699
0.1279572823120142 0.16972502806056836 -0.13154832068005218
-0.10116758219878544 0.3355313008840362 -0.1308098037920238
0.47523561744625165 0.6024682300618882 -0.1308098037920238
0.4387621146387509 0.15493622737780047 -0.1308098037920238
0.5846653573298545 0.22554767333441222 -0.1308098037920238
-0.1236092641337473 0.372549459896458 -0.130163601514999
-0.13671793889625078 0.354871211889279 -0.130163601514999
-0.13982894128707027 0.3002394250973809 -0.130163601514999
0.2688570730867256 0.19240672798413952 -0.130163601514999
0.2745344216634436 0.5719305567419155 -0.130163601514999
0.10398317783439351 0.1750700440376737 -0.130163601514999
-0.16998812470192853 0.21807018984312515 -0.130163601514999
0.3307355568424021 0.17519928449307862 -0.130163601514999
0.4366665729689704 0.5413651890386415 -0.130163601514999
-0.16848339654257077 0.5140308327204917 -0.130163601514999
0.43429408746617926 0.5436084340860277 -0.130163601514999
0.019469151460647677 0.5418452250158599 -0.130163601514999
0.13070825771991987 0.43840670338638726 -0.130163601514999
0.18630934792735535 0.46584260577664094 -0.130163601514999
0.6697794286751233 0.45656498737078466 -0.1289635115719529
0.34758297335054916 0.28633684468024695 -0.1289635115719529
-0.003877213662148923 0.45656498737078466 -0.1289635115719529
-0.11071291297655209 0.34824302281922453 -0.1289635115719529
-0.0644725243248762 0.3418086944322774 -0.1283173092949281
0.38917070560764633 0.5326137639155053 -0.1283173092949281
-0.1376964737728883 0.39509268790352386 -0.1283173092949281
-0.1316498667521562 0.22707086441597077 -0.1283173092949281
0.38089931646172864 0.5335276785644404 -0.1283173092949281
0.015471928804194228 0.19033888069766006 -0.1283173092949281
0.6189140780121697 0.433504797542099 -0.1283173092949281
-0.16883419206438421 0.5209821229290588 -0.1283173092949281
0.3977836588142772 0.20658625223428412 -0.1283173092949281
0.04788358872753898 0.5452608656229911 -0.1283173092949281
0.3058844635602476 0.566216282320796 -0.1283173092949281
0.44145770128005446 0.5437284430803323 -0.1283173092949281
0.13352385335552805 0.2960114159134185 -0.1283173092949281
0.2342206310381954 0.4829854290399993 -0.1283173092949281
0.7670421028284587 0.38360875029468267 -0.127117219351882
0.1469556292565439 0.46035911788303036 -0.127117219351882
0.6576215944059564 0.32281957894884805 -0.127117219351882
-0.07113763923933211 0.3328264827816324 -0.127117219351882
-0.0732516438313133 0.42323941279850474 -0.1264710170748572
0.3730064172209255 0.4787112625505352 -0.1264710170748572
-0.08504021965646606 0.41570654054061545 -0.1264710170748572
0.38140704682224824 0.5445685060404644 -0.1264710170748572
-0.17034815168484235 0.3742480487389232 -0.1264710170748572
0.502819223214111 0.21819019883742968 -0.1264710170748572
0.2761683902782064 0.5813835729086785 -0.1264710170748572
0.11266075126872675 0.19206516392342635 -0.1264710170748572
0.37831450735362937 0.1844769028989349 -0.1264710170748572
0.02433413146053453 0.19976420248112206 -0.1264710170748572
0.1720098146829061 0.5632345203853815 -0.1264710170748572
0.3719171048110837 0.5599665831558558 -0.1264710170748572
0.15619632181799883 0.2957529350026085 -0.1264710170748572
0.21442837843903523 0.479302076060958 -0.1264710170748572
0.6089810258681883 0.5173541587166194 -0.1252709271318111
0.3658151090237493 0.32281957894884805 -0.1252709271318111
0.6576215944059564 0.3405809101059303 -0.1252709271318111
-0.07253158986548562 0.32281957894884805 -0.1252709271318111
0.370338524962923 0.47967133450497207 -0.12462472485478628
-0.05669963407837768 0.42560266684019554 -0.12462472485478628
0.39086006298901127 0.48833044501710465 -0.12462472485478628
-0.1476756832223716 0.39661587898508227 -0.12462472485478628
-0.16148594902850205 0.38623971670828383 -0.12462472485478628
0.186743226599072 0.16934653815545384 -0.12462472485478628
0.5689164846926494 0.25581763428247484 -0.12462472485478628
-0.17587779688395477 0.3487692161019447 -0.12462472485478628
0.40224245452574847 0.19352373477728238 -0.12462472485478628
0.1934914246634311 0.17979655212105522 -0.12462472485478628
0.17967192739620036 0.5680995003852681 -0.12462472485478628
0.39305715073089564 0.5606681741994829 -0.12462472485478628
0.5377510720178528 0.49025982038707877 -0.12462472485478628
0.22726010936852803 0.4755264084709129 -0.12462472485478628
0.13711489172356595 0.31155719640641555 -0.12462472485478628
0.4266042803695839 0.14044283345024378 -0.12342463491174019
0.7062529314826241 0.3129973043380709 -0.12342463491174019
0.22341982155078058 0.5903103957927213 -0.12342463491174019
-0.01110544770372654 0.4808806559091185 -0.12342463491174019
0.09813966295786912 0.5460916971220231 -0.12277843263471536
0.6621911676506319 0.3652104483216761 -0.12277843263471536
0.21345907502349795 0.16357687496773224 -0.12277843263471536
0.38705670101566514 0.2023951688947231 -0.12277843263471536
0.2008858250048151 0.17617781936971616 -0.12277843263471536
0.6520550233624425 0.37248483966875545 -0.12277843263471536
0.19331602690252445 0.5624313832696505 -0.12277843263471536
0.0975396179863461 0.5528768210307835 -0.12277843263471536
0.16511391324094127 0.2750098419101119 -0.12277843263471536
0.12636023954165299 0.3102647918523659 -0.12277843263471536
-0.027915938367472137 0.31466819879723507 -0.12277843263471536
-0.17076356743435833 0.2161777403175525 -0.12277843263471536
-0.13710566026246568 0.377912938795764 -0.12277843263471536
-0.18212749604889472 0.2995378340537539 -0.12277843263471536
0.2186471561618973 0.15384691496795855 -0.12231685957969765
0.23993490545931487 0.4808806559091185 -0.12157834269166928
0.730568600020958 0.4322400873713504 -0.12157834269166928
0.24251048310631373 0.15298838908562554 -0.12157834269166928
0.482768489704141 0.20718629720580714 -0.12093214041464447
0.18412149164657124 0.16668787735855176 -0.12093214041464447
0.39169089448804306 0.19889644513768878 -0.12093214041464447
0.35470042985892253 0.45912210209558285 -0.12093214041464447
0.23120194325837948 0.5637237878237001 -0.12093214041464447
0.4681643182433802 0.538309575414424 -0.12093214041464447
0.08667418827122875 0.18808640418917355 -0.12093214041464447
0.537575674256946 0.24269049659777073 -0.12093214041464447
0.18195209828798795 0.2942574383043512 -0.12093214041464447
-0.033879462238301176 0.3153144010742598 -0.12093214041464447
-0.064287895102869 0.3081415557992843 -0.12093214041464447
-0.14085363346920968 0.38143935693609937 -0.12093214041464447
0.6697794286751233 0.2596856164835234 -0.11973205047159836
-0.07189461904956113 0.32506282399623415 -0.11973205047159836
0.2080494388186902 0.25954714456701805 -0.11973205047159836
0.6089810258681883 0.5318567841052764 -0.11973205047159836
0.06797124808191048 0.18795716373376864 -0.11908584819457356
0.3617901919839948 0.18669245356302006 -0.11908584819457356
0.3939433709965296 0.2539898049846046 -0.11908584819457356
0.4136986977512883 0.23845325595270797 -0.11908584819457356
0.2445690989316928 0.16909728870574425 -0.11908584819457356
0.5897980497016515 0.4587159178071673 -0.11908584819457356
0.10256153282493893 0.5570217470648428 -0.11908584819457356
0.5207097948265983 0.5127291967053417 -0.11908584819457356
0.15899345453140623 0.4528631714695425 -0.11908584819457356
-0.09771501574725289 0.3999576679034106 -0.11908584819457356
-0.05388403844276948 0.3133480998598843 -0.11908584819457356
-0.14758336861136812 0.46504870012201044 -0.11908584819457356
0.25206504534518065 0.149120406884577 -0.11862427513955583
-0.10836812185706199 0.4353695526843707 -0.11788575825152746
0.24422753487097976 0.5075411155669424 -0.11788575825152746
0.6816695505723799 0.37546660160417006 -0.11788575825152746
0.39506960925077284 0.4801236760988895 -0.11723955597450264
0.29092949657767336 0.5631329743132776 -0.11723955597450264
0.24453217308729133 0.5890641485441734 -0.11723955597450264
0.38929071460195097 0.5769524715805082 -0.11723955597450264
0.2715895855724306 0.5763247322256843 -0.11723955597450264
0.13307151176161064 0.18644320411331047 -0.11723955597450264
0.30837695805734344 0.1700112033546794 -0.11723955597450264
0.10058600014946308 0.19207439538452675 -0.11723955597450264
0.18536773889511915 0.29410973492674547 -0.11723955597450264
-0.06143537362285948 0.45932519423979074 -0.11723955597450264
-0.082123077948754 0.34203948095978615 -0.11723955597450264
-0.13382849157183976 0.3737310869173034 -0.11723955597450264
-0.11791345263482864 0.3783929747729824 -0.11677798291948492
0.3701077384354142 0.4079244188330165 -0.11603946603145657
0.6940950972134571 0.35929308175634894 -0.11603946603145657
-0.023263281972893537 0.2909341123082235 -0.11603946603145657
0.5446192790765165 0.2377239705257799 -0.11539326375443174
0.3485245823827852 0.16175827713096239 -0.11539326375443174
0.11493169069941406 0.17487618335456623 -0.11539326375443174
0.19736863832558005 0.18983115033714051 -0.11539326375443174
0.4054550029886717 0.17973193189335268 -0.11539326375443174
0.26649381904503483 0.5777833030795402 -0.11539326375443174
0.41152930439270513 0.5463132521884315 -0.11539326375443174
0.16468003456922464 0.2852936895759069 -0.11539326375443174
0.012268611802371125 0.43151080194442243 -0.11539326375443174
-0.10647567233148933 0.3947141979984092 -0.11539326375443174
-0.0929423503583695 0.35244333761988583 -0.11539326375443174
-0.14482316174236207 0.3578437423635932 -0.11539326375443174
-0.10830350162935946 0.34464275299008623 -0.114931690699414
0.7670421028284587 0.38360875029468267 -0.11419317381138565
0.23665773676868895 0.4895489978823515 -0.11419317381138565
0.23206970060181276 0.22554767333441222 -0.11419317381138565
0.39941762742903986 0.2623719716637265 -0.11354697153436082
0.37202788234428796 0.25836551754617265 -0.11354697153436082
0.37476039482999296 0.2823950107903955 -0.11354697153436082
0.22640158348619502 0.1757070148535982 -0.11354697153436082
0.2613980525176392 0.5780602469125508 -0.11354697153436082
0.5824682695879702 0.47395706008385263 -0.11354697153436082
0.012259380341270857 0.4312246266503114 -0.11354697153436082
0.1640707581366012 0.4754617882432104 -0.11354697153436082
-0.06067839381263047 0.42666428486673624 -0.11354697153436082
-0.03623348481889155 0.4585682144295616 -0.11354697153436082
-0.09413320884031527 0.4085060008823389 -0.11354697153436082
-0.14469392128695713 0.34923078915696243 -0.11354697153436082
0.2950190338451304 0.1433969010023573 -0.11308539847934311
-0.11843964591754874 0.3502554813391017 -0.11234688159131474
0.3706062373348334 0.33497741321801505 -0.11234688159131474
0.6697794286751233 0.4832162155675082 -0.11234688159131474
0.38556120431740765 0.18269523090656647 -0.11170067931428992
0.3519309915288161 0.18062738362008704 -0.11170067931428992
0.30992784352220293 0.18062738362008704 -0.11170067931428992
0.38566275038951164 0.27873935219465507 -0.11170067931428992
0.5053855694000098 0.2149130301468039 -0.11170067931428992
0.3127711335411122 0.5721705747305246 -0.11170067931428992
0.1630829917988633 0.2895401616820699 -0.11170067931428992
0.012333232030073653 0.43453872118533876 -0.11170067931428992
-0.07782121707598884 0.426655053405636 -0.11170067931428992
-0.09658877749300963 0.35545279393860135 -0.11170067931428992
-0.07119302800593424 0.41639890012314207 -0.11170067931428992
-0.14341074819400776 0.3606962638436027 -0.11170067931428992
0.33320958841729714 0.5956831061531275 -0.11123910625927219
0.3658151090237493 0.4079244188330165 -0.11050058937124382
0.687273047460295 0.35929308175634894 -0.11050058937124382
-0.023263281972893537 0.2909341123082235 -0.11050058937124382
0.2618411626504561 0.15776105447450892 -0.10985438709421902
0.19388837749074642 0.16512776043259186 -0.10985438709421902
0.294252822573801 0.1463232741711696 -0.10985438709421902
0.37908995008605917 0.4698398284330945 -0.10985438709421902
0.40541807714427036 0.17690710479664423 -0.10985438709421902
0.26726003031636425 0.5723275095692305 -0.10985438709421902
0.616366194748472 0.4472873689649284 -0.10985438709421902
0.18649397714936242 0.45438636255110093 -0.10985438709421902
-0.025349592181573653 0.3912985573912781 -0.10985438709421902
-0.11552250420983681 0.3824640491182387 -0.10985438709421902
-0.028968324932912598 0.36869994061761013 -0.10985438709421902
-0.15010355749176488 0.39608045424126176 -0.10985438709421902
-0.09162225142101879 0.4361542268779008 -0.10939281403920129
-0.01110544770372654 0.4808806559091185 -0.10865429715117292
0.3414902090243151 0.1440800291237835 -0.10865429715117292
0.3801607995737003 0.5903011643316208 -0.10865429715117292
0.631182689814541 0.3044120455147411 -0.1080080948741481
0.5533337783552511 0.23215739948226616 -0.1080080948741481
0.4036087107686009 0.1636784210398361 -0.1080080948741481
0.3873982650763783 0.33386963788597246 -0.1080080948741481
0.39315869680299953 0.1779502599009843 -0.1080080948741481
0.23996259984261592 0.5746076804610182 -0.1080080948741481
0.3318064063300432 0.5801373256601305 -0.1080080948741481
0.21471455373314627 0.4754525567821101 -0.1080080948741481
-0.02354945726700445 0.46138381006516976 -0.1080080948741481
-0.11140527255907857 0.34167945397687244 -0.1080080948741481
-0.054650249714098896 0.42808592987619093 -0.1080080948741481
-0.1560763128236942 0.3519817645648681 -0.1080080948741481
0.645454528675689 0.2353699479451895 -0.10680800493110203
0.645454528675689 0.27417901041107995 -0.10680800493110203
0.12263996071821004 0.46872282163995166 -0.10680800493110203
-0.1465032876626266 0.3562743939765329 -0.1061618026540772
-0.11035288599363825 0.3377930088536231 -0.1061618026540772
-0.06125997586195282 0.41037998748571086 -0.1061618026540772
0.019579928993851935 0.44020683830095636 -0.1061618026540772
0.1490696338485251 0.4471858228928244 -0.1061618026540772
0.41155699877600604 0.4819515053967596 -0.1061618026540772
0.21605311559269763 0.5637053249014994 -0.1061618026540772
0.4433870766500286 0.5690964981841065 -0.1061618026540772
0.31401738078965996 0.16809105944580566 -0.1061618026540772
0.2993208947178955 0.5830083100623408 -0.1061618026540772
0.5495673422263067 0.505556351430366 -0.1061618026540772
0.38764751452608776 0.4519492568206074 -0.1061618026540772
-0.10594024758766869 0.325681331889958 -0.10570022959905946
0.3658151090237493 0.4200822531021835 -0.10496171271103111
0.7427264342901249 0.4200822531021835 -0.10496171271103111
-0.1347424062207749 0.29666684965154366 -0.10431551043400628
-0.06575569741782543 0.34179946297117697 -0.10431551043400628
-0.049960667475118826 0.3186100326870864 -0.10431551043400628
0.13249916117338867 0.3062675691959123 -0.10431551043400628
0.07088838978962253 0.44302243393656454 -0.10431551043400628
0.4109107964989813 0.48149916380284236 -0.10431551043400628
0.3251043655711858 0.5956461803087262 -0.10431551043400628
0.48481787406841975 0.5544738638011448 -0.10431551043400628
0.3052013354388214 0.15718870388628697 -0.10431551043400628
0.6733058468154588 0.382417891812737 -0.10431551043400628
0.27470058796325 0.5796111323774104 -0.10431551043400628
0.280922592744889 0.1632906996736212 -0.10431551043400628
-9.323775711358002E-4 0.4808806559091185 -0.10385393737898857
0.7184107657517911 0.4345848784908405 -0.1031154204909602
0.37185248458338116 0.32281957894884805 -0.1031154204909602
-0.1378349456893936 0.3002394250973809 -0.10246921821393538
-0.08896359062411671 0.34136558429946035 -0.10246921821393538
-0.07881821487482704 0.4208484643735129 -0.10246921821393538
0.13393926910504403 0.4337355840696079 -0.10246921821393538
0.10246921821393534 0.44770278471444436 -0.10246921821393538
0.373329518359438 0.48076064691481385 -0.10246921821393538
0.24897250587656194 0.5680533430797664 -0.10246921821393538
0.3835949031030322 0.5855654247871389 -0.10246921821393538
0.2873199952874347 0.161592110831156 -0.10246921821393538
0.3052659556665239 0.5761585659258779 -0.10246921821393538
0.5859300675006031 0.4824500042961788 -0.10246921821393538
0.38225634124348085 0.47725269169667917 -0.10246921821393538
0.645454528675689 0.22554767333441222 -0.10126912827088928
0.5360340202531868 0.1914189616464016 -0.10126912827088928
0.0010523865654403263 0.4808806559091185 -0.10126912827088928
-0.11110986580386727 0.33562361549503983 -0.10062292599386448
-0.10155530356500034 0.38697823359631217 -0.10062292599386448
-0.05799203863242719 0.29666684965154366 -0.10062292599386448
0.2336667433721741 0.27037564843773393 -0.10062292599386448
0.6631050822995669 0.4093552953035715 -0.10062292599386448
0.6155169003272393 0.27492675876020867 -0.10062292599386448
0.5380095529286626 0.21301134916013084 -0.10062292599386448
0.3203870889489047 0.1567640566756706 -0.10062292599386448
0.42577344887055196 0.5610282011823966 -0.10062292599386448
0.4083444503130828 0.5696780802334289 -0.10062292599386448
0.6523688930398547 0.32627214540038063 -0.10062292599386448
0.6089810258681883 0.5318567841052764 -0.09942283605081838
0.40294404556937535 0.23770550760357922 -0.09942283605081838
-0.08826199958048983 0.33368500866396544 -0.09877663377379356
-0.115660976126342 0.3498031397451844 -0.09877663377379356
-0.05345015977105285 0.30387662077092065 -0.09877663377379356
0.13042208242580894 0.4327108918874685 -0.09877663377379356
0.504693209817483 0.2018135868454007 -0.09877663377379356
0.36935075862518507 0.15669943644796808 -0.09877663377379356
0.31234648633049583 0.14451390779550013 -0.09877663377379356
0.2779131364261733 0.17530083056518247 -0.09877663377379356
0.34027165615906835 0.16147210183685146 -0.09877663377379356
0.38159167604425526 0.5705089117324607 -0.09877663377379356
0.6780323548988404 0.3575575670694823 -0.09877663377379356
0.3933248631028059 0.592202845318294 -0.09757654383074749
0.40513190185015935 0.22554767333441222 -0.09757654383074749
-0.05897057350906485 0.33311265807574336 -0.09757654383074749
-0.11132218940917538 0.35452041636746556 -0.09693034155372265
-0.0807291273226005 0.4170543338612672 -0.09693034155372265
0.17720712728240573 0.2932973663499143 -0.09693034155372265
0.07086992686742173 0.29986093519226636 -0.09693034155372265
0.4189329361951894 0.5579264302526774 -0.09693034155372265
0.37746521293239677 0.5650900440665526 -0.09693034155372265
0.4078551828747638 0.5555631762109866 -0.09693034155372265
0.6558491538746882 0.3257551835787608 -0.09693034155372265
0.32719990724096637 0.5854915730983362 -0.09693034155372265
0.4341094582441723 0.19251750551734378 -0.09693034155372265
0.5117183517148528 0.580488121181944 -0.09573025161067657
0.12263996071821004 0.27417901041107995 -0.09573025161067657
-0.14039206041419183 0.39770519139492405 -0.09508404933365174
-0.08182767119354269 0.3277491791764375 -0.09508404933365174
-0.0849202106621614 0.34195639780988313 -0.09508404933365174
0.13249916117338867 0.4366157999329185 -0.09508404933365174
0.11827347961774234 0.44302243393656454 -0.09508404933365174
0.37687439942197415 0.27426209356098313 -0.09508404933365174
0.37334798128163865 0.25481140502253613 -0.09508404933365174
0.41904371372839366 0.1924159594452398 -0.09508404933365174
0.43974064951538844 0.19573005398026716 -0.09508404933365174
0.35382344105438884 0.5899780631931084 -0.09508404933365174
0.6211388601373552 0.24005029872306932 -0.09388395939060566
0.7427264342901249 0.33497741321801505 -0.09388395939060566
0.40987687285574165 0.5051963244474523 -0.09388395939060566
-0.10559868352695566 0.3875136583401326 -0.09323775711358084
-0.0932562200357816 0.399809964525805 -0.09323775711358084
0.15470082511974134 0.29122951906343486 -0.09323775711358084
0.15606708136259378 0.4595559807672995 -0.09323775711358084
0.6760014334567623 0.34184562027667886 -0.09323775711358084
0.6789370380866749 0.3396485325347945 -0.09323775711358084
0.6992185581241539 0.37717442190773565 -0.09323775711358084
0.6375893238181871 0.443373229458378 -0.09323775711358084
0.439131373082765 0.4892720540493408 -0.09323775711358084
0.44262086537869916 0.19140049872420078 -0.09323775711358084
0.5117183517148528 0.580488121181944 -0.09203766717053474
0.12263996071821004 0.27417901041107995 -0.09203766717053474
-0.059736784780394264 0.4322400873713504 -0.09203766717053474
-0.08581566238889587 0.4333386312422926 -0.09139146489350994
-0.08216000379315547 0.33978700445129967 -0.09139146489350994
0.18109357240565493 0.2909064179249225 -0.09139146489350994
0.18473076807919467 0.27548064642623 -0.09139146489350994
0.3773728983213932 0.27407746433897606 -0.09139146489350994
0.3770590286439812 0.25362054654059046 -0.09139146489350994
0.3896415101237644 0.3421502584929904 -0.09139146489350994
0.6494055940266409 0.4254641949236902 -0.09139146489350994
0.44325783619462356 0.5558124256606963 -0.09139146489350994
0.4204192014323465 0.17782101944557938 -0.09139146489350994
0.6078178617695436 0.2689355405060786 -0.09139146489350994
0.645454528675689 0.4808806559091185 -0.09019137495046384
0.37360646219244864 0.32281957894884805 -0.09019137495046384
-0.13597019054712203 0.3549266006558811 -0.08954517267343902
-0.09775194159165422 0.4053396097249174 -0.08954517267343902
-0.09792733935256101 0.34011933705091246 -0.08954517267343902
0.019579928993851935 0.30267653082787443 -0.08954517267343902
0.18515541528981103 0.46699653841418526 -0.08954517267343902
0.6837373978588595 0.34735680255359047 -0.08954517267343902
0.6325489460573933 0.4623715764029077 -0.08954517267343902
0.48612874154467006 0.5621267450533388 -0.08954517267343902
0.6915933712552611 0.37410957682241786 -0.08954517267343902
0.4409592023806353 0.3467567575820674 -0.08954517267343902
0.41193548868112057 0.5718105477476109 -0.08954517267343902
0.4948155464401037 0.17691633625774464 -0.08834508273039293
0.6940950972134571 0.26202117614191306 -0.08834508273039293
0.1469556292565439 0.4794128535941621 -0.08834508273039293
-0.08789274113647559 0.4104446077134134 -0.08769888045336811
-0.0858618196943976 0.363281072951702 -0.08769888045336811
0.019579928993851935 0.29178340672945613 -0.08769888045336811
0.17377302375307385 0.42226087792186723 -0.08769888045336811
0.6827127056767199 0.3442919574682728 -0.08769888045336811
0.6264838761144605 0.4699321430440981 -0.08769888045336811
0.4100153447722468 0.5864054877472712 -0.08769888045336811
0.4857779460228565 0.23549918840059444 -0.08769888045336811
0.48211305596601584 0.3664659270313243 -0.08769888045336811
0.6949443916346898 0.3714970733310175 -0.08769888045336811
0.5117183517148528 0.5903011643316208 -0.08649879051032203
0.12263996071821004 0.2634889784568695 -0.08649879051032203
-0.06047530166842261 0.3457597597832291 -0.08649879051032203
-0.10777730834663923 0.3766020713195137 -0.0858525882332972
0.0033602518405289614 0.29666684965154366 -0.0858525882332972
0.13063440603111706 0.31241572228874853 -0.0858525882332972
0.1616798097116094 0.4258519162899051 -0.0858525882332972
0.44981217357587533 0.5405620519229105 -0.0858525882332972
0.37981923551298713 0.4843332223606511 -0.0858525882332972
0.3594454008645047 0.4608576167824495 -0.0858525882332972
0.477146529894025 0.20274596441653653 -0.0858525882332972
0.46763812496066004 0.4859302651310124 -0.0858525882332972
0.45522180978068294 0.1920374695401253 -0.0858525882332972
0.5171464508418615 0.20412145212048935 -0.0858525882332972
0.6576215944059564 0.45656498737078466 -0.08465249829025112
0.3658151090237493 0.32135177663389164 -0.08465249829025112
-0.1425891481560762 0.30079331276340215 -0.0840062960132263
-0.08546486686708242 0.34773529245870494 -0.0840062960132263
0.17662554523308338 0.29278040452829435 -0.0840062960132263
0.11368544345086615 0.2957160091582072 -0.0840062960132263
0.3838164581694407 0.3857689121921657 -0.0840062960132263
0.4380697550562244 0.2620027132197124 -0.0840062960132263
0.3769390196496765 0.14717256859240221 -0.0840062960132263
0.5201743700827776 0.5495627264957564 -0.0840062960132263
0.49960667475118775 0.22692316103836505 -0.0840062960132263
0.47821737938166625 0.32667832968879634 -0.0840062960132263
0.6103842079554422 0.2647075313221162 -0.0840062960132263
0.6261238491315466 0.22554767333441222 -0.0828062060701802
0.645454528675689 0.25220813299223616 -0.0828062060701802
0.20835407703500192 0.48941052596584605 -0.0828062060701802
-0.07209771119376898 0.3556743490050099 -0.0821600037931554
-0.023512531422602987 0.30599985682400205 -0.0821600037931554
0.21097581198750265 0.47565564892631784 -0.0821600037931554
0.11795960994033024 0.44883825442978786 -0.0821600037931554
0.4355218717925265 0.2519127262370249 -0.0821600037931554
0.7020710796041635 0.37467269594953956 -0.0821600037931554
0.4639455405205182 0.5319398672551794 -0.0821600037931554
0.47375858367019497 0.4803359997041976 -0.0821600037931554
0.42767512985722517 0.17282679899028747 -0.0821600037931554
0.4409407394584345 0.5624406147307508 -0.0821600037931554
0.5155678709937006 0.22025804612390915 -0.0821600037931554
0.4429993552838137 0.24578303606638943 -0.0809599138501093
0.39349102940261227 0.5983325354889293 -0.0809599138501093
-0.09807504273016672 0.32807228031494984 -0.0809599138501093
-0.10036444508305456 0.4061427468406481 -0.08031371157308448
0.17670862838298657 0.4523277467257219 -0.08031371157308448
0.1581626230323743 0.2930481169002047 -0.08031371157308448
0.1280495969230178 0.4424316204261418 -0.08031371157308448
0.36222407065571144 0.4881181214117965 -0.08031371157308448
0.46461020571974376 0.19317293925546894 -0.08031371157308448
0.6763522289785757 0.3208717406566733 -0.08031371157308448
0.38564428746731083 0.5948338117318951 -0.08031371157308448
0.49936665676257846 0.4447764115456319 -0.08031371157308448
0.6106611517884529 0.47585874107052567 -0.08031371157308448
0.5170818306141589 0.5058702211077784 -0.08031371157308448
0.4525446860615802 0.22369214965324102 -0.07911362163003839
0.6211388601373552 0.49505094869816285 -0.07911362163003839
-0.08308314990319086 0.4302737861569749 -0.07911362163003839
-0.1018230159369106 0.39049542027554723 -0.07846741935301357
-0.026632765274522897 0.3080123153438794 -0.07846741935301357
0.1658893559733711 0.348021467752816 -0.07846741935301357
0.381323963672345 0.46047912687733505 -0.07846741935301357
0.6730473659046488 0.42272245097688493 -0.07846741935301357
0.4551479580918803 0.5530060614861886 -0.07846741935301357
0.4948524722845051 0.5251362804242181 -0.07846741935301357
0.5023391872368926 0.20820175792684611 -0.07846741935301357
0.46199770222834324 0.5569386639149395 -0.07846741935301357
0.3666182461394802 0.4322400873713504 -0.07800584629799584
0.6576215944059564 0.4953740498366752 -0.07726732940996749
0.4599760122473657 0.22765244646529315 -0.07726732940996749
-0.0630693422376223 0.34713524748718194 -0.07726732940996749
-0.09921051244551024 0.4045272411480861 -0.07662112713294265
-0.015970427703613392 0.4562972749988744 -0.07662112713294265
0.3872690246209733 0.4117647066507641 -0.07662112713294265
0.43400791217206847 0.28726922225138274 -0.07662112713294265
0.36720905964990286 0.5776263682408341 -0.07662112713294265
0.3610239807126653 0.17173748658044566 -0.07662112713294265
0.48563947410635133 0.5470517690764598 -0.07662112713294265
0.5113490932708387 0.20594004995725923 -0.07662112713294265
0.5053855694000098 0.4159096326848233 -0.07662112713294265
0.5492257781655935 0.2943774472986557 -0.07662112713294265
0.6576215944059564 0.2475277822143564 -0.07542103718989658
0.3756004577901252 0.4353695526843707 -0.07542103718989658
0.46209001683934675 0.2498633418727461 -0.07542103718989658
-0.1102328769993336 0.39448341147090044 -0.07542103718989658
-0.07211617411596964 0.4215223610338389 -0.07477483491287176
0.1591873152145137 0.2664430460089829 -0.07477483491287176
0.4493782949041587 0.25767315796364604 -0.07477483491287176
0.6258561367596364 0.2686309022897669 -0.07477483491287176
0.3754250600292184 0.596892427557274 -0.07477483491287176
0.4689766868202113 0.19687475515671107 -0.07477483491287176
0.5073703335365858 0.5356232202342208 -0.07477483491287176
0.5159648238210159 0.26132881655938645 -0.07477483491287176
0.5878132855650752 0.5022514883564394 -0.07477483491287176
0.46762889349955966 0.2985039104105142 -0.07357474496982568
-0.0927023323697603 0.34791069021961174 -0.07357474496982568
0.6697794286751233 0.28866317287753623 -0.07357474496982568
-0.07834741035870907 0.41758975860508785 -0.07292854269280086
0.1826075320261131 0.28764771215649726 -0.07292854269280086
0.3737172397256528 0.4167035383394538 -0.07292854269280086
0.5612728349015559 0.21883640111445457 -0.07292854269280086
0.41731743050262726 0.5850576944266196 -0.07292854269280086
0.4441348249991572 0.18850181993868953 -0.07292854269280086
0.5265256153198216 0.43937600680192457 -0.07292854269280086
0.5514505602907788 0.23332979504201112 -0.07292854269280086
0.6505133693586833 0.448136663386161 -0.07292854269280086
0.1469556292565439 0.46872282163995166 -0.07172845274975477
0.35542048382475006 0.2852936895759069 -0.07172845274975477
0.5288519435171107 0.18481846695964807 -0.07172845274975477
-0.09848122701858229 0.39515730813122624 -0.07108225047272995
0.16035971077425867 0.4731169971237204 -0.07108225047272995
0.38029927149020565 0.38994153260952596 -0.07108225047272995
0.3740034150197638 0.5776725255463359 -0.07108225047272995
0.39547579353918855 0.15128056878206006 -0.07108225047272995
0.6337767303837406 0.48029907385979614 -0.07108225047272995
0.5368371573689176 0.5114183292290914 -0.07108225047272995
0.561688250651072 0.2287048330307336 -0.07108225047272995
0.5419329238963132 0.5233453769707495 -0.07108225047272995
0.4439040384716483 0.4977742297227673 -0.06988216052968384
0.7670421028284587 0.37291871834047224 -0.06988216052968384
0.23538379513684 0.25220813299223616 -0.06988216052968384
-0.061610771383766263 0.3643057651338414 -0.06923595825265902
0.21185280079203633 0.48158224695274554 -0.06923595825265902
0.38228403562678187 0.46190077188678963 -0.06923595825265902
0.6296871931162834 0.2679016168628389 -0.06923595825265902
0.5052840233279057 0.5584710864575984 -0.06923595825265902
0.5356924561924736 0.5079657627775589 -0.06923595825265902
0.5628144889053152 0.42131926888963106 -0.06923595825265902
0.5324337504240484 0.5272318220939987 -0.06923595825265902
0.41896986203959075 0.5788356896449806 -0.06923595825265902
0.2211304191978926 0.4906936990587954 -0.06803586830961295
0.47523561744625165 0.6024682300618882 -0.06803586830961295
-0.061324596089655216 0.39267404509523096 -0.06738966603258811
-0.02776823498986655 0.46506716304421125 -0.06738966603258811
0.16538162561285152 0.34852919811333544 -0.06738966603258811
0.3801515681125999 0.2497064070340401 -0.06738966603258811
0.6596802102313355 0.44713966558732265 -0.06738966603258811
0.5481364657557516 0.4993158837265265 -0.06738966603258811
0.5582449156606398 0.46257466854711543 -0.06738966603258811
0.6617111316734136 0.4406591798948738 -0.06738966603258811
0.5896872721684472 0.4735878016398384 -0.06738966603258811
0.7184107657517911 0.3106617446796812 -0.06618957608954204
0.38383492109164136 0.24362287416890652 -0.06618957608954204
-0.051474627095576986 0.3714509160255158 -0.06618957608954204
-0.07878128903042571 0.3529695309026061 -0.06554337381251722
0.16204906815562362 0.4738093567062469 -0.06554337381251722
0.38105625130043463 0.2764591813028675 -0.06554337381251722
0.44589803406932493 0.17912265546072928 -0.06554337381251722
0.7169060375924332 0.37866991860599303 -0.06554337381251722
0.3955588766890916 0.567804093630057 -0.06554337381251722
0.5839637662862276 0.3528679848305021 -0.06554337381251722
0.6046883964565234 0.47673572987505936 -0.06554337381251722
0.6832665933427412 0.4164173630453427 -0.06554337381251722
0.499560517445686 0.5173541587166194 -0.06434328386947114
0.5846653573298545 0.5440146183744433 -0.06434328386947114
-0.06546029066261412 0.3736018464618984 -0.06369708159244632
-0.02776823498986655 0.30387662077092065 -0.06369708159244632
0.1728960349485402 0.34102402023874717 -0.06369708159244632
0.37139091152836345 0.4080905851328229 -0.06369708159244632
0.5598973471976033 0.23200969610466043 -0.06369708159244632
0.4917322384325853 0.17360224172271727 -0.06369708159244632
0.6832204360372395 0.3250351296129331 -0.06369708159244632
0.5945430207072337 0.34548281595021846 -0.06369708159244632
0.6110027158491658 0.28667840874096 -0.06369708159244632
0.1469556292565439 0.46872282163995166 -0.06249699164940024
0.3731264262152301 0.35293260505820456 -0.06249699164940024
0.7062529314826241 0.28633684468024695 -0.06249699164940024
-0.07866128003612105 0.4204053542406959 -0.06185078937237541
0.22926333642730495 0.45865129757946477 -0.06185078937237541
0.3752127364239103 0.3115756593286162 -0.06185078937237541
0.5609866596074451 0.22948027576316327 -0.06185078937237541
0.694999780401292 0.3281645949259534 -0.06185078937237541
0.3779821747540166 0.5988402658494489 -0.06185078937237541
0.6215727388090718 0.3000732587975745 -0.06185078937237541
0.5899642160014579 0.4506937781109592 -0.06185078937237541
-0.04757895051122727 0.35929308175634894 -0.060650699429329304
0.45735427729486505 0.4200822531021835 -0.060650699429329304
0.5360340202531868 0.5781433300624539 -0.060650699429329304
0.5603496887915205 0.17691633625774464 -0.060650699429329304
-0.02500802812086048 0.3022518836172582 -0.06000449715230448
0.1650400615521385 0.4179959428935034 -0.06000449715230448
0.3831333300480145 0.2537128611515939 -0.06000449715230448
0.47384166682009826 0.5688749431176979 -0.06000449715230448
0.4810145120950736 0.19700399561211598 -0.06000449715230448
0.6005619333446648 0.4592882683953893 -0.06000449715230448
0.6135321361906629 0.26338743238476553 -0.06000449715230448
0.7112471519379159 0.36173941894794276 -0.06000449715230448
0.4496644701982697 0.4977003780339644 -0.0588044072092584
0.3736249251146493 0.34246412817040256 -0.0588044072092584
0.6727058018439358 0.4734954870288349 -0.0588044072092584
-0.06404787711425983 0.3992283824764826 -0.05815820493223358
0.1595565736585278 0.2695817427831035 -0.05815820493223358
0.4477258633671952 0.2553652926885574 -0.05815820493223358
0.40740284128084664 0.15360689697934937 -0.05815820493223358
0.7183738399073895 0.38378414805558947 -0.05815820493223358
0.41092925942118214 0.5986187107830404 -0.05815820493223358
0.6158861587712536 0.47712345124127425 -0.05815820493223358
0.6097287742173171 0.2714557293864755 -0.05815820493223358
0.6768968851834966 0.4620946325698971 -0.05769663187721585
-0.0914560851212124 0.32500743522963205 -0.0569581149891875
0.4578527761942842 0.35929308175634894 -0.0569581149891875
0.6376170182014881 0.4930384901782854 -0.0569581149891875
0.5882287013145913 0.21338983906524536 -0.0569581149891875
0.22513687331544646 0.2805487185703247 -0.056311912712162675
0.37963460629098006 0.31114178065689957 -0.056311912712162675
0.44181772826296817 0.4823207638407739 -0.056311912712162675
0.5491888523211919 0.2016843463899958 -0.056311912712162675
0.656698448295921 0.46707962156408844 -0.056311912712162675
0.6141506440843868 0.2665722864643878 -0.056311912712162675
0.6483070501556988 0.41055538524661767 -0.056311912712162675
0.6368415754690583 0.2968884047179522 -0.056311912712162675
-0.08684958603213552 0.34411655970736604 -0.05585033965714494
-0.07445173377435935 0.3320510400492026 -0.055111822769116595
0.499560517445686 0.32281957894884805 -0.055111822769116595
0.6530243267779798 0.4805113974651043 -0.055111822769116595
0.4511876612798282 0.15260066771941078 -0.055111822769116595
-0.06256161187710273 0.4148203202749814 -0.054465620492091776
0.1700896707740324 0.4681966283572314 -0.054465620492091776
0.44663655095735344 0.25029722054446285 -0.054465620492091776
0.700187861539691 0.33519896828442347 -0.054465620492091776
0.6629666103830617 0.46390399894556655 -0.054465620492091776
0.6155169003272393 0.5034977356049871 -0.054465620492091776
0.6736474108761717 0.3094247288922337 -0.054465620492091776
0.6523965874231556 0.2925034606952837 -0.054465620492091776
0.6322627707632825 0.2990024093099334 -0.054465620492091776
0.6625696575557464 0.4808806559091185 -0.05400404743707404
0.1469556292565439 0.46872282163995166 -0.053265530549045696
0.3658151090237493 0.34713524748718194 -0.053265530549045696
0.7427264342901249 0.4102692099525066 -0.053265530549045696
-0.07341781013111968 0.35620054228773007 -0.05261932827202087
-0.08226154986525933 0.4078136412998123 -0.05261932827202087
0.39055542477269956 0.4667380575033754 -0.05261932827202087
0.38280099744840174 0.2693509562555946 -0.05261932827202087
0.49168608112708356 0.19174206278491396 -0.05261932827202087
0.5099089853391833 0.17833798126719919 -0.05261932827202087
0.6064054482211894 0.25310358471897065 -0.05261932827202087
0.6461468882582158 0.2824873254013991 -0.05261932827202087
0.6579908528499705 0.3737864756839055 -0.05261932827202087
0.7007602121279132 0.4322400873713504 -0.05215775521700314
0.4586005245434128 0.44440715310161777 -0.05141923832897476
0.14872806978781192 0.34713524748718194 -0.05141923832897476
0.7670421028284587 0.3714509160255158 -0.05141923832897476
-0.086886511876537 0.36595819667080487 -0.05077303605194994
0.21411450876162325 0.2682339494624517 -0.05077303605194994
0.38833987410861437 0.42073768684030866 -0.05077303605194994
0.3731448891374308 0.3209363608843758 -0.05077303605194994
0.6207049814656386 0.47519407587130014 -0.05077303605194994
0.627093152547084 0.27935786008837893 -0.05077303605194994
0.6181294038186397 0.27511138798221574 -0.05077303605194994
0.6798878785800115 0.3572621603142708 -0.05077303605194994
0.6435343847668152 0.45938058300639284 -0.05077303605194994
0.7055328775167964 0.44440715310161777 -0.05031146299693224
0.7670421028284587 0.35929308175634894 -0.04957294610890386
0.23538379513684 0.25220813299223616 -0.04957294610890386
0.4533016658718092 0.24583842483299156 -0.04957294610890386
-0.08873280409660793 0.3274906982656275 -0.04892674383187904
0.15447003859223243 0.47241540608009336 -0.04892674383187904
0.3888937617746357 0.4443148384906142 -0.04892674383187904
0.47368473198139205 0.17219905963546336 -0.04892674383187904
0.40090389266619697 0.16592166608722234 -0.04892674383187904
0.5817943729276441 0.24226584938715437 -0.04892674383187904
0.6520827177457437 0.31343118300978756 -0.04892674383187904
0.6554891268917745 0.46039604372743187 -0.04892674383187904
0.56606396321264 0.5185727115818662 -0.04892674383187904
0.645454528675689 0.2353699479451895 -0.04772665388883296
0.1347977949873769 0.5051963244474523 -0.04772665388883296
0.499560517445686 0.34713524748718194 -0.04772665388883296
-0.09013598618386183 0.36297643473539026 -0.047080451611808134
0.2272139520630263 0.48247769867947987 -0.047080451611808134
0.38244097046548786 0.486779559552245 -0.047080451611808134
0.40045155107227953 0.28384435018315124 -0.047080451611808134
0.6320781415412754 0.2856260221755197 -0.047080451611808134
0.6964029624885457 0.31381890437600246 -0.047080451611808134
0.6965598973272517 0.35548048832190243 -0.047080451611808134
0.43211546264649564 0.5664747632316058 -0.047080451611808134
0.43345402450604714 0.6024682300618882 -0.045880361668762054
0.47523561744625165 0.5223299162497104 -0.045880361668762054
0.645454528675689 0.22554767333441222 -0.045880361668762054
-0.08432016569063838 0.33737759310410714 -0.045234159391737236
-0.09392088523500716 0.36477656964995947 -0.045234159391737236
0.16438462781401333 0.28041024665381936 -0.045234159391737236
0.44782740943929905 0.249835647489445 -0.045234159391737236
0.44459639805417506 0.15937656016707094 -0.045234159391737236
0.7179399612356728 0.38848296175566993 -0.045234159391737236
0.6847990158854 0.43033840638467746 -0.045234159391737236
0.5550139042755156 0.5404512743897063 -0.045234159391737236
0.43345402450604714 0.6024682300618882 -0.0447725863367195
0.3658151090237493 0.4079244188330165 -0.044034069448691156
0.645454528675689 0.22554767333441222 -0.044034069448691156
0.551275162529872 0.5538276615241201 -0.044034069448691156
-0.08383089825231961 0.34923078915696243 -0.04338786717166633
0.16103360743458464 0.474695576971881 -0.04338786717166633
0.3839918559303475 0.46752273169690545 -0.04338786717166633
0.4418823484906707 0.26001794908313614 -0.04338786717166633
0.5047301356618843 0.19968111933121888 -0.04338786717166633
0.7161490577822042 0.39236940687891925 -0.04338786717166633
