0.5819256763522626 0.25700124629873267 -0.1272530442838385
0.45026119319991753 0.3265363019477917 -0.12645459380990068
0.46856567031494173 0.5330555170318062 -0.12645459380990068
0.44227668846053947 0.6482719204210323 -0.12645459380990068
0.513318819379156 0.22282756601419432 -0.12645459380990068
0.275490365085855 0.4824137957223008 -0.1257559496452051
0.3359929497484927 0.48187484165239275 -0.1257559496452051
0.45048076708025037 0.5567096123222139 -0.1257559496452051
0.37745249060771346 0.6511762840199811 -0.1257559496452051
0.5801790659405235 0.2756350842342562 -0.1257559496452051
0.5477220541749515 0.3081519797853736 -0.1257559496452051
0.5623336978480135 0.3370758482037708 -0.1257559496452051
0.5119215310497649 0.47242318416715373 -0.1257559496452051
0.6065379122113953 0.23796818312624 -0.1257559496452051
0.5914072757302739 0.10370873593359724 -0.1257559496452051
0.5689608367816973 0.15708515011633983 -0.1257559496452051
0.5987031169358806 0.23809793132825496 -0.1257559496452051
0.47141015012834525 0.6382114444494159 -0.12445846762505614
0.40605697883653546 0.4659357740664091 -0.12445846762505614
0.40485930312562873 0.4461042604199787 -0.12445846762505614
0.5309146716985604 0.2438567553715314 -0.12445846762505614
0.3390370421803805 0.660498193303205 -0.12375982346036057
0.45722767358502486 0.5608216322629936 -0.12375982346036057
0.2665177778849788 0.5582366488536199 -0.12375982346036057
0.26284490570486496 0.4813059456897119 -0.12375982346036057
0.41794391026728467 0.44339950943951434 -0.12375982346036057
0.40830262079448554 0.3808009922827901 -0.12375982346036057
0.430599350279199 0.38088083733018385 -0.12375982346036057
0.5480214731026782 0.3186915260413527 -0.12375982346036057
0.6299824142523944 0.19607947513727775 -0.12375982346036057
0.5115023445509476 0.21308647023215305 -0.12375982346036057
0.5227505156025464 0.1598298236205011 -0.12375982346036057
0.5673739164647458 0.5330555170318062 -0.12326079191414943
0.3005916518602749 0.4263625724518664 -0.12246234144021162
0.2450993439215972 0.4988419142235711 -0.12246234144021162
0.41944100490591796 0.359013274975212 -0.12246234144021162
0.5384999512009697 0.24516421802260455 -0.12246234144021162
0.45027117383084164 0.6292388572485397 -0.12176369727551603
0.5068813124330325 0.5871305753792445 -0.12176369727551603
0.2749713722777955 0.5952148864278648 -0.12176369727551603
0.2639128332137568 0.4718243463117005 -0.12176369727551603
0.41744487872107344 0.44116384811248854 -0.12176369727551603
0.4096799478620283 0.3704011748597501 -0.12176369727551603
0.5554171206175271 0.31901090623092776 -0.12176369727551603
0.6008589332155128 0.22147020020850008 -0.12176369727551603
0.5914072757302739 0.251681570016122 -0.12176369727551603
0.6013978872854208 0.1415652690291737 -0.12176369727551603
0.5259742593910703 0.17573894931371192 -0.12176369727551603
0.5737315783634757 0.1863283987243122 -0.12126466572930492
0.27138832577599964 0.6776548978619437 -0.1204662152553671
0.32396628948480427 0.4410340999104736 -0.1204662152553671
0.4451012070120943 0.347126343544463 -0.1204662152553671
0.5492790325991301 0.18023023322961212 -0.1204662152553671
0.5929442928926041 0.19539081160350635 -0.11976757109067152
0.5485105240179651 0.14320209250074625 -0.11976757109067152
0.5318628316363617 0.15348214235269556 -0.11976757109067152
0.5326313402175269 0.16793409593096986 -0.11976757109067152
0.5482709888757836 0.31915063506386687 -0.11976757109067152
0.5093764701640882 0.4490485465426244 -0.11976757109067152
0.4154786944290017 0.44258109770372817 -0.11976757109067152
0.5624534654191041 0.5094114023723229 -0.11976757109067152
0.44136845104643513 0.6389400305068842 -0.11976757109067152
0.3229582457614578 0.6708281463097754 -0.11976757109067152
0.5689608367816973 0.5462000079590075 -0.11926853954446037
0.5079991430965454 0.6119224625950136 -0.11847008907052256
0.4721287555548893 0.43819960072799446 -0.11847008907052256
0.42961126781770087 0.3534141410267232 -0.11847008907052256
0.5589602445956261 0.17503032451809214 -0.11777144490582697
0.5464145915238783 0.126065349203856 -0.11777144490582697
0.6186843400461743 0.18002063998020346 -0.11777144490582697
0.5903692901141546 0.13311167463635706 -0.11777144490582697
0.5497680835144171 0.3046188364381988 -0.11777144490582697
0.5111330612067513 0.43612362949575606 -0.11777144490582697
0.5052345083305357 0.4442877855917703 -0.11777144490582697
0.4524269901104738 0.5730079826214696 -0.11777144490582697
0.45809598847543226 0.5579472105568175 -0.11777144490582697
0.26137775295900434 0.5393732564068393 -0.11777144490582697
0.2686935554264594 0.44467703019781485 -0.11777144490582697
0.5079991430965454 0.23071226444433027 -0.11727241335961586
0.21880038143627054 0.5330555170318062 -0.11647396288567805
0.41511939171572965 0.3952828877538371 -0.11647396288567805
0.531743064065271 0.24060306969023487 -0.11647396288567805
0.5938924528304053 0.24538379190293752 -0.11577531872098246
0.5808278069505979 0.2527894200487106 -0.11577531872098246
0.5859478706147241 0.2185259140858544 -0.11577531872098246
0.5908583410294416 0.19232675790977 -0.11577531872098246
0.559050070273944 0.31717447014087086 -0.11577531872098246
0.5132888774863834 0.44872916635304927 -0.11577531872098246
0.41199545423644796 0.3871386929196714 -0.11577531872098246
0.33760981195821665 0.49160595680350977 -0.11577531872098246
0.5024199704099049 0.5873601298905016 -0.11577531872098246
0.5594792374036858 0.5327960206277763 -0.11577531872098246
0.31465436083250464 0.6592406338067529 -0.11577531872098246
0.31082179855760317 0.3884561362016688 -0.11447783670083352
0.49066278718117073 0.4804675726920772 -0.11447783670083352
0.547432615878149 0.5750240700681625 -0.11447783670083352
0.532900817252481 0.22024258260482066 -0.11377919253613794
0.6252515951943127 0.21312639275585 -0.11377919253613794
0.5675336065595334 0.21996312493894235 -0.11377919253613794
0.6165185431356179 0.19370408497731262 -0.11377919253613794
0.5476022866038608 0.3119346389056539 -0.11377919253613794
0.4155585394763954 0.4427308071675915 -0.11377919253613794
0.5136481801996554 0.41022389224739836 -0.11377919253613794
0.2633040147273793 0.5135334029440269 -0.11377919253613794
0.2755402682404762 0.45092490515637823 -0.11377919253613794
0.3308828667152907 0.48060730152501635 -0.11377919253613794
0.44426283401445976 0.5650134972511671 -0.11377919253613794
0.5418833850842811 0.5724889898134098 -0.11248171051598899
0.358469330589842 0.4813259069515604 -0.11248171051598899
0.3765442531936091 0.36216715434726643 -0.11248171051598899
0.5145464369828355 0.17886288679299364 -0.11178306635129341
0.554159561121075 0.17760532729654152 -0.11178306635129341
0.6118176659703091 0.17213594155006764 -0.11178306635129341
0.5792708285264192 0.17395241637827605 -0.11178306635129341
0.4638747737805571 0.4575819859828347 -0.11178306635129341
0.4734761407296593 0.4134276747740738 -0.11178306635129341
0.5116420733838866 0.4702074841019764 -0.11178306635129341
0.4822790572048237 0.6116330242982109 -0.11178306635129341
0.5684218827117892 0.5067266126537069 -0.11178306635129341
0.5033980722404788 0.6043970668781495 -0.11178306635129341
0.3132171499794165 0.6614164113482334 -0.11178306635129341
0.41598770660613704 0.3588136623567276 -0.11048558433114447
0.4504508251874777 0.467323081764876 -0.11048558433114447
0.5586308837751267 0.5516893549673297 -0.11048558433114447
0.5580619878124462 0.5205298252219069 -0.10978694016644888
0.3151034892240947 0.6712273715467443 -0.10978694016644888
0.2679649693689912 0.6055049169107385 -0.10978694016644888
0.3947688852612397 0.3961312413823961 -0.10978694016644888
0.4116361515231759 0.3853421793533114 -0.10978694016644888
0.4581259303682049 0.44926812042295733 -0.10978694016644888
0.5459754437632124 0.24042341833359887 -0.10978694016644888
0.5514448295096864 0.23623155334542534 -0.10978694016644888
0.5748094865032917 0.1835737445892268 -0.10978694016644888
0.5211436340237465 0.34902266342006527 -0.10848945814629994
0.40442015536496295 0.45993741488095136 -0.10848945814629994
0.2976773076304019 0.7039438797163462 -0.10848945814629994
0.27423280558940305 0.4983329020464359 -0.10779081398160435
0.45672864203881375 0.5480763665727613 -0.10779081398160435
0.48940522768471867 0.5907735056665858 -0.10779081398160435
0.29739784996452373 0.6432317018043 -0.10779081398160435
0.5141571923767908 0.4388683029999173 -0.10779081398160435
0.41260427272282546 0.4520726777126638 -0.10779081398160435
0.5151652361001373 0.2081460579246628 -0.10779081398160435
0.5713961107272075 0.18944235557266964 -0.10779081398160435
0.602395950377843 0.17272479877459676 -0.10779081398160435
0.5477320348058756 0.18644816629540287 -0.10779081398160435
0.4646233210998738 0.3884561362016688 -0.10649333196145541
0.4041906008537059 0.45885950674113524 -0.10649333196145541
0.2450993439215972 0.6907993887891449 -0.10649333196145541
0.26508056703189087 0.48639606746106534 -0.10579468779675984
0.3402347178912873 0.4918554725766154 -0.10579468779675984
0.4716995884251477 0.5514198779323759 -0.10579468779675984
0.28641915594787876 0.6259452490435464 -0.10579468779675984
0.41418121240885264 0.3739542794687733 -0.10579468779675984
0.41953083058423596 0.4594383833347401 -0.10579468779675984
0.543350537830142 0.31270314748681904 -0.10579468779675984
0.5790013514914653 0.2437369878004407 -0.10579468779675984
0.5605970680671986 0.14862157509259907 -0.10579468779675984
0.5211436340237465 0.34902266342006527 -0.10449720577661088
0.4631561683540132 0.47446921350661936 -0.10449720577661088
0.41598770660613704 0.6661472304063151 -0.10449720577661088
0.2953318593632096 0.6499885889399987 -0.10379856161191531
0.456469145634784 0.5473777224080657 -0.10379856161191531
0.4975893450425811 0.5897654619432394 -0.10379856161191531
0.463555393590982 0.6230508660755216 -0.10379856161191531
0.4221457558863823 0.4513540722861199 -0.10379856161191531
0.5118117441095985 0.42493534222970253 -0.10379856161191531
0.6136940245840631 0.22649045756338407 -0.10379856161191531
0.5813867222823544 0.15795346500674723 -0.10379856161191531
0.5276709666481882 0.4078884246111303 -0.10250107959176637
0.3896887441208104 0.6907993887891449 -0.10250107959176637
0.28453281670320074 0.4278896089832725 -0.10250107959176637
0.26501070261542126 0.5812919062885742 -0.10180243542707078
0.3378992502550191 0.48053743710854674 -0.10180243542707078
0.4714400920211179 0.5507212337676803 -0.10180243542707078
0.26216622280201785 0.5422676393748638 -0.10180243542707078
0.4675775878534438 0.46738296555042136 -0.10180243542707078
0.50704100252782 0.43666258356566406 -0.10180243542707078
0.587914054906796 0.1482522917484029 -0.10180243542707078
0.5489396911477067 0.16587808596057999 -0.10180243542707078
0.6131650511450792 0.243926619788001 -0.10050495340692185
0.41004923120622444 0.4410340999104736 -0.10050495340692185
0.21880038143627054 0.506766535177404 -0.10050495340692185
0.2659987850769193 0.5885677862323326 -0.09980630924222626
0.26414238772501386 0.4763355914894491 -0.09980630924222626
0.44791574493272523 0.552447882917571 -0.09980630924222626
0.2609885083529596 0.5282348722954067 -0.09980630924222626
0.4509897792573857 0.45503692509715804 -0.09980630924222626
0.5173210523797693 0.43706180880263307 -0.09980630924222626
0.5331104105018896 0.16322323813473685 -0.09980630924222626
0.5524029700784119 0.1686726626193623 -0.09980630924222626
0.4291321975333382 0.36396366791362655 -0.09850882722207731
0.42704624567017563 0.43535512091459094 -0.09850882722207731
0.2450993439215972 0.6645104069347424 -0.09850882722207731
0.5337391902501155 0.16539901567621726 -0.09781018305738172
0.5988628070306683 0.19452249671309896 -0.09781018305738172
0.4238724050362728 0.4561048526060498 -0.09781018305738172
0.5078693948945304 0.4679319002512537 -0.09781018305738172
0.5472729257833615 0.5435451601331643 -0.09781018305738172
0.452706447776352 0.6391995269109138 -0.09781018305738172
0.30951433590653 0.6797907528797273 -0.09781018305738172
0.266338126528343 0.5222963968954942 -0.09781018305738172
0.4479456868254979 0.3753116452744677 -0.09651270103723279
0.45542117938774057 0.5330555170318062 -0.09651270103723279
0.30731859710320103 0.49908144936575244 -0.09651270103723279
0.529726976618578 0.1728246050838389 -0.0958140568725372
0.5566746801139791 0.17339350104651963 -0.0958140568725372
0.46441372785046514 0.44485668155445085 -0.0958140568725372
0.41771435575602744 0.3736947830647436 -0.0958140568725372
0.4511594499830975 0.5646741557997436 -0.0958140568725372
0.5036076654898874 0.5910130408087672 -0.0958140568725372
0.5174108780580873 0.5941369782880488 -0.0958140568725372
0.26369325933342397 0.5261089979085473 -0.0958140568725372
0.5431509252116575 0.5802439400415309 -0.09451657485238825
0.28453281670320074 0.4278896089832725 -0.09451657485238825
0.481710161242143 0.508343474863431 -0.09451657485238825
0.5492590713372817 0.24154124899711174 -0.09381793068769269
0.5583015229546275 0.16726539365904702 -0.09381793068769269
0.4185327674918138 0.4651173623306228 -0.09381793068769269
0.49151114080972963 0.46754265564520897 -0.09381793068769269
0.5438296081145046 0.548425688655109 -0.09381793068769269
0.5224411160438955 0.5830984004858586 -0.09381793068769269
0.515694209539121 0.5961830076275142 -0.09381793068769269
0.2972381598697361 0.6566556503973794 -0.09381793068769269
0.40897132306640854 0.506766535177404 -0.09331889914148155
0.3539281435193207 0.4804675726920772 -0.09252044866754373
0.2772269948666698 0.4898693270226949 -0.09252044866754373
0.5277707729574304 0.2161505239258894 -0.09182180450284814
0.5953097024216448 0.2010398487066164 -0.09182180450284814
0.41091754609663184 0.37534158716724036 -0.09182180450284814
0.46808660003057917 0.45692326434183606 -0.09182180450284814
0.3347353902520406 0.48661564134139845 -0.09182180450284814
0.49012383311126273 0.6005545239723239 -0.09182180450284814
0.5037972974774476 0.5859528609301863 -0.09182180450284814
0.3318509879149402 0.5396826559654903 -0.09182180450284814
0.547432615878149 0.5763415133501597 -0.09132277295663703
0.31082179855760317 0.3884561362016688 -0.09052432248269922
0.3371107804120056 0.46045640768901086 -0.09052432248269922
0.5408753413609347 0.5856334807406111 -0.09052432248269922
0.530395678890501 0.19828519457153085 -0.08982567831800363
0.5135483738904132 0.44097421612492826 -0.08982567831800363
0.4196406175244025 0.46599565785195446 -0.08982567831800363
0.2581140866467834 0.5185736215607593 -0.08982567831800363
0.33831843675383644 0.48852194184792497 -0.08982567831800363
0.3748675071983398 0.4985225340339959 -0.08982567831800363
0.3576608994849799 0.5325265435928225 -0.08982567831800363
0.36506652763075315 0.5550428469578688 -0.08982567831800363
0.46856567031494173 0.32019860131091027 -0.08852819629785467
0.2976773076304019 0.4147451180560712 -0.08852819629785467
0.5079991430965454 0.6250669535222145 -0.08852819629785467
0.545865656823046 0.24253931208953394 -0.0878295521331591
0.4131033042690367 0.36854477750784465 -0.0878295521331591
0.4525467576815645 0.45231221285484513 -0.0878295521331591
0.3796482294110424 0.6663967461794207 -0.0878295521331591
0.2681745626183999 0.45065542812142423 -0.0878295521331591
0.2642821165579531 0.5265581263001372 -0.0878295521331591
0.34703152755068284 0.539902229845823 -0.0878295521331591
0.26745595719185583 0.5387843991823101 -0.0878295521331591
0.43477125400552397 0.47082628321927816 -0.08653207011301016
0.21880038143627054 0.6119224625950136 -0.08653207011301016
0.36339976226640797 0.32019860131091027 -0.08653207011301016
0.576835554580909 0.2515418411831828 -0.08583342594831457
0.41035863076487544 0.3660695810386375 -0.08583342594831457
0.4329148566536186 0.44960746187438083 -0.08583342594831457
0.3598266963955362 0.6711974296539717 -0.08583342594831457
0.2547007108706993 0.5171164494458226 -0.08583342594831457
0.35478647777880384 0.5517292774910268 -0.08583342594831457
0.3070291588063986 0.5135932867295723 -0.08583342594831457
0.39481878841586077 0.5664008049496341 -0.08583342594831457
0.30504301325247835 0.5199110261046049 -0.08453594392816563
0.36894899306027573 0.6846812620325965 -0.08453594392816563
0.5788716032894503 0.18060949720473257 -0.08383729976347006
0.5947208451971158 0.23533329656224528 -0.08383729976347006
0.5090371287126645 0.4281590860182265 -0.08383729976347006
0.44013085281183156 0.4615442964597512 -0.08383729976347006
0.26785518242882467 0.5412196731278205 -0.08383729976347006
0.4969905071871279 0.5989775842862965 -0.08383729976347006
0.5352762074124459 0.5834577031991306 -0.08383729976347006
0.35598415348971063 0.562897603495232 -0.08383729976347006
0.4399412208242713 0.4728024481422743 -0.08333826821725893
0.2864490978406514 0.4480405028192779 -0.08253981774332111
0.3765442531936091 0.30705411038370917 -0.08253981774332111
0.6095021595958894 0.21986331862970024 -0.08184117357862553
0.4127340209248404 0.36674826394148463 -0.08184117357862553
0.446159153890062 0.45109457588209 -0.08184117357862553
0.4338131134367985 0.6477828695057454 -0.08184117357862553
0.2636832787024997 0.46056619462917736 -0.08184117357862553
0.3309227892389875 0.4755571022773597 -0.08184117357862553
0.3253136746595744 0.47230341659606306 -0.08184117357862553
0.38577633679851514 0.5503319891616355 -0.08184117357862553
0.27363396773394966 0.4804675726920772 -0.08054369155847659
0.4291321975333382 0.2964347190803362 -0.08054369155847659
0.24569818177705047 0.4541785908376749 -0.08054369155847659
0.52514586702436 0.22181952229084784 -0.07984504739378101
0.4099993280516034 0.3642630868413532 -0.07984504739378101
0.43780536580648766 0.46307133299115716 -0.07984504739378101
0.2982861261167795 0.6748403599413128 -0.07984504739378101
0.33725050924494465 0.48150555830819647 -0.07984504739378101
0.3309726923936087 0.4627619334325063 -0.07984504739378101
0.345334820293565 0.47251300984547173 -0.07984504739378101
0.4317471228354845 0.5795353152459112 -0.07984504739378101
0.2840238045260654 0.44414805675883107 -0.07854756537363206
0.4948546521693441 0.4410340999104736 -0.07854756537363206
0.53304054608542 0.20061068157687476 -0.07784892120893647
0.5407555737898441 0.23887642054034433 -0.07784892120893647
0.4432348290292647 0.46177385097100826 -0.07784892120893647
0.4034220922725408 0.3710000127152035 -0.07784892120893647
0.2815486080568581 0.6504377173315885 -0.07784892120893647
0.33285903163828673 0.4797888897892302 -0.07784892120893647
0.4000486390201534 0.5676284225533134 -0.07784892120893647
0.3952878780692992 0.5659117540343471 -0.07784892120893647
0.4039410850806003 0.5951849445350921 -0.07784892120893647
0.28453281670320074 0.4278896089832725 -0.07655143918878754
0.2843132428228678 0.4497072681836231 -0.07655143918878754
0.5964474943470063 0.23058251624231532 -0.07585279502409195
0.5804186010827048 0.21318627654139533 -0.07585279502409195
0.5045658060586129 0.43284998255261115 -0.07585279502409195
0.4697833072876969 0.4638997253578676 -0.07585279502409195
0.525774646772586 0.5801740756250613 -0.07585279502409195
0.41858267064643484 0.6600091423879181 -0.07585279502409195
0.4732266249565538 0.6343988434363628 -0.07585279502409195
0.27959240439571054 0.6418643553676815 -0.07585279502409195
0.382362961022431 0.4936220442502027 -0.074555313003943
0.40035803857880436 0.40160062712887007 -0.074555313003943
0.41598770660613704 0.6776548978619437 -0.074555313003943
0.53868958318853 0.18735640370950707 -0.07385666883924744
0.4090012649591812 0.3660695810386375 -0.07385666883924744
0.41959071436978135 0.446074318527206 -0.07385666883924744
0.2801812616202396 0.6512062259127537 -0.07385666883924744
0.33640215561638576 0.4851983917501589 -0.07385666883924744
0.3299646486702622 0.4739003175439388 -0.07385666883924744
0.30419465962391934 0.5085730293746881 -0.07385666883924744
0.4766100588398653 0.6129105450565115 -0.07385666883924744
0.2976773076304019 0.6940031713158203 -0.07255918681909848
0.32396628948480427 0.4410340999104736 -0.07255918681909848
0.5335196163697826 0.21017212600228002 -0.07186054265440289
0.39248332077959275 0.3847333608669337 -0.07186054265440289
0.46251740797486285 0.454408145348932 -0.07186054265440289
0.4431450033509467 0.6443295712059643 -0.07186054265440289
0.2510278386905854 0.5154995872360988 -0.07186054265440289
0.26628822337372177 0.4598376085717091 -0.07186054265440289
0.24326290783154014 0.5105891168213811 -0.07186054265440289
0.25902232406088777 0.5691854009774922 -0.07186054265440289
0.30817693136268415 0.5199110261046049 -0.07056306063425397
0.27137834514507536 0.4804675726920772 -0.07056306063425397
0.5909381860768355 0.22774801705983602 -0.06986441646955838
0.5516045196044741 0.2055011907297438 -0.06986441646955838
0.5077396466925157 0.4702074841019764 -0.06986441646955838
0.4404602136323309 0.6027303015138044 -0.06986441646955838
0.2610783340312776 0.4768645649284329 -0.06986441646955838
0.33406668798011757 0.4738903369130145 -0.06986441646955838
0.2425942055596173 0.5587356803998311 -0.06986441646955838
0.2675358022392496 0.5807729134805146 -0.06986441646955838
0.427555257847311 0.5199110261046049 -0.06856693444940942
0.278404709315728 0.4449065847090721 -0.06856693444940942
0.5604872811270322 0.24538379190293752 -0.06786829028471383
0.402314242239952 0.3683252036275118 -0.06786829028471383
0.4496922972372368 0.45133411102427134 -0.06786829028471383
0.3306333509421851 0.4656862582933035 -0.06786829028471383
0.3449455756875203 0.6776249559691712 -0.06786829028471383
0.41267413713929507 0.6635522663660169 -0.06786829028471383
0.2545110788831391 0.4459445703251912 -0.06786829028471383
0.481710161242143 0.3227237009347386 -0.0665708082645649
0.2948228471860743 0.4936220442502027 -0.0665708082645649
0.579939530798342 0.24557342389049766 -0.06587216409986932
0.5577625688847194 0.21332600537433438 -0.06587216409986932
0.4545329032354848 0.4690098083910696 -0.06587216409986932
0.41927133418020623 0.5370777112942678 -0.06587216409986932
0.4893952470537944 0.6117827337620744 -0.06587216409986932
0.4898343948144601 0.6063432899083729 -0.06587216409986932
0.24800370752054599 0.5973707027074967 -0.06587216409986932
0.46544173283566015 0.4394771214862948 -0.06457468207972038
0.3765442531936091 0.30705411038370917 -0.06457468207972038
0.542232707166629 0.2299936590177862 -0.0638760379150248
0.551105488058263 0.21697891629259988 -0.0638760379150248
0.5235888886001812 0.4224801070223438 -0.0638760379150248
0.35911807159991643 0.500009648041705 -0.0638760379150248
0.430289950720548 0.5724790091824855 -0.0638760379150248
0.2526846234240063 0.5311891390489765 -0.0638760379150248
0.31365629774008247 0.6892124684721936 -0.0638760379150248
0.408771710447924 0.4603765626416171 -0.06257855589487585
0.4291321975333382 0.30705411038370917 -0.06257855589487585
0.23549797697249503 0.5724889898134098 -0.06257855589487585
0.5823348822201556 0.21531215092825468 -0.061879911730180266
0.5140274441747759 0.43167226810355275 -0.061879911730180266
0.4174149368283008 0.44347935448690823 -0.061879911730180266
0.4174947818756946 0.5263086105270318 -0.061879911730180266
0.5059930362807765 0.596163046365666 -0.061879911730180266
0.2622859903731085 0.4823638925676794 -0.061879911730180266
0.2894931902725394 0.5959734143781057 -0.061879911730180266
0.2319448723634717 0.46394962851248883 -0.06058242971003133
0.2976773076304019 0.4936220442502027 -0.06058242971003133
0.45542117938774057 0.5289734389837992 -0.06058242971003133
0.5482510276139353 0.23039288425475501 -0.05988378554533575
0.40862200098406076 0.3703313104432805 -0.05988378554533575
0.3121891449942217 0.5040617841969395 -0.05988378554533575
0.3497262979002229 0.49878203043802577 -0.05988378554533575
0.2522055531396436 0.4898094432371496 -0.05988378554533575
0.5086778259993925 0.6047064664368005 -0.05988378554533575
0.4451012070120943 0.36406347422286867 -0.05938475399912461
0.31082179855760317 0.3884561362016688 -0.058586303525186796
0.2976773076304019 0.48839219364591 -0.058586303525186796
0.2319448723634717 0.4920351239332514 -0.058586303525186796
0.4520277648735049 0.38582124963767406 -0.057887659360491214
0.42538946093675467 0.4619035991730232 -0.057887659360491214
0.33261949649610534 0.4713951791819589 -0.057887659360491214
0.4332741593668906 0.6507271556283909 -0.057887659360491214
0.46446363100508636 0.6226316795767043 -0.057887659360491214
0.30280735192545244 0.6906496793252814 -0.057887659360491214
0.38488806064625936 0.498612359712314 -0.05738862781428009
0.41598770660613704 0.5856334807406111 -0.05659017734034228
0.47606112413903295 0.3753116452744677 -0.05659017734034228
0.5490494780878731 0.22056196279439574 -0.05589153317564669
0.4015856561824837 0.3647221958638674 -0.05589153317564669
0.46000228898195883 0.46731310113395175 -0.05589153317564669
0.38540705345431886 0.5104793298812147 -0.05589153317564669
0.4106580496926021 0.6612866631462186 -0.05589153317564669
0.26207639712369984 0.585533674431369 -0.05589153317564669
0.2889043330480103 0.6885437662002706 -0.05589153317564669
0.4948546521693441 0.3753116452744677 -0.055392501629435556
0.4809815751846748 0.6372632845116147 -0.054594051155497765
0.481221110326856 0.467323081764876 -0.054594051155497765
0.5467040298206808 0.22667010892002007 -0.053895406990802176
0.4067855648940037 0.3554202478424919 -0.053895406990802176
0.4350307504095537 0.47462890360140714 -0.053895406990802176
0.36012611532326294 0.4951091582579119 -0.053895406990802176
0.4375458694024579 0.6486511843961527 -0.053895406990802176
0.4532553824771843 0.6288695739043434 -0.053895406990802176
0.283784269383884 0.6851303904241863 -0.053895406990802176
0.47606112413903295 0.467323081764876 -0.053396375444591034
0.3685896903470037 0.3813898495073192 -0.05259792497065324
0.36339976226640797 0.5508809238624679 -0.05259792497065324
0.23350185078765046 0.482383853829528 -0.05259792497065324
0.4083126014254098 0.3558593956031578 -0.051899280805957654
0.4496124521898431 0.47386039502024174 -0.051899280805957654
0.3486184478676343 0.4900290171174824 -0.051899280805957654
0.41680611834192327 0.5370876919251921 -0.051899280805957654
0.24737492777231992 0.4857972296056122 -0.051899280805957654
0.505513965996414 0.6073513336317193 -0.051899280805957654
0.23350185078765046 0.48295274979220854 -0.05140024925974652
0.2450993439215972 0.679231837547971 -0.05060179878580869
0.43477125400552397 0.35130822790171223 -0.05060179878580869
0.4087417685551513 0.5119564632579996 -0.05060179878580869
0.512330736917658 0.42463592330197586 -0.049903154621113104
0.4296511903413978 0.4670037015753009 -0.049903154621113104
0.3295055396477479 0.47396020132948413 -0.049903154621113104
0.4651223526460849 0.5472479742060508 -0.049903154621113104
0.4433845384931281 0.6384509795915972 -0.049903154621113104
0.25726573301822453 0.6284703486673746 -0.049903154621113104
0.4323259994290895 0.6438704621834501 -0.049903154621113104
0.48392586130732035 0.4541785908376749 -0.04860567260096417
0.23147578271003325 0.5593444988862087 -0.04860567260096417
0.2675457828701739 0.4804675726920772 -0.04860567260096417
0.4080730662832284 0.35466171989225104 -0.04790702843626858
0.43750594687876093 0.47677473925011477 -0.04790702843626858
0.335563782618751 0.4823738731986037 -0.04790702843626858
0.34616321266027544 0.5042514161844998 -0.04790702843626858
0.24873229357801416 0.4864359899847624 -0.04790702843626858
0.43495090536215997 0.6331812064636078 -0.04790702843626858
0.23350185078765046 0.4804675726920772 -0.047407996890057445
0.4948546521693441 0.4804675726920772 -0.046609546416119654
0.4619584926431064 0.6505075817480581 -0.046609546416119654
0.4779674246455595 0.3990356049813448 -0.045910902251424066
0.5124604851196729 0.45372946244608486 -0.045910902251424066
0.4548423027941356 0.44493652660184474 -0.045910902251424066
0.34787988117924173 0.4850387016553711 -0.045910902251424066
0.37473775899632483 0.518074590014548 -0.045910902251424066
0.24507938265974868 0.5432856637291344 -0.045910902251424066
0.5187682438637815 0.5979296180392533 -0.045910902251424066
0.48201956080079394 0.467323081764876 -0.04461342023127513
0.2670068288002658 0.4804675726920772 -0.04461342023127513
0.2976773076304019 0.7039438797163462 -0.04461342023127513
0.38978855043005267 0.37754730660149344 -0.04391477606657955
0.4574672087272062 0.37357501549365285 -0.04391477606657955
0.4519079973024142 0.48197464796163486 -0.04391477606657955
0.38560666607280325 0.49879201106895005 -0.04391477606657955
0.25309382929189944 0.6057444520529198 -0.04391477606657955
0.44400333761042987 0.6496292862267266 -0.04391477606657955
0.237204664860537 0.4936719474048238 -0.04391477606657955
0.5342881249509478 0.37277656501971507 -0.042617294046430616
0.23018828132080862 0.5330555170318062 -0.042617294046430616
0.3361726011051287 0.5330555170318062 -0.042617294046430616
0.4548722446869083 0.3829967310861191 -0.04191864988173503
0.4652121783244029 0.4725529323691687 -0.04191864988173503
0.42886272049838414 0.5369180211994804 -0.04191864988173503
0.3616331905928205 0.512415572280514 -0.04191864988173503
0.25186621168822015 0.6013829163390344 -0.04191864988173503
0.424910390652392 0.6412355756194553 -0.04191864988173503
0.27117873252659097 0.5982489982288286 -0.04062116786158606
0.3896887441208104 0.5651632067150305 -0.04062116786158606
0.31082179855760317 0.40160062712887007 -0.04062116786158606
0.4421469402585245 0.662204881191247 -0.04062116786158606
0.4872494114050865 0.3994048883255411 -0.03992252369689048
0.4580660465826596 0.453829268755327 -0.03992252369689048
0.4244313203680293 0.5338340062438957 -0.03992252369689048
0.4644736116360105 0.5454913831633877 -0.03992252369689048
0.37049599085353024 0.675648791046175 -0.03992252369689048
0.46423407649382914 0.6264043580660605 -0.03992252369689048
0.24107714965913546 0.5927197286968092 -0.03992252369689048
0.23023818447542968 0.5232844793569924 -0.038625041676741544
0.40225435845440666 0.5724889898134098 -0.038625041676741544
0.40916095505396866 0.4410340999104736 -0.038625041676741544
0.5211436340237465 0.34902266342006527 -0.038625041676741544
0.24700564442812362 0.5030138179498962 -0.037926397512045955
0.25664693390092275 0.5904042223223895 -0.037926397512045955
0.421097789639339 0.5336044517326386 -0.037926397512045955
0.4329647598082397 0.5354309071917712 -0.037926397512045955
0.47588147278239695 0.4724431454290023 -0.037926397512045955
0.48919563443530995 0.3995046946347833 -0.037926397512045955
0.40595717252729324 0.34145734517950443 -0.037926397512045955
0.23350185078765046 0.6119224625950136 -0.03662891549189703
0.3157921527578661 0.5199110261046049 -0.03662891549189703
0.36860965160885223 0.3816194040185763 -0.03662891549189703
0.4781071534784986 0.4710558377305352 -0.03593027132720144
0.4042704459010996 0.46177385097100826 -0.03593027132720144
0.4220559302080643 0.35354388922873803 -0.03593027132720144
0.46001226961288294 0.5445132813328137 -0.03593027132720144
0.3974137524561587 0.5389840118007945 -0.03593027132720144
0.24534885969470271 0.5127249718391647 -0.03593027132720144
0.4994058198707897 0.5883082898283027 -0.03593027132720144
0.2450993439215972 0.6430919729713608 -0.035431239780990297
0.3418815219937839 0.4976242772508158 -0.034632789307052506
0.23469952649855724 0.5987779716678123 -0.034632789307052506
0.47280743845773643 0.3739642600996976 -0.034632789307052506
0.4565190487894051 0.4739801625913324 -0.03393414514235692
0.4942358530520423 0.4039760172888351 -0.03393414514235692
0.41977036572641735 0.3486334188140206 -0.03393414514235692
0.3885210103026763 0.505119731074907 -0.03393414514235692
0.3463129221241388 0.6812179831018911 -0.03393414514235692
0.25255487522199155 0.5927995737442028 -0.03393414514235692
0.3975734425509462 0.6754591590586146 -0.03393414514235692
0.47606112413903295 0.3861106879344765 -0.03263666312220799
0.46856567031494173 0.5320774152012325 -0.03263666312220799
0.2976773076304019 0.5183241057876536 -0.03263666312220799
0.21880038143627054 0.5167471661016266 -0.03263666312220799
0.4471771782443328 0.4467929239537501 -0.0319380189575124
0.39109601308112585 0.3714990442614146 -0.0319380189575124
0.32477472058966633 0.46305137172930877 -0.0319380189575124
0.40848227215112154 0.5318179187972026 -0.0319380189575124
0.24426097092396248 0.5194718783439394 -0.0319380189575124
0.25138714140385743 0.5335046454233964 -0.0319380189575124
0.3376497344819136 0.6796310627849398 -0.0319380189575124
0.3373004123995659 0.48180497723592314 -0.030640536937363433
0.4446121560968075 0.3875978019421857 -0.030640536937363433
0.2231818784120042 0.5330555170318062 -0.030640536937363433
0.42026939727262846 0.34932208234779194 -0.029941892772667848
0.44877407919220835 0.4749283225291338 -0.029941892772667848
0.31160028776969256 0.49347233478633923 -0.029941892772667848
0.4394920924326812 0.5839168122216448 -0.029941892772667848
0.5045658060586129 0.594286687751912 -0.029941892772667848
0.32006386279343335 0.6889030689135427 -0.029941892772667848
0.23603693104240306 0.5667002238773609 -0.029941892772667848
0.34615323202935133 0.467323081764876 -0.028644410752518917
0.49331763500701387 0.6250669535222145 -0.028644410752518917
0.547432615878149 0.3753116452744677 -0.028644410752518917
0.2853911509626839 0.6846014169852026 -0.02794576658782333
0.416885963389317 0.6673648673790701 -0.02794576658782333
0.37444832069952244 0.37509207139413475 -0.02794576658782333
0.4539939491655767 0.46214313431520443 -0.02794576658782333
0.31291773105168985 0.4909073126388142 -0.02794576658782333
0.32474477869689367 0.4519529101415731 -0.02794576658782333
0.25076834228655565 0.545690995781872 -0.02794576658782333
0.3565330881905428 0.47206388145388173 -0.0266482845676744
0.4691245856466983 0.4018301816401272 -0.0266482845676744
0.25587842531975763 0.6645104069347424 -0.0266482845676744
0.4008570701250155 0.6652090510994382 -0.02594964040297881
0.3141453486553693 0.6824456007055704 -0.02594964040297881
0.4959425409400845 0.40509384795234793 -0.02594964040297881
0.42332347033544065 0.4656662970314551 -0.02594964040297881
0.35875876888664443 0.4928235937762648 -0.02594964040297881
0.24212511590617886 0.5256399082551089 -0.02594964040297881
0.27138832577599964 0.6176114222218204 -0.02465215838282988
0.36339976226640797 0.5593444988862087 -0.02465215838282988
0.458355484879462 0.49278367125256795 -0.02465215838282988
0.47939465486772337 0.3884561362016688 -0.02465215838282988
0.3524510101425358 0.684212172379158 -0.02395351421813429
0.41807365846929945 0.3510187896049097 -0.02395351421813429
0.47667992325633474 0.4763455721203734 -0.02395351421813429
0.3995995106285634 0.4657162001860762 -0.02395351421813429
0.4157581520948798 0.5551526338980352 -0.02395351421813429
0.250648574715465 0.5325165629618982 -0.02395351421813429
0.40897132306640854 0.506766535177404 -0.02265603219798536
0.547432615878149 0.3753116452744677 -0.02265603219798536
0.36452757356084514 0.6502680466058768 -0.02265603219798536
0.2489917899820439 0.635217255172149 -0.02265603219798536
0.281808104460888 0.6880347540231351 -0.021957388033289775
0.4021944746688613 0.35016045534542656 -0.021957388033289775
0.5044460384875222 0.41989512361297016 -0.021957388033289775
0.44991187111756964 0.4848490696678111 -0.021957388033289775
0.4513890044943547 0.541788569090501 -0.021957388033289775
0.23803305722724746 0.5373970914838431 -0.021957388033289775
0.46856567031494173 0.32019860131091027 -0.020659906013140807
0.40897132306640854 0.506766535177404 -0.020659906013140807
0.47068156407087697 0.40282824473254936 -0.020659906013140807
0.2489917899820439 0.6385208440080669 -0.020659906013140807
0.42092811891362714 0.6559969287563807 -0.01996126184844522
0.280959750832329 0.6923563672133237 -0.01996126184844522
0.4139616385285198 0.34177672536907966 -0.01996126184844522
0.4541636198912885 0.4715548692767465 -0.01996126184844522
0.37370975401112994 0.48834229049128897 -0.01996126184844522
0.3195847925090706 0.4613646451031152 -0.01996126184844522
0.40897132306640854 0.5080340753047801 -0.019462230302234117
0.3264015634303146 0.6985543390172658 -0.018663779828296288
0.37237234946728415 0.36216715434726643 -0.018663779828296288
0.37317079994122193 0.48023801818082007 -0.018663779828296288
0.28280616755331023 0.6845714750924301 -0.017965135663600702
0.5099653273886173 0.6017521996832307 -0.017965135663600702
0.38345084979317123 0.3628857597738105 -0.017965135663600702
0.4553912374949679 0.46626513488690846 -0.017965135663600702
0.41444070881288253 0.5170765269221258 -0.017965135663600702
0.24030864107797031 0.5381755806959325 -0.017965135663600702
0.38833137831511616 0.4804675726920772 -0.017466104117389563
0.31092160486684545 0.5199110261046049 -0.01666765364345177
0.4162671642720152 0.45788140491056145 -0.01666765364345177
0.2758297065372786 0.6973167407826623 -0.01666765364345177
0.3139956391915059 0.6856793251250187 -0.015969009478756183
0.3225490398935647 0.6927156699265957 -0.015969009478756183
0.38465850613500213 0.36621929050250085 -0.015969009478756183
0.4804326404838425 0.47625574644205526 -0.015969009478756183
0.42225554282654887 0.525609966362336 -0.015969009478756183
0.4312979944438945 0.5600032205272072 -0.015969009478756183
0.3264015634303146 0.6985443583863415 -0.015469977932545044
0.43636815495339953 0.5199110261046049 -0.014671527458607251
0.4138718128502018 0.3677463270339068 -0.014671527458607251
0.36791100744415656 0.6907794275272964 -0.014671527458607251
0.21880038143627054 0.5462000079590075 -0.014671527458607251
0.25853327314560076 0.6512960515910718 -0.013972883293911664
0.28193785266290283 0.6799803848672876 -0.013972883293911664
0.5102048625307987 0.4002632225850242 -0.013972883293911664
0.47000288116802985 0.4739901432222567 -0.013972883293911664
0.4508600310553709 0.54039128076111 -0.013972883293911664
0.2510278386905854 0.5728482925266818 -0.013972883293911664
0.36177291942575973 0.5462000079590075 -0.012675401273762732
0.4870198568938294 0.4774833640457348 -0.012675401273762732
0.3371107804120056 0.6513559353766172 -0.012675401273762732
0.3207225844344321 0.681118176792649 -0.011976757109067145
0.3584393886970693 0.6837730246184921 -0.011976757109067145
0.5123107756558096 0.5961730269965902 -0.011976757109067145
0.5245769710616792 0.4099444345815202 -0.011976757109067145
0.46411430892273847 0.4643688150113062 -0.011976757109067145
0.31135077199658695 0.4870947116257611 -0.011976757109067145
0.24194546454954285 0.5371775176035103 -0.011976757109067145
0.4070450612980336 0.5330555170318062 -0.010679275088918179
0.5342881249509478 0.40160062712887007 -0.010679275088918179
0.49407616295725487 0.628400484250905 -0.010679275088918179
0.21880038143627054 0.5593444988862087 -0.010679275088918179
0.48798797809347905 0.6058742002549344 -0.009980630924222592
0.4932876931142412 0.5884679799230902 -0.009980630924222592
0.43830439735269877 0.5631371386374133 -0.009980630924222592
0.406755623001231 0.4732515765338642 -0.009980630924222592
0.42969111286509465 0.48491893408428044 -0.009980630924222592
0.389089906265357 0.38089081796110813 -0.009980630924222592
0.3758056865052167 0.4804675726920772 -0.008683148904073661
0.4928485453535754 0.3940652507810819 -0.008683148904073661
0.3418815219937839 0.6686224268755222 -0.008683148904073661
0.36256138926877324 0.6827350390023731 -0.007984504739378074
0.289383403332373 0.6783435613957152 -0.007984504739378074
0.23794323154892946 0.6043771056163013 -0.007984504739378074
0.44222678530591825 0.5725289123371069 -0.007984504739378074
0.43668753514297476 0.4531905083761768 -0.007984504739378074
0.5042763677618103 0.4154836847444637 -0.007984504739378074
0.21880038143627054 0.5593444988862087 -0.007485473193166935
0.22964932725090056 0.6030496817033796 -0.006687022719229142
0.4291321975333382 0.584415843767856 -0.006687022719229142
0.3435183454653565 0.4541785908376749 -0.006687022719229142
0.2805605255953602 0.6846313588779754 -0.005988378554533555
0.24173587130013416 0.5587556416616793 -0.005988378554533555
0.3146044576778836 0.4875238787555025 -0.005988378554533555
0.4687353410406536 0.4752876252424056 -0.005988378554533555
0.510045172436011 0.4095152674517786 -0.005988378554533555
0.4948546521693441 0.6230608467064459 -0.005489347008322417
0.29025171822278023 0.48940023736925653 -0.004690896534384623
0.33240990324669667 0.47914014877915573 -0.004690896534384623
0.33820864981367005 0.6792917213335163 -0.004690896534384623
0.48356655859404835 0.611363547263257 -0.003992252369689037
0.28099967335602594 0.6708381269406997 -0.003992252369689037
0.4321862705961503 0.5690556527754772 -0.003992252369689037
0.41235475694971996 0.46979827823408327 -0.003992252369689037
0.41836309676610206 0.4802180569189715 -0.003992252369689037
0.39846171870320213 0.34911248909838327 -0.003992252369689037
0.4948546521693441 0.335878172492864 -0.002694770349540105
0.33593306596294736 0.4936220442502027 -0.002694770349540105
0.45542117938774057 0.5199110261046049 -0.002694770349540105
0.2319448723634717 0.6382114444494159 -0.002694770349540105
0.386934089985725 0.6600390842806909 -0.0019961261848445186
0.24234468978651166 0.5719400551125777 -0.0019961261848445186
0.43547987880114375 0.5754133146742071 -0.0019961261848445186
0.4476462678977712 0.48214431868734664 -0.0019961261848445186
0.5065020484579119 0.4368921380769213 -0.0019961261848445186
0.38317139212729295 0.5593444988862087 -0.00149709463863338
0.22160493872597703 0.5856334807406111 -6.986441646955514E-4
0.46666935043933944 0.6415948783327273 -6.986441646955514E-4
0.3747577202581734 0.506766535177404 -6.986441646955514E-4
0.47733864489733346 0.6207453403320262 3.5458324007545016E-17
0.23787336713246 0.5666603013536637 3.5458324007545016E-17
0.31620135862575915 0.4934324122626424 3.5458324007545016E-17
0.473955211014022 0.4794595289687307 3.5458324007545016E-17
0.5094263733187092 0.4065011169126634 3.5458324007545016E-17
0.38833137831511616 0.558645854721513 4.990315462111384E-4
0.2976773076304019 0.5038022877929096 0.001297482020148967
0.46856567031494173 0.5224361257284335 0.001297482020148967
0.2976773076304019 0.7039438797163462 0.001297482020148967
0.4806621949950996 0.6034888294640455 0.0019961261848445537
0.2670267900621142 0.643062031078588 0.0019961261848445537
0.31050241836802805 0.49250421358668983 0.0019961261848445537
0.4573873636798125 0.46485786592659306 0.0019961261848445537
0.4430551776726287 0.4864060480919896 0.0019961261848445537
0.41345262635138447 0.335698521136228 0.0019961261848445537
0.3720330080158605 0.479519412754276 0.0032936082049934857
0.547432615878149 0.3753116452744677 0.0032936082049934857
0.4078135698791987 0.6751198176071912 0.0032936082049934857
0.21880038143627054 0.5724889898134098 0.0032936082049934857
0.32095213894568914 0.6878950251901962 0.003992252369689073
0.3908664585698686 0.5467090201361428 0.003992252369689073
0.30722877142488303 0.5050498666584374 0.003992252369689073
0.414420747551034 0.4638198803104739 0.003992252369689073
0.40329234407052583 0.3380040468797235 0.003992252369689073
0.4192912954420546 0.5768405448963709 0.004491283915900211
0.39647557314928167 0.5190926143688188 0.005289734389838004
0.49134147008401785 0.467323081764876 0.005289734389838004
0.2450993439215972 0.6645104069347424 0.005289734389838004
0.3022384559627717 0.6893921198288296 0.005988378554533591
0.3217605700505512 0.45029612540815217 0.005988378554533591
0.5083185232861205 0.40393609476513814 0.005988378554533591
0.4697134428712274 0.46713344977731575 0.005988378554533591
0.40615678514577763 0.5565998253820476 0.005988378554533591
0.2231818784120042 0.5856334807406111 0.006487410100744729
0.22990882365493032 0.6021614055511237 0.007285860574682523
0.30014252346868486 0.506766535177404 0.007285860574682523
0.4028332350480115 0.5695946068453853 0.007285860574682523
0.5342881249509478 0.36216715434726643 0.007285860574682523
0.2343601850471336 0.5872603235812595 0.007984504739378109
0.41614739670092454 0.338792516722737 0.007984504739378109
0.4663200283569917 0.46867046693964615 0.007984504739378109
0.4104783983359661 0.5580270556042114 0.007984504739378109
0.4412087609516475 0.6488008938600162 0.007984504739378109
0.36194259015147145 0.6823757362891011 0.009281986759527076
0.41337278130399074 0.48680527332895873 0.009281986759527076
0.3606351275003983 0.506766535177404 0.009281986759527076
0.2512374319399941 0.6412954594050007 0.009980630924222663
0.24349246234279737 0.6343689015435903 0.009980630924222663
0.37694347843057807 0.35627858210197505 0.009980630924222663
0.4431250420890983 0.4819347254379381 0.009980630924222663
0.4501114837360542 0.5349418562764843 0.009980630924222663
0.4629665363664529 0.6377523354269017 0.009980630924222663
0.45542117938774057 0.6491901384660607 0.011278112944371595
0.5211436340237465 0.3596320740925138 0.011278112944371595
0.3274794715701307 0.4804675726920772 0.011278112944371595
0.3090153043603189 0.6882842697962407 0.011976757109067182
0.32536357781419545 0.49283357440718906 0.011976757109067182
0.5242276489793314 0.40655102006728444 0.011976757109067182
0.4065061072281255 0.4642789893329882 0.011976757109067182
0.40320251839220783 0.6592406338067529 0.011976757109067182
0.3420511927194958 0.4506454474905001 0.013274239129216114
0.5342881249509478 0.40160062712887007 0.013274239129216114
0.32396628948480427 0.700041453024975 0.013274239129216114
0.2461073876449437 0.5730479051451663 0.0139728832939117
0.2977771139396442 0.4898793076536192 0.0139728832939117
0.5064820871960636 0.40618173672308816 0.0139728832939117
0.4221257946245339 0.48436001875252416 0.0139728832939117
0.45067039906781065 0.5329956332462609 0.0139728832939117
0.4740350560614157 0.6272926342183164 0.0139728832939117
0.4535647820358351 0.5579372299258932 0.015270365314060631
0.3520617655364911 0.5350616238475749 0.015270365314060631
0.2439415907343874 0.5988079135605848 0.015969009478756218
0.2572856942800729 0.6629634091414879 0.015969009478756218
0.39923022728436725 0.32547835506982403 0.015969009478756218
0.42424168838046916 0.4805274564776225 0.015969009478756218
0.422934225729396 0.5609314192031601 0.015969009478756218
0.3907067684750811 0.6725248535668932 0.015969009478756218
0.4450912263811702 0.6554679553173969 0.01726649149890515
0.25824383484879837 0.467323081764876 0.01726649149890515
0.24697570253535095 0.6064630574794636 0.017965135663600737
0.3039251825889653 0.48609664853333895 0.017965135663600737
0.5105541846131464 0.40463473892983365 0.017965135663600737
0.47280743845773643 0.4687103894633429 0.017965135663600737
0.45645916500385975 0.5350516432166507 0.017965135663600737
0.2319448723634717 0.6250669535222145 0.018464167209811876
0.41598770660613704 0.6681034340674626 0.019262617683749705
0.4930980611266811 0.3884561362016688 0.019262617683749705
0.24791388184222796 0.610694844991334 0.01996126184844529
0.3025877780451195 0.4873741692916393 0.01996126184844529
0.40492916754209834 0.3455294425965873 0.01996126184844529
0.476420426852305 0.4745989617086343 0.01996126184844529
0.4300803574711393 0.5527473018452976 0.01996126184844529
0.33156154961813783 0.6645104069347424 0.020460293394656395
0.3264015634303146 0.6645104069347424 0.02125874386859422
0.301220431608501 0.506766535177404 0.02125874386859422
0.4948546521693441 0.3464875831653127 0.02125874386859422
0.32821803825852314 0.6822260268252376 0.02195738803328981
0.4009967989579546 0.3271551010650935 0.02195738803328981
0.45940345112650544 0.47665497167902404 0.02195738803328981
0.45695819655007086 0.5328658850442459 0.02195738803328981
0.3625214667450763 0.656994991848803 0.02245641957950095
0.3339469204090269 0.7039438797163462 0.02325487005343874
0.46856567031494173 0.5224361257284335 0.02325487005343874
0.3502552713392067 0.335878172492864 0.02325487005343874
0.25932174298861443 0.6232704399558547 0.02395351421813433
0.39992887144906275 0.33867274915164636 0.02395351421813433
0.4574771893581305 0.47698433249952354 0.02395351421813433
0.43376321028217746 0.5708621469727616 0.02395351421813433
0.3522014943694302 0.6907993887891449 0.024452545764345465
0.5211436340237465 0.4410340999104736 0.02525099623828326
0.3580102215673277 0.5330555170318062 0.02525099623828326
0.23866183697547352 0.6309355645056577 0.02525099623828326
