0.5604064845954772 0.46100969490431976 -0.11173637159807526
0.3864378121203869 0.5212501735050211 -0.11173637159807526
0.5348334298088567 0.09355249164626679 -0.1104732647887057
0.301838804511305 0.3221553917297029 -0.1104732647887057
0.4235537199033997 0.4267892165766309 -0.10979313035289133
0.3888765798830928 0.41117527317157815 -0.10979313035289133
0.4079397764983469 0.10164609143245779 -0.10979313035289133
0.5153815849445658 0.41323510889147314 -0.10979313035289133
0.4918100686404849 0.3118270645115504 -0.10979313035289133
0.5565491507237872 0.2923557872348075 -0.10979313035289133
0.389206930894774 0.277674599627443 -0.10979313035289133
0.14335776476033066 0.5068313234657567 -0.10979313035289133
0.4086101947279354 0.512806790294697 -0.10979313035289133
0.5113007783296796 0.6115914589936214 -0.10979313035289133
0.44733899274445094 0.6533322809401721 -0.10853002354352179
0.4037715240274274 0.21823084993726702 -0.10853002354352179
0.6149338339353378 0.5253601287385851 -0.10853002354352179
0.3719995296686704 0.46946279432086985 -0.10784988910770742
0.5543241394980515 0.22187442727198686 -0.10784988910770742
0.38441684122539566 0.46372051644135126 -0.10784988910770742
0.12835594234751083 0.5086774026486813 -0.10784988910770742
0.5664888296929029 0.3416558176251235 -0.10784988910770742
0.6207344090522119 0.48022835081918863 -0.10784988910770742
0.32642080626288156 0.15216064760101372 -0.10784988910770742
0.4717752514026387 0.3107194170017955 -0.10784988910770742
0.41337113577863593 0.5310441093807481 -0.10784988910770742
0.5423732058401705 0.4430638620050463 -0.10784988910770742
0.3967758555447653 0.29101495077563067 -0.10658678229833787
0.5961621235068614 0.29501802774070945 -0.10658678229833787
0.3306182073524788 0.49229587895178084 -0.1059066478625235
0.45802681959296243 0.30195539898601603 -0.1059066478625235
0.3120505372547465 0.3875648920425936 -0.1059066478625235
0.44756246548764705 0.4570940637952741 -0.1059066478625235
0.3916651310699316 0.4866993441656512 -0.1059066478625235
0.5565394345175613 0.3045593422545625 -0.1059066478625235
0.43942028467032646 0.29307478649552554 -0.1059066478625235
0.13849966164737085 0.5111647514425167 -0.1059066478625235
0.43659286865858377 0.400069649455352 -0.1059066478625235
0.3845625843187845 0.5318019734663699 -0.1059066478625235
0.10987571810581176 0.5284401661122017 -0.10464354105315397
0.6217643269121593 0.38459173293746224 -0.10464354105315397
0.43471764085698134 0.43472735706320725 -0.10396340661733959
0.16227521828219613 0.543976379867447 -0.10396340661733959
0.32735356206056987 0.495677118718401 -0.10396340661733959
0.1283170775226071 0.5126318985826304 -0.10396340661733959
0.23367961783647906 0.4924902030762993 -0.10396340661733959
0.35081820009616577 0.4123897989498181 -0.10396340661733959
0.3041026805619443 0.49865027782353216 -0.10396340661733959
0.5024493144578668 0.06450103503076726 -0.10396340661733959
0.4278579992614822 0.08394316368883227 -0.10396340661733959
0.54337397508144 0.3628468634038542 -0.10396340661733959
0.4681996875115002 0.43506742428111445 -0.10270029980797002
0.6473568141112315 0.5381563723381213 -0.10270029980797002
0.4933840940490839 0.3101947418655958 -0.10202016537215565
0.384611165349914 0.27151452488021 -0.10202016537215565
0.492635946169688 0.2756730611449036 -0.10202016537215565
0.3718246379566038 0.47481642395135154 -0.10202016537215565
0.5783911823196544 0.4669171482896789 -0.10202016537215565
0.12947330606349153 0.5199870666956515 -0.10202016537215565
0.6053828032152588 0.5125736013452749 -0.10202016537215565
0.13123193939038297 0.6075106523787354 -0.10202016537215565
0.5835990688567473 0.4706190228617543 -0.10202016537215565
0.30951460742978154 0.5373985082524995 -0.10202016537215565
0.4142553105451947 0.29501802774070945 -0.10075705856278612
0.5961621235068614 0.21823084993726702 -0.10075705856278612
0.3332707316521549 0.4861843852356775 -0.10007692412697174
0.41327397371637686 0.5391279929607131 -0.10007692412697174
0.1242071222890431 0.4905761104497931 -0.10007692412697174
0.6140010781376496 0.5381660885443472 -0.10007692412697174
0.11747379137448084 0.513312033018445 -0.10007692412697174
0.2074652934389481 0.5533136540505559 -0.10007692412697174
0.3711056386958858 0.5539743560739185 -0.10007692412697174
0.3786162661085216 0.2615748459110943 -0.10007692412697174
0.39209264414387207 0.23642930419841432 -0.10007692412697174
0.3590186781508418 0.11586090114097823 -0.0988138173176022
0.539526357415976 0.20543460633773086 -0.0988138173176022
0.43794342132398667 0.41055343597311933 -0.09813368288178782
0.4175491044557814 0.5346293894781124 -0.09813368288178782
0.5065981345163345 0.621570002787641 -0.09813368288178782
0.3155386552898517 0.3816963034821382 -0.09813368288178782
0.12916238746426215 0.5415473283109671 -0.09813368288178782
0.4533533243982951 0.3926076030738458 -0.09813368288178782
0.16593822802936775 0.5525266413462565 -0.09813368288178782
0.5203174177073329 0.09145379110146822 -0.09813368288178782
0.4898765436015269 0.29795232202093724 -0.09813368288178782
0.4351548701371477 0.24813733270064742 -0.09813368288178782
0.42896564677123694 0.29501802774070945 -0.0968705760724183
0.5961621235068614 0.26942554054163725 -0.0968705760724183
0.3469025689871201 0.48600949352361095 -0.09619044163660392
0.44139267453418807 0.41137931350232243 -0.09619044163660392
0.37771265892951117 0.4682579847488557 -0.09619044163660392
0.44318045647975735 0.3983595971595903 -0.09619044163660392
0.570453041833078 0.5914011824561605 -0.09619044163660392
0.587262078603919 0.4716295083092499 -0.09619044163660392
0.4273333241252825 0.5437917719491547 -0.09619044163660392
0.39263675169252366 0.22508077532654033 -0.09619044163660392
0.5482709430193037 0.2266645169413652 -0.09619044163660392
0.36407110538832 0.26448970777887015 -0.09492733482723438
0.570443325626852 0.24383305334256505 -0.09492733482723438
0.4294028760514033 0.4431318754486277 -0.09424720039142001
0.33305697511518473 0.48325980716167555 -0.09424720039142001
0.33721551137987826 0.485990061111159 -0.09424720039142001
0.3880992833850191 0.43829320474811984 -0.09424720039142001
0.6182859250832801 0.5130011144192155 -0.09424720039142001
0.1487794078343937 0.5643026832920709 -0.09424720039142001
0.22845229888693436 0.5172082317150386 -0.09424720039142001
0.38582569112815396 0.25415166435449166 -0.09424720039142001
0.5053544601194169 0.27026113427706633 -0.09424720039142001
0.11281972859226537 0.5509526159376574 -0.09298409358205044
0.5348334298088567 0.3491081478004039 -0.09298409358205044
0.402129485175247 0.45937737225836517 -0.09230395914623606
0.2408210294125301 0.5537217347120444 -0.09230395914623606
0.20838833303041043 0.5315104872795923 -0.09230395914623606
0.31463504811084114 0.37636210626410826 -0.09230395914623606
0.15076151390448136 0.5554026383891286 -0.09230395914623606
0.3917137121010612 0.49200439276500324 -0.09230395914623606
0.4262256766155276 0.576613116580311 -0.09230395914623606
0.5567143262296278 0.2554827846074426 -0.09230395914623606
0.524048440898086 0.11018663670504115 -0.09230395914623606
0.4485243699040131 0.27727623517218036 -0.09230395914623606
0.5485527129998553 0.35560828976554404 -0.09104085233686653
0.6337735578073959 0.39921462330747115 -0.09104085233686653
0.37922838710075457 0.48190925449627287 -0.09036071790105216
0.5403036539140494 0.42049311494223507 -0.09036071790105216
0.6391660522627813 0.42968464603195494 -0.09036071790105216
0.4885648557610277 0.44646453418411813 -0.09036071790105216
0.5503696435641021 0.6086085836822642 -0.09036071790105216
0.14224040104434996 0.5761856035063707 -0.09036071790105216
0.5140115998667111 0.4103299632299232 -0.09036071790105216
0.49060525906847086 0.30215943931676037 -0.09036071790105216
0.37219385379318876 0.22133031972333528 -0.09036071790105216
0.10987571810581176 0.6149435501415637 -0.08909761109168261
0.34022753530991334 0.15178171555820297 -0.08909761109168261
0.42896564677123694 0.4616412483090045 -0.08841747665586824
0.48736976239523966 0.4431513078610796 -0.08841747665586824
0.19763249273831746 0.5672855586034281 -0.08841747665586824
0.31511114221591113 0.37748918618631494 -0.08841747665586824
0.12646128213345645 0.5346293894781124 -0.08841747665586824
0.4188899409149584 0.4181903740666921 -0.08841747665586824
0.3091356753869707 0.578070547514199 -0.08841747665586824
0.32190277036782905 0.395367005642007 -0.08841747665586824
0.44104289111005507 0.3370697682864895 -0.08841747665586824
0.42562327182952064 0.2655390580512695 -0.08841747665586824
0.6353184345973173 0.4048500229185045 -0.0871543698464987
0.41700499690712994 0.35899924573839004 -0.0871543698464987
0.29471682534770605 0.48191897070249856 -0.08647423541068433
0.282999080639247 0.49489982222032725 -0.08647423541068433
0.34311324855901143 0.517023623796746 -0.08647423541068433
0.37650784935749704 0.45643336177191157 -0.08647423541068433
0.2315809172916805 0.562126253097465 -0.08647423541068433
0.31380917058163793 0.3368171469246156 -0.08647423541068433
0.14116190215327282 0.6220460968927112 -0.08647423541068433
0.40489860394963406 0.5775264399655473 -0.08647423541068433
0.555577530101195 0.2979328896084853 -0.08647423541068433
0.5402259242642422 0.3115550107372246 -0.08647423541068433
0.68574554490984 0.43578642354183245 -0.08521112860131479
0.38494151636159535 0.24169548797286275 -0.08521112860131479
0.3951241004863591 0.44749445204406557 -0.08453099416550042
0.4315210090086538 0.5568600693230166 -0.08453099416550042
0.20763046894478868 0.5519048041477974 -0.08453099416550042
0.31251691515359065 0.37943242743149885 -0.08453099416550042
0.11924214090759823 0.5352512266765712 -0.08453099416550042
0.31032105254653286 0.34695115001824967 -0.08453099416550042
0.15040201427412228 0.5874952675533409 -0.08453099416550042
0.4606501952739608 0.5845415408606613 -0.08453099416550042
0.42221288344422286 0.27212664587244295 -0.08453099416550042
0.4100384770431456 0.26941582433541145 -0.08453099416550042
0.42314563924191106 0.2510813431871012 -0.08326788735613085
0.4511380293787854 0.3720772593184777 -0.08326788735613085
0.3427731813411043 0.5207254983688214 -0.08258775292031648
0.15204405312630281 0.5371653193030774 -0.08258775292031648
0.33723494379233004 0.4880596130372798 -0.08258775292031648
0.3231658771771986 0.40450995570059733 -0.08258775292031648
0.31795799064010566 0.37128053040795234 -0.08258775292031648
0.36885147885147246 0.41481885050629796 -0.08258775292031648
0.4626808823751779 0.5995044984485774 -0.08258775292031648
0.3133622250952457 0.5847844460163094 -0.08258775292031648
0.5562868131556872 0.2692506488295707 -0.08258775292031648
0.5640792105488747 0.27046517460781067 -0.08258775292031648
0.6985417885093759 0.46137891074090465 -0.08132464611094693
0.5961621235068614 0.25662929694210124 -0.08132464611094693
0.37807215855987014 0.5023618686018335 -0.08064451167513256
0.23881949092999064 0.5733290388759502 -0.08064451167513256
0.2962325535189494 0.4839982388348456 -0.08064451167513256
0.3455131514968136 0.3913639286769281 -0.08064451167513256
0.4926165137572362 0.4410914721411846 -0.08064451167513256
0.5242136164039266 0.6154585090715374 -0.08064451167513256
0.5284110174935239 0.4294708894949848 -0.08064451167513256
0.289878154647198 0.5967062310555128 -0.08064451167513256
0.5610380380001619 0.2558228518253499 -0.08064451167513256
0.5688790164244789 0.24323064855655807 -0.08064451167513256
0.4330950344172527 0.20543460633773086 -0.07938140486576302
0.4129630551171474 0.45866808920387314 -0.07938140486576302
0.34680540692486084 0.5100668201389879 -0.07870127042994865
0.28867334507518405 0.47159064348434615 -0.07870127042994865
0.3713582600577597 0.46887982194731465 -0.07870127042994865
0.43730215171307596 0.39721308482493173 -0.07870127042994865
0.4952204570257826 0.4032274164787759 -0.07870127042994865
0.3665973190070591 0.6068985313865023 -0.07870127042994865
0.31104005180725086 0.6001069032345846 -0.07870127042994865
0.3983498809533643 0.2135476385363738 -0.07870127042994865
0.5646330343037522 0.26426623503567404 -0.07870127042994865
0.10987571810581176 0.5765548193429555 -0.07821546011865266
0.4102910984050195 0.24383305334256505 -0.0774381636205791
0.3786162661085216 0.5335023095559059 -0.0774381636205791
0.4504967597678748 0.27947209777923815 -0.07675802918476474
0.5566463127860463 0.3057252870016729 -0.07675802918476474
0.4098733015373049 0.5863098903937787 -0.07675802918476474
0.2198534563769956 0.5811311524753636 -0.07675802918476474
0.20373427024819496 0.5515453045174386 -0.07675802918476474
0.515721652162473 0.6282741850835255 -0.07675802918476474
0.15360836232867575 0.538933668836195 -0.07675802918476474
0.5546544905097327 0.4230290447672 -0.07675802918476474
0.33716693034874873 0.6057811676705217 -0.07675802918476474
0.44259748410620214 0.37026032875423076 -0.07549492237539521
0.47127972488511677 0.23102709353680306 -0.07549492237539521
0.161070408710182 0.6533322809401721 -0.07549492237539521
0.3679381554662361 0.5128650875320525 -0.07481478793958082
0.3123420234415241 0.5845512570668874 -0.07481478793958082
0.20234485275788844 0.5570155286226313 -0.07481478793958082
0.14250273861244978 0.6316165600252418 -0.07481478793958082
0.2249544646456033 0.588573766444418 -0.07481478793958082
0.20580382217431578 0.6301591290913537 -0.07481478793958082
0.3331249885587662 0.6115720265811698 -0.07481478793958082
0.5457252969881127 0.2993320233050178 -0.07481478793958082
0.5548973956653807 0.2938132181686955 -0.07481478793958082
0.5198704722209407 0.24383305334256505 -0.07355168113021125
0.6345605705116956 0.5637585757434193 -0.07355168113021125
0.37800414511628877 0.49852396714259517 -0.07287154669439688
0.3071730017293349 0.5858629449073864 -0.07287154669439688
0.24364844542427266 0.6001554842657142 -0.07287154669439688
0.2008388407928709 0.5601344308211513 -0.07287154669439688
0.44093601284156986 0.43740902998156106 -0.07287154669439688
0.5285470443806869 0.3925395896302644 -0.07287154669439688
0.26131250834299447 0.6100174335850227 -0.07287154669439688
0.13708109553838657 0.6097162311920191 -0.07287154669439688
0.49330636439927644 0.2692506488295707 -0.07287154669439688
0.4477276409934876 0.2798413136158231 -0.07287154669439688
0.42933486260782183 0.5807813690512305 -0.07160843988502734
0.4937921747105724 0.3715234355636004 -0.07160843988502734
0.5092992398471401 0.26942554054163725 -0.07160843988502734
0.3282766016520322 0.6056159921646811 -0.07092830544921297
0.4005263111479704 0.4738545195349855 -0.07092830544921297
0.3189198950564717 0.3764689845325935 -0.07092830544921297
0.3147516425855522 0.580723071813875 -0.07092830544921297
0.12980365707517286 0.5712011897124739 -0.07092830544921297
0.1504700277177038 0.540119045995757 -0.07092830544921297
0.5522545875719307 0.42362173334698117 -0.07092830544921297
0.38078298009690165 0.6155362387213449 -0.07092830544921297
0.44874784264720924 0.2940561233243434 -0.07092830544921297
0.4767208003716318 0.43144327935884635 -0.07044249513791699
0.5046937580960542 0.24383305334256505 -0.06966519863984344
0.422436356187419 0.4501178277250639 -0.06966519863984344
0.377848685816674 0.4790041088347229 -0.06898506420402906
0.31069026838311775 0.5741063353740237 -0.06898506420402906
0.1460880187098141 0.6142342670870717 -0.06898506420402906
0.23636129075483298 0.4802963642627701 -0.06898506420402906
0.42701268931982717 0.4146342425880056 -0.06898506420402906
0.43161817107091294 0.4324051837752125 -0.06898506420402906
0.30228574999769736 0.3752933235792571 -0.06898506420402906
0.26373184369324837 0.6251747152974569 -0.06898506420402906
0.5480377540698815 0.4283923906039077 -0.06898506420402906
0.3556374383842218 0.24379418851766146 -0.06898506420402906
0.11474353742499739 0.6149435501415637 -0.06772195739465953
0.6345605705116956 0.41019393634276025 -0.06772195739465953
0.38827417509708567 0.2285688933616454 -0.06772195739465953
0.37738230791782984 0.514264221228585 -0.06704182295884516
0.3969021662257023 0.6125047823788581 -0.06704182295884516
0.6409246855896729 0.43620422040954704 -0.06704182295884516
0.2799093270594046 0.47845028507984544 -0.06704182295884516
0.12718028139417448 0.5580454464825786 -0.06704182295884516
0.2056969439058307 0.5553443411517731 -0.06704182295884516
0.3342034874498432 0.5192389188162558 -0.06704182295884516
0.36881261402656873 0.6203943418343046 -0.06704182295884516
0.46887010574108867 0.24536821392626038 -0.06704182295884516
0.5516716151983755 0.3029075871961561 -0.06704182295884516
0.4042087533075938 0.6661285245397081 -0.06577871614947561
0.4937921747105724 0.1951062791195783 -0.06577871614947561
0.3766050114197563 0.48609693937964404 -0.06509858171366124
0.4614080593595824 0.5847747298100835 -0.06509858171366124
0.38032631840428344 0.5027019358197407 -0.06509858171366124
0.23885835575489422 0.4768956920836983 -0.06509858171366124
0.1251398780867314 0.6194130050054868 -0.06509858171366124
0.19037448668755552 0.5597554987783406 -0.06509858171366124
0.2724861455028019 0.6301299804726762 -0.06509858171366124
0.558492391968971 0.4241755571018586 -0.06509858171366124
0.45901787262800625 0.2982923892388444 -0.06509858171366124
0.4094457884633645 0.12865714474051426 -0.06383547490429167
0.42672120313304956 0.28222178414117344 -0.06383547490429167
0.6601530577107676 0.5637585757434193 -0.06383547490429167
0.3177636665155873 0.5821222055104075 -0.06315534046847729
0.4822201730955023 0.4355338021799586 -0.06315534046847729
0.39658153142024694 0.6021473065420277 -0.06315534046847729
0.33651594453161204 0.4624476934257558 -0.06315534046847729
0.36674306210044794 0.4531784326862286 -0.06315534046847729
0.46060161424283114 0.4460175886977258 -0.06315534046847729
0.2316586469414878 0.6330351261342262 -0.06315534046847729
0.48966278706455657 0.2522375717279856 -0.06315534046847729
0.5735136467942427 0.2859625235381524 -0.06315534046847729
0.3021885879354381 0.42960691638214765 -0.06189223365910776
0.5549362604902843 0.2674628668840015 -0.06189223365910776
0.13115420974057565 0.5433739750814401 -0.06121209922329338
0.37603175525242705 0.5856686207828682 -0.06121209922329338
0.4952496056444604 0.43491196498149964 -0.06121209922329338
0.27466257569740793 0.59678396070532 -0.06121209922329338
0.5270798972405729 0.4010121214592663 -0.06121209922329338
0.6339873143443663 0.4323371703316311 -0.06121209922329338
0.5509331835252056 0.5056167976875167 -0.06121209922329338
0.458920710565747 0.6394672546557847 -0.06121209922329338
0.4420242279388729 0.30176107486149767 -0.06121209922329338
0.3829108292603781 0.17984211913865866 -0.059948992413923846
0.5482709430193037 0.26942554054163725 -0.059948992413923846
0.4189676705647657 0.614661780161012 -0.059948992413923846
0.3089802160873559 0.5710554466190849 -0.05926885797810947
0.5312287172990405 0.43737016515665733 -0.05926885797810947
0.12865714474051426 0.6202194501222381 -0.05926885797810947
0.29030566772113847 0.4822298893017281 -0.05926885797810947
0.2867301038300001 0.4561127269664562 -0.05926885797810947
0.30274241169031557 0.37355412266481747 -0.05926885797810947
0.3972422334436095 0.4941808229596091 -0.05926885797810947
0.36844339818998384 0.19757419550096195 -0.05926885797810947
0.573474781969339 0.32260233721609516 -0.05926885797810947
0.40923203192639435 0.20299583857502498 -0.05800575116873993
0.6729493013103037 0.43578642354183245 -0.05800575116873993
0.3122642937917168 0.4359904638725768 -0.05800575116873993
0.3178413961653946 0.5802858425337087 -0.05732561673292556
0.5060443107614571 0.3862726366145462 -0.05732561673292556
0.3134302385388272 0.3591061240068751 -0.05732561673292556
0.3434533157769186 0.460378141499635 -0.05732561673292556
0.3323671244731444 0.45613215937890816 -0.05732561673292556
0.418442995428566 0.4064629131520071 -0.05732561673292556
0.5683737737007312 0.5959095021449872 -0.05732561673292556
0.3697648022367088 0.20060565184344883 -0.05732561673292556
0.4108740707785747 0.2562503648992904 -0.05732561673292556
0.44357882093502005 0.5908862235261868 -0.05606250992355603
0.45449012052672777 0.3322602462046592 -0.05606250992355603
0.450710516304845 0.41557671459191975 -0.05606250992355603
0.26613174663105055 0.5842111898489802 -0.05538237548774165
0.12312862339796599 0.5986591885069226 -0.05538237548774165
0.4641771781339696 0.6359888528269055 -0.05538237548774165
0.2806477587325744 0.474388910877411 -0.05538237548774165
0.12748148378717802 0.5866013765805562 -0.05538237548774165
0.3286555336948431 0.4541209046901427 -0.05538237548774165
0.44776650581839134 0.4609416814607383 -0.05538237548774165
0.4911007855859927 0.2809003800944483 -0.05538237548774165
0.4865633172784882 0.28419417400503516 -0.05538237548774165
0.3991854746887934 0.4483689106043983 -0.05411926867837208
0.4937921747105724 0.15424963193958646 -0.05411926867837208
0.3437448019636962 0.49799929200639553 -0.0534391342425577
0.3067357724491685 0.5836767985065545 -0.0534391342425577
0.4884774099049944 0.3731654744157808 -0.0534391342425577
0.3829205454666041 0.624348837768254 -0.0534391342425577
0.3388866988507364 0.4624476934257558 -0.0534391342425577
0.2379547485758838 0.47063845527420606 -0.0534391342425577
0.33001580256647184 0.3302198428972162 -0.0534391342425577
0.6183733709393135 0.4645075291456508 -0.0534391342425577
0.49201410897122916 0.24841910268119918 -0.0534391342425577
0.5032460433683922 0.36538279322881917 -0.05295332393126175
0.3502255115163846 0.4885648557610278 -0.052176027433188166
0.3648386856801677 0.24383305334256505 -0.052176027433188166
0.3337273933447732 0.5961718397130872 -0.051495892997373796
0.4932772157805987 0.37532247219793485 -0.051495892997373796
0.38525243496082473 0.625543931134042 -0.051495892997373796
0.3693372891627684 0.44550262976775207 -0.051495892997373796
0.45496621463179776 0.587368956872404 -0.051495892997373796
0.12530505359257202 0.6323064106672821 -0.051495892997373796
0.47609896317317285 0.6366592710564941 -0.051495892997373796
0.44054736459253313 0.2624201558527492 -0.051495892997373796
0.4802477832316406 0.29289017857723315 -0.051495892997373796
0.44269464616846127 0.37179548933792606 -0.05023278618800426
0.5046937580960542 0.2746917243160857 -0.05023278618800426
0.39973929844367084 0.5297129891277972 -0.04955265175218988
0.5391571415793909 0.4348828163628219 -0.04955265175218988
0.37913122503849545 0.6306449394026499 -0.04955265175218988
0.339178185037514 0.46055303321170155 -0.04955265175218988
0.3907420914784693 0.6482215564653384 -0.04955265175218988
0.11589976596588182 0.6254759176904605 -0.04955265175218988
0.5438695015989621 0.6131654844022205 -0.04955265175218988
0.3791603736571732 0.1859924776796657 -0.04955265175218988
0.43705924655742795 0.3142269674493525 -0.04955265175218988
0.42128012764653455 0.22337072303077846 -0.048289544942820346
0.3891389174511925 0.4593579398459134 -0.048289544942820346
0.34485244947345106 0.4917614876093552 -0.04760941050700597
0.5343573357037866 0.43525203219940695 -0.04760941050700597
0.387030500700168 0.6207732738771157 -0.04760941050700597
0.37151371935737443 0.5084053488743554 -0.04760941050700597
0.426060501109687 0.556073056618717 -0.04760941050700597
0.2624007234402974 0.5998931466976145 -0.04760941050700597
0.5046646094773765 0.5080555654502226 -0.04760941050700597
0.3556763032091255 0.23274686203879089 -0.04760941050700597
0.5335217419683577 0.28632202316851146 -0.04760941050700597
0.37079472009665637 0.21823084993726702 -0.04634630369763643
0.36582002250898554 0.42203799173215634 -0.04634630369763643
0.3854661914977949 0.5086774026486813 -0.045666169261822064
0.636892460005916 0.45667626692755964 -0.045666169261822064
0.31863812507591993 0.3365353769440638 -0.045666169261822064
0.5667997482921322 0.43231773791917916 -0.045666169261822064
0.4708327793987244 0.47370877644159665 -0.045666169261822064
0.4042087533075938 0.5011181942049157 -0.045666169261822064
0.5572195689533755 0.4616412483090045 -0.045666169261822064
0.4944820253526128 0.24000486808955282 -0.045666169261822064
0.3616031890069365 0.36873488437676144 -0.04440306245245249
0.301838804511305 0.46712118862042323 -0.04440306245245249
0.34022753530991334 0.20543460633773086 -0.04440306245245249
0.5493688743228325 0.39740740894945004 -0.043722928016638116
0.12465406777543546 0.6178389795968877 -0.043722928016638116
0.3417724120998345 0.4541889181337242 -0.043722928016638116
0.37978221085563196 0.5052864466758352 -0.043722928016638116
0.3868458927818756 0.6381555668152857 -0.043722928016638116
0.4999522494578054 0.5004380597691014 -0.043722928016638116
0.3711736521394673 0.6382721612899968 -0.043722928016638116
0.4775175292821571 0.27642120902429934 -0.043722928016638116
0.4996704794772538 0.4143136077825502 -0.04245982120726858
0.301838804511305 0.374943540155124 -0.04245982120726858
0.4708813604298541 0.24536821392626038 -0.04245982120726858
0.584104311580495 0.459047021246684 -0.0417796867714542
0.30482167982266234 0.644393371212326 -0.0417796867714542
0.3812785066144236 0.49999111428270915 -0.0417796867714542
0.36704426449345146 0.5928974782149524 -0.0417796867714542
0.45028300323090453 0.583501906794488 -0.0417796867714542
0.5025561927263519 0.508706551267359 -0.0417796867714542
0.4838816443601345 0.28088094768199645 -0.0417796867714542
0.5321809055091807 0.35899924573839004 -0.04129387646015822
0.3641779836568052 0.23638072316728478 -0.040516579962084666
0.45519940358121985 0.38459173293746224 -0.040516579962084666
0.29748594412209306 0.5786438036815282 -0.039836445526270296
0.3184243685389498 0.33422291986229496 -0.039836445526270296
0.3808218449218054 0.4821910244768245 -0.039836445526270296
0.36341040336495745 0.45614187558513397 -0.039836445526270296
0.38774949996088615 0.6347063136050843 -0.039836445526270296
0.5755831987203635 0.41482856671252394 -0.039836445526270296
0.345347975990973 0.21566577149362415 -0.039836445526270296
0.5787701143624651 0.3114287000562877 -0.039836445526270296
0.4270807027634085 0.3034905595697113 -0.03857333871690076
0.3274312917103772 0.43761307031230534 -0.03857333871690076
0.5824525565220888 0.45976602050740206 -0.03789320428108638
0.3178413961653946 0.36346870060231296 -0.03789320428108638
0.41700499690712994 0.4073373717123399 -0.03789320428108638
0.33325129923970304 0.5870094572420449 -0.03789320428108638
0.5512635345368868 0.4273721889501861 -0.03789320428108638
0.5090271860728144 0.5108246842246096 -0.03789320428108638
0.49160602830974054 0.23207644380920242 -0.03789320428108638
0.3786162661085216 0.5238249681548899 -0.036630097471716846
0.36358529507702403 0.24180236624134782 -0.036630097471716846
0.6611149621271338 0.5381563723381213 -0.036630097471716846
0.46513908255033554 0.4292668491642405 -0.03594996303590247
0.3135954140446678 0.5674507341092689 -0.03594996303590247
0.37578885009677904 0.6423335354924312 -0.03594996303590247
0.28458282225407183 0.6528464706288761 -0.03594996303590247
0.5552860439144174 0.4373313003317537 -0.03594996303590247
0.4568900234645299 0.27758715377140974 -0.03594996303590247
0.5577733927082529 0.37866484713965126 -0.035464152724606485
0.6345605705116956 0.41019393634276025 -0.0346868562265329
0.3530237789094494 0.16704587553912262 -0.0346868562265329
0.4885648557610277 0.2772470865535026 -0.03400672179071853
0.6078604358028683 0.5749419291094529 -0.03400672179071853
0.2707663770008142 0.6418185765624574 -0.03400672179071853
0.5021092472399596 0.364916415329975 -0.03400672179071853
0.4890020850411941 0.37748918618631494 -0.03400672179071853
0.5754083070082971 0.415071471868172 -0.03400672179071853
0.6503882704537185 0.4597563043011761 -0.03352091147942258
0.44259748410620214 0.35899924573839004 -0.03274361498134899
0.5193846619096446 0.17737420275727503 -0.03274361498134899
0.44762076272500256 0.27858792301267943 -0.032063480545534616
0.40370351058384607 0.5254184259759406 -0.032063480545534616
0.26417878917964077 0.6405749021655396 -0.032063480545534616
0.45907616986536176 0.4286352957595557 -0.032063480545534616
0.4935492695549245 0.42292216649871495 -0.032063480545534616
0.5579288520078677 0.5272062079215097 -0.032063480545534616
0.3274312917103772 0.42299017994229643 -0.03080037373616508
0.5218525782910283 0.39739769274322423 -0.03080037373616508
0.38554392114760233 0.20543460633773086 -0.03080037373616508
0.47028867185007295 0.4299081187751512 -0.030120239300350706
0.30076030562022804 0.6453164108037883 -0.030120239300350706
0.6320926541303118 0.44447271190780463 -0.030120239300350706
0.6520108768934471 0.43247319721879396 -0.030120239300350706
0.6335792336828777 0.459639709826465 -0.030120239300350706
0.4885842881734796 0.2256637477000955 -0.030120239300350706
0.46393427297832157 0.2583393492378631 -0.02885713249098117
0.610338068390478 0.41019393634276025 -0.02885713249098117
0.5543921529416329 0.5171207858590054 -0.028176998055166793
0.3119630913987132 0.34914701262530745 -0.028176998055166793
0.37131939523285606 0.4538294185033651 -0.028176998055166793
0.3726602316920329 0.44307357821127213 -0.028176998055166793
0.3570754369056579 0.43291042649896033 -0.028176998055166793
0.6527201599479392 0.49425855260941653 -0.028176998055166793
0.5694036915606786 0.3102433228967255 -0.028176998055166793
0.3074742041223385 0.5099793742829544 -0.026913891245797256
0.34022753530991334 0.14145338834005042 -0.026913891245797256
0.46260315272537056 0.4582891571610623 -0.026233756809982883
0.4704829959745913 0.6465115041695767 -0.026233756809982883
0.647881489247431 0.4431513078610796 -0.026233756809982883
0.6461714369516693 0.4517792989896961 -0.026233756809982883
0.40589937319090386 0.5232419957813347 -0.026233756809982883
0.4291794033082072 0.31722927517316163 -0.026233756809982883
0.4554034439119642 0.15178171555820297 -0.024970650000613312
0.6345605705116956 0.5706376497513703 -0.024970650000613312
0.6436452233329304 0.4414412555653177 -0.02429051556479894
0.2331743751127313 0.5603676197705735 -0.02429051556479894
0.42163962727689364 0.39749485480548336 -0.02429051556479894
0.4213092762652123 0.3931419944162714 -0.02429051556479894
0.47620584144165806 0.4309963338724542 -0.02429051556479894
0.38447513846275116 0.17426501676498082 -0.02429051556479894
0.5700060963466858 0.3756431070033902 -0.023804705253502985
0.544977149108717 0.48697139793997685 -0.023027408755429402
0.510523481831606 0.460378141499635 -0.022347274319615026
0.5853868508023164 0.4109226518097043 -0.022347274319615026
0.3595044884621378 0.4445601577638379 -0.022347274319615026
0.37802357752874055 0.4864467228037772 -0.022347274319615026
0.3624290665361396 0.4525274468690919 -0.022347274319615026
0.6236104060950841 0.48263796996321673 -0.022347274319615026
0.4497097470635753 0.2742642112421453 -0.022347274319615026
0.49615321282347097 0.2911606938690195 -0.02108416751024549
0.68574554490984 0.44858266714136863 -0.02108416751024549
0.5080944302751261 0.4905761104497931 -0.020404033074431116
0.44353023990389046 0.651155850745566 -0.020404033074431116
0.4381085968298273 0.3753321884041608 -0.020404033074431116
0.37044493667252326 0.5857949314638049 -0.020404033074431116
0.3633132413026984 0.5867374034677192 -0.020404033074431116
0.6437521016014155 0.4753799639124548 -0.020404033074431116
0.4958908752553711 0.22259342653270492 -0.020404033074431116
0.49565768630594903 0.28838185888840645 -0.01914092626506158
0.3530237789094494 0.49976764153951303 -0.01914092626506158
0.6665366052011968 0.5093478208782697 -0.018460791829247206
0.33611758007634934 0.5684515033505385 -0.018460791829247206
0.545929337318857 0.4171604562067446 -0.018460791829247206
0.4579393737369291 0.42358286852207744 -0.018460791829247206
0.45855149472916207 0.44586212939811115 -0.018460791829247206
0.5073462823957303 0.44321932130466096 -0.018460791829247206
0.5604550656266067 0.2778980723706391 -0.018460791829247206
0.68574554490984 0.48697139793997685 -0.01719768501987767
0.4275179320435749 0.26942554054163725 -0.01719768501987767
0.4708424956049504 0.4666450945153531 -0.016517550584063293
0.3740982302134691 0.4622825179199152 -0.016517550584063293
0.4798494187763779 0.6392729305312665 -0.016517550584063293
0.3834355043965778 0.6601627739169934 -0.016517550584063293
0.4784794336985232 0.44749445204406557 -0.016517550584063293
0.44792196511800614 0.26677301624196126 -0.016517550584063293
0.31463504811084114 0.19418323952811598 -0.015254443774693724
0.5695494346540675 0.37179548933792606 -0.015254443774693724
0.5017205989909228 0.463156976480248 -0.014574309338879349
0.3395474008740989 0.5712303383311516 -0.014574309338879349
0.43998382463142977 0.4353297618492143 -0.014574309338879349
0.5109607111117724 0.424360165020151 -0.014574309338879349
0.46055303321170155 0.4121371775879442 -0.014574309338879349
0.573610808856502 0.5377774402953105 -0.014574309338879349
0.5697729073972636 0.3041901264179776 -0.014574309338879349
0.41700499690712994 0.35899924573839004 -0.013311202529509812
0.301838804511305 0.42299017994229643 -0.013311202529509812
0.6433245885274749 0.4760309497295915 -0.012631068093695437
0.42527348840538753 0.3993992312257637 -0.012631068093695437
0.43055910459228774 0.41541153908607914 -0.012631068093695437
0.46175784278371557 0.6558099135277816 -0.012631068093695437
0.566459681074225 0.44969031465112336 -0.012631068093695437
0.3624193503299136 0.1799587136133697 -0.012631068093695437
0.5608534300818694 0.26049634702001717 -0.012631068093695437
0.4527703520247399 0.32061051493978165 -0.0113679612843259
0.32166958141840696 0.48697139793997685 -0.0113679612843259
0.38935267398816276 0.6504271352786222 -0.010687826848511528
0.581442071074593 0.3965523828015692 -0.010687826848511528
0.5105429142440578 0.41974496706283926 -0.010687826848511528
0.58859319885687 0.3889640257391259 -0.010687826848511528
0.5794793974169573 0.40459740155663065 -0.010687826848511528
0.3700465722172606 0.1725938292941227 -0.010687826848511528
0.5586478512685856 0.27782034272083184 -0.010687826848511528
0.34022753530991334 0.33340675853931784 -0.009424720039141991
0.4554034439119642 0.6626112578859252 -0.009424720039141991
0.37102790904607846 0.17907453884681107 -0.008744585603327616
0.6528076058039723 0.4770220027646352 -0.008744585603327616
0.438264056129442 0.370959895602497 -0.008744585603327616
0.6402445511538583 0.4918780820840662 -0.008744585603327616
0.6443933712123262 0.47446664052721843 -0.008744585603327616
0.4673835261885231 0.5456378511320794 -0.008744585603327616
0.4344455870826556 0.26079754941302075 -0.008744585603327616
0.31463504811084114 0.21577264976210936 -0.00748147879395808
0.45231369033212177 0.5156439225126656 -0.00748147879395808
0.524786872571256 0.4029456464982243 -0.00748147879395808
0.3098255260290109 0.31877415196308295 -0.006801344358143706
0.48541680494382977 0.42233919412515974 -0.006801344358143706
0.34496904394816214 0.571308067980959 -0.006801344358143706
0.33885755023205866 0.4482425999234613 -0.006801344358143706
0.3437448019636962 0.5611449162686472 -0.006801344358143706
0.593529031619637 0.5418679631164226 -0.006801344358143706
0.4905178132124376 0.23375734748628652 -0.006801344358143706
0.5961621235068614 0.21823084993726702 -0.005538237548774134
0.5298101511900564 0.39739769274322423 -0.005538237548774134
0.4158487683662455 0.5189474326294782 -0.005538237548774134
0.5752528477086822 0.5477171192644262 -0.00485810311295976
0.5736691060938575 0.39198576587538697 -0.00485810311295976
0.597648703059427 0.40113843214020317 -0.00485810311295976
0.422562666868356 0.397902935466972 -0.00485810311295976
0.3432104106212707 0.44593014284169247 -0.00485810311295976
0.6063835724565286 0.5394291953537167 -0.00485810311295976
0.5739217274557312 0.2972333227602192 -0.00485810311295976
0.4996704794772538 0.4068029803699144 -0.003594996303590223
0.320940865951463 0.430044145662314 -0.003594996303590223
0.34648477211940565 0.21004008808881677 -0.002914861867775849
0.4652265284063688 0.5477948489142334 -0.002914861867775849
0.3392267660686437 0.5667414510547768 -0.002914861867775849
0.6524578223798393 0.4963864017728929 -0.002914861867775849
0.5250880749642595 0.4140707026269022 -0.002914861867775849
0.4696085374142586 0.4257107176855539 -0.002914861867775849
0.47071618492401335 0.5526821006458711 -0.002914861867775849
0.4809959311110364 0.39738797653699826 -0.002429051556479863
0.4554034439119642 0.39585281595330296 -0.001651755058406312
0.5580843113074824 0.3178899771965242 -0.001651755058406312
0.3235059443951057 0.3116618890057098 -9.716206225919382E-4
0.3955127487353958 0.5117865886409755 -9.716206225919382E-4
0.49648356383515213 0.42748878342489716 -9.716206225919382E-4
0.4275179320435749 0.6588316536640427 -9.716206225919382E-4
0.5659641545567032 0.40191572863827685 -9.716206225919382E-4
0.48280314546905734 0.42350513887227015 -9.716206225919382E-4
0.4375839216936276 0.5605230790701881 -9.716206225919382E-4
0.6217643269121593 0.40614227834655175 -4.8581031129595184E-4
0.5422274627467816 0.26942554054163725 2.9148618677759874E-4
0.5961621235068614 0.28222178414117344 2.9148618677759874E-4
0.49465691706467935 0.45708434758904826 9.716206225919727E-4
0.46354562472928473 0.6460839910956361 9.716206225919727E-4
0.4725622641069382 0.4481940188923318 9.716206225919727E-4
0.4759823686984618 0.45279950064341773 9.716206225919727E-4
0.4489421667717276 0.6574033713488323 9.716206225919727E-4
0.5951322056469136 0.5556066787198728 9.716206225919727E-4
0.4967264689908002 0.22401199264168917 9.716206225919727E-4
0.3918983200193537 0.3690749515946686 0.0022347274319615097
0.6506408918155925 0.42299017994229643 0.0022347274319615097
0.37230073206167397 0.16580220114220492 0.0029148618677758836
0.46954052397067714 0.43441643846397787 0.0029148618677758836
0.5946949763667474 0.3975920168677426 0.0029148618677758836
0.5860669852381307 0.3881381482099228 0.0029148618677758836
0.40403386159552723 0.3921412251750018 0.0029148618677758836
0.4656054604491797 0.4910327721424113 0.0029148618677758836
0.5797903160161868 0.5696563129225525 0.0029148618677758836
0.5616793076110727 0.26383872196173347 0.0029148618677758836
0.524417656734671 0.24373589128030596 0.004177968677145455
0.48459092741462667 0.4625837203129188 0.004177968677145455
0.31349825198240855 0.343288140271078 0.004858103112959829
0.4641577457215177 0.6453552756286922 0.004858103112959829
0.47456380258947756 0.4471932496510621 0.004858103112959829
0.3956390594163328 0.502439598251641 0.004858103112959829
0.6294498460368617 0.4954439297689789 0.004858103112959829
0.5910222504133499 0.5510886428248202 0.004858103112959829
0.498310210605625 0.22795677236941245 0.004858103112959829
0.645364991834918 0.43812802924227906 0.0061212099223293655
0.48901180124742005 0.4638079622973846 0.0061212099223293655
0.3726505154858071 0.16267358273745877 0.00680134435814374
0.4753022342626475 0.45525770081857536 0.00680134435814374
0.43294929132386395 0.446969776907866 0.00680134435814374
0.4653139742624021 0.6407109290527025 0.00680134435814374
0.4702789556438471 0.41223433965020345 0.00680134435814374
0.47339785784236726 0.49940814190915395 0.00680134435814374
0.44525972461210417 0.2610501707748946 0.00680134435814374
0.6302951559785166 0.41000932842446786 0.007287154669439726
0.5728723771833318 0.3126626582469795 0.008064451167513276
0.3786162661085216 0.5125638851390492 0.008064451167513276
0.3409853993955351 0.4310060500786801 0.008744585603327651
0.43658315245235796 0.44615361558488875 0.008744585603327651
0.5024590306640928 0.48975994912681586 0.008744585603327651
0.47123114385398723 0.4561224431726822 0.008744585603327651
0.6636994729832283 0.5030517192438738 0.008744585603327651
0.566712302436099 0.5691899350237083 0.008744585603327651
0.5591822426110112 0.2605740766698245 0.008744585603327651
0.31463504811084114 0.17984211913865866 0.010007692412697188
0.3646637939681011 0.4831432126869645 0.010007692412697188
0.36245821515481735 0.1679009016870035 0.010687826848511562
0.4740974246906334 0.4669074320834529 0.010687826848511562
0.5095324287965621 0.4436176857599236 0.010687826848511562
0.6486879343641824 0.5341338629605906 0.010687826848511562
0.4702206584064916 0.5360868204120004 0.010687826848511562
0.4413829583279622 0.6477454623602683 0.010687826848511562
0.43159873865846116 0.2887024936938618 0.010687826848511562
0.6403417132161177 0.41019393634276025 0.011173637159807548
0.4463285072969553 0.39104329387147285 0.011950933657881099
0.6070054096549875 0.5476879706457484 0.011950933657881099
0.3811619121397125 0.15481317190068986 0.012631068093695472
0.3815894252136531 0.4768956920836983 0.012631068093695472
0.5372819137777886 0.6210258952389894 0.012631068093695472
0.508463646111711 0.4520027717328922 0.012631068093695472
0.62240559652307 0.4150228908370423 0.012631068093695472
0.6400405108231141 0.5588324591868783 0.012631068093695472
0.4656151766554057 0.25080928941277536 0.012631068093695472
0.6403417132161177 0.417121591381841 0.013116878404991459
0.4174519423935222 0.41019393634276025 0.013894174903065043
0.6729493013103037 0.5381563723381213 0.013894174903065043
0.3774017403302816 0.16099267906037468 0.014574309338879418
0.4945014577650646 0.4521387986200552 0.014574309338879418
0.6058977621452326 0.5219011593221577 0.014574309338879418
0.5091437805475255 0.4155669983856938 0.014574309338879418
0.42774140478677114 0.4019351610507287 0.014574309338879418
0.44966116603244577 0.5887680905689364 0.014574309338879418
0.49695965794022223 0.21628760869208308 0.014574309338879418
0.6762722438395684 0.46137891074090465 0.015837416148248955
0.45345048646055425 0.2762463173122328 0.015837416148248955
0.3530237789094494 0.49976764153951303 0.015837416148248955
0.46225336930123745 0.24908952091078754 0.016517550584063328
0.3274507241228291 0.33797337546550005 0.016517550584063328
0.4931509050996618 0.6097939608418264 0.016517550584063328
0.4383709343979271 0.39977816326857446 0.016517550584063328
0.4274596348062194 0.39622203178988785 0.016517550584063328
0.4675778503130414 0.49972877671460947 0.016517550584063328
0.31463504811084114 0.48697139793997685 0.017003360895359317
0.6585693160959428 0.5509526159376574 0.017780657393432864
0.4312295228218762 0.5381563723381213 0.017780657393432864
0.48719487068317313 0.18806202960578666 0.017780657393432864
0.4784697174922972 0.26273107445197874 0.01846079182924724
0.3167628972743175 0.30979637741033317 0.01846079182924724
0.5909833855884461 0.5436071640308622 0.01846079182924724
0.5320740272406957 0.6184802492077984 0.01846079182924724
0.6216088676125447 0.5085413757615184 0.01846079182924724
0.494093377103576 0.5273130861899952 0.01846079182924724
0.5197635939524555 0.25662929694210124 0.018946602140543226
0.3349127705043354 0.298098065114326 0.019723898638616778
0.544977149108717 0.45983403395098355 0.019723898638616778
0.4554034439119642 0.14145338834005042 0.019723898638616778
0.5723088372222286 0.25053723563844954 0.02040403307443115
0.3761483497271381 0.15615400835986668 0.02040403307443115
0.5349305918711159 0.621327097631993 0.02040403307443115
0.5711234600626666 0.5608339976694177 0.02040403307443115
0.56635280280574 0.43388204712155226 0.02040403307443115
0.5212404572987953 0.6030509137210383 0.02040403307443115
0.39141250970805774 0.17857901232928916 0.020889843385727136
0.45328531095471364 0.2736520902499123 0.021667139883800687
0.5197635939524555 0.4031691192414204 0.021667139883800687
0.459523115351754 0.4987765885044692 0.021667139883800687
0.6326464778851894 0.4213967221212456 0.02234727431961506
0.44745558721916195 0.254598609840884 0.02234727431961506
0.3146447643170671 0.3463876100571464 0.02234727431961506
0.5630881575138311 0.4429181189116575 0.02234727431961506
0.4732521147489785 0.5573750282529903 0.02234727431961506
0.4532367299235841 0.5912651555689978 0.02234727431961506
0.36769525031058803 0.4153143770238199 0.02234727431961506
0.44440469846422315 0.6021473065420277 0.02283308463091105
0.29765111962793367 0.32061051493978165 0.02361038112898463
0.49054696183111535 0.45983403395098355 0.02361038112898463
0.4208914793974977 0.45320758130490635 0.02361038112898463
0.40452938811304917 0.52234810480855 0.02429051556479901
0.5614169700429726 0.4403238918493369 0.02429051556479901
0.4996899118897056 0.4505259083865526 0.02429051556479901
0.406968155875755 0.5405757076883752 0.02429051556479901
0.3347378787922688 0.5035278133489439 0.02429051556479901
0.3699202615363236 0.16319825787365846 0.02429051556479901
0.575884401113367 0.24701996898466672 0.02429051556479901
0.48948789535249004 0.49976764153951303 0.025553622374168545
0.30626939455032437 0.28222178414117344 0.025553622374168545
0.5097170367148547 0.25991337464646197 0.025553622374168545
0.6598907201426679 0.538817074361484 0.026233756809982918
0.463156976480248 0.571434378661896 0.026233756809982918
0.5332788368127097 0.6035658726510119 0.026233756809982918
0.5089980374541366 0.5732124444012392 0.026233756809982918
0.4988931829791802 0.5991838636431223 0.026233756809982918
0.3030824789082227 0.3234282147452984 0.026233756809982918
0.5025561927263519 0.24221044690283647 0.026233756809982918
0.3137800219629602 0.2681624337322678 0.026719567121278903
0.43464962741339996 0.33664225521254904 0.027496863619352455
0.3786162661085216 0.38459173293746224 0.027496863619352455
0.6602793683917046 0.5380203454509583 0.028176998055166828
0.4696571184453882 0.638709390570163 0.028176998055166828
0.4181806578604662 0.5486207264434366 0.028176998055166828
0.615147590472308 0.4808987690487771 0.028176998055166828
0.4929177161502397 0.6057034380207142 0.028176998055166828
0.3685988574895986 0.15239383655043579 0.028176998055166828
0.4339306281526819 0.29014049221529786 0.028176998055166828
0.3264402386753335 0.26906604091127834 0.028662808366462816
0.4548787687757645 0.42299017994229643 0.029440104864536364
0.3241666464184682 0.40812438441663945 0.029440104864536364
0.3420541820803863 0.46647020280328655 0.03012023930035074
0.4326383727246345 0.4301607401370251 0.03012023930035074
0.5167321376099686 0.4361167745535138 0.03012023930035074
0.48168578175307664 0.6022541848105128 0.03012023930035074
0.5040524884851436 0.4420728089700025 0.03012023930035074
0.49992310083912767 0.21330473338072575 0.03012023930035074
0.4808793366363253 0.1869543820960318 0.03012023930035074
0.301838804511305 0.47417515434044083 0.031383346109720274
0.6089680833126232 0.37179548933792606 0.031383346109720274
0.33094855836416015 0.2466507531480818 0.03206348054553465
0.47705115138331294 0.2688717167867598 0.03206348054553465
0.44550262976775207 0.3011392376630389 0.03206348054553465
0.4243407326076992 0.542538381346011 0.03206348054553465
0.4581822788925772 0.4455414945926558 0.03206348054553465
0.4408582831917625 0.44828146474836505 0.03206348054553465
0.5798291808410904 0.5947338411916511 0.03206348054553465
0.6695680615436836 0.44228656550697265 0.032549290856830636
0.46360392196664024 0.49041093494395255 0.03332658735490422
0.5193846619096446 0.37179548933792606 0.03332658735490422
0.3101947418655958 0.32283552616551725 0.0340067217907186
0.4854653859749593 0.2412193938677928 0.0340067217907186
0.3306959370022863 0.5149443556643992 0.0340067217907186
0.5797417349850572 0.40025425737364456 0.0340067217907186
0.4045779691441789 0.3868944738130051 0.0340067217907186
0.5792462084675352 0.5715218245179291 0.0340067217907186
0.4887008826481905 0.641857441387361 0.0340067217907186
0.4494279770830237 0.5674507341092689 0.035269828600088135
0.5602024442647328 0.3088830540250968 0.035269828600088135
0.48990569222020464 0.28222178414117344 0.035269828600088135
0.3727185289293884 0.1444265474451818 0.035949963035902505
0.3625553772170766 0.13278653238653004 0.035949963035902505
0.3935403588715341 0.49669732037212244 0.035949963035902505
0.4476596275499063 0.4370981113823317 0.035949963035902505
0.3609619193960258 0.4175588206620074 0.035949963035902505
0.5449091356651354 0.6043723177677632 0.035949963035902505
0.5204825932131735 0.6010979562696285 0.035949963035902505
0.301838804511305 0.49976764153951303 0.03721306984527204
0.34022753530991334 0.33340675853931784 0.03721306984527204
0.6175183447914324 0.5458807562877275 0.03721306984527204
0.37140684108888933 0.14727339586937616 0.03789320428108642
0.3806080883848351 0.1411036049159173 0.03789320428108642
