-0.3817036016494213 0.5520780931590873 -0.06532114844035414
0.5035635674382012 -0.6340829390003598 -0.06497968922216095
0.534233434416312 -0.5351417159367058 -0.06443335447305187
0.07275130102823765 -0.5227330879475659 -0.06443335447305187
-0.382768954410184 -0.16636576028807806 -0.06443335447305187
-0.4767521896256732 0.22427724369364047 -0.06443335447305187
0.565948166602094 -0.6856432809475291 -0.06395531156758143
0.5629296671132663 -0.673794646076226 -0.06395531156758143
0.41427881106505005 -0.5726680840161357 -0.06395531156758143
0.10270410364814282 -0.5984072798835371 -0.06395531156758143
0.07581077562324844 -0.5030718661640029 -0.06395531156758143
-0.1473396526503545 -0.3020070201231345 -0.06395531156758143
-0.16997156963219803 -0.3176458523163818 -0.06395531156758143
-0.3139717511286233 -0.09535590127262568 -0.06395531156758143
-0.33813340540797227 -0.05386177707779124 -0.06395531156758143
-0.3797914300275395 0.2230821364299643 -0.06395531156758143
-0.3890996083154854 0.5995750704097577 -0.06395531156758143
-0.3293988786065909 0.5234160063839522 -0.06395531156758143
-0.22386749263180866 -0.4092183854514272 -0.06361385234938827
0.39975996510747625 -0.6506095651609094 -0.06306751760027919
-0.0859521144035857 -0.4452013578646239 -0.06306751760027919
-0.3664335454118225 -0.03144839399559124 -0.06306751760027919
-0.40641159067787935 0.5891810518079575 -0.06306751760027919
0.5429406444802379 -0.5185809438543368 -0.06258947469480874
0.5146678212138432 -0.6499061591714316 -0.06258947469480874
0.06276703348826923 -0.5896727530821556 -0.06258947469480874
0.061408025799860405 -0.5048406249142435 -0.06258947469480874
-0.14143240817561253 -0.34853425319413633 -0.06258947469480874
-0.22149776565754797 -0.3370202483566625 -0.06258947469480874
-0.2928149379693743 -0.0848116406148205 -0.06258947469480874
-0.3409538585502479 -0.035040544970983495 -0.06258947469480874
-0.44483258190897523 0.22297286948014253 -0.06258947469480874
-0.39392101247637307 0.5950882962826995 -0.06258947469480874
-0.374963196682288 0.5457542684381497 -0.06258947469480874
-0.1240384756008523 -0.31160202415436267 -0.06224801547661556
0.18388944736575186 -0.5351417159367058 -0.06170168072750648
-0.20288140908165614 -0.3430504181499539 -0.06170168072750648
-0.3917629902173922 0.2473803743965907 -0.06170168072750648
-0.32826523400218954 0.539129959605202 -0.06170168072750648
0.5154326898625959 -0.504717699595694 -0.06122363782203604
0.5148590383760313 -0.5964882790772914 -0.06122363782203604
0.11157521413680144 -0.48224285385421933 -0.06122363782203604
0.08772087315382635 -0.5103312891427898 -0.06122363782203604
-0.14300312057930117 -0.35101324711821874 -0.06122363782203604
-0.409177410345244 -0.10596162458970564 -0.06122363782203604
-0.29364809846176565 -0.06084803268202355 -0.06122363782203604
-0.39378442878909575 0.15823903089508054 -0.06122363782203604
-0.39421466740401917 0.32052776811793227 -0.06122363782203604
-0.31996777500009543 0.49640658222487216 -0.06122363782203604
-0.29247347875118107 0.6291386095209227 -0.06122363782203604
-0.3198107037597266 0.5621921152019691 -0.06033584385473379
-0.382768954410184 0.13944511552572839 -0.06033584385473379
-0.20288140908165614 -0.34626013480096973 -0.06033584385473379
0.16590137575133546 -0.6012413913945404 -0.06033584385473379
0.5647667177071456 -0.5277115633488224 -0.059857800949263344
0.5182668013735992 -0.565900362311547 -0.059857800949263344
0.14415042355243027 -0.501419203547948 -0.059857800949263344
0.17206130004754033 -0.545180616951585 -0.059857800949263344
-0.19263080335149702 -0.41655292945821654 -0.059857800949263344
-0.10562699455587637 -0.3804538609108342 -0.059857800949263344
-0.3686871762518975 -0.12492626956815452 -0.059857800949263344
-0.3517166531076968 -0.029283542552246564 -0.059857800949263344
-0.3588872966897534 0.20477992233481032 -0.059857800949263344
-0.4302932483983099 0.2835135888657923 -0.059857800949263344
-0.28481796307929014 0.5417455372165618 -0.059857800949263344
-0.36126385284837786 0.596010236171821 -0.059857800949263344
-0.3316388510779381 0.5891810518079575 -0.0589700069819611
-0.3684413256147984 -0.10112656206009031 -0.0589700069819611
0.06696015268768143 -0.5363573107534735 -0.0589700069819611
0.5449620830519415 -0.6610718756063483 -0.0589700069819611
0.6532183135879053 -0.6057418238903265 -0.058491964076490655
0.5205340905824019 -0.6234772156832799 -0.058491964076490655
0.10271776201687052 -0.5747373268783862 -0.058491964076490655
0.030676696162474766 -0.49037641243158075 -0.058491964076490655
-0.1455094312408391 -0.3062479436130937 -0.058491964076490655
-0.4105432472180167 -0.09914609859456995 -0.058491964076490655
-0.2984012107790146 -0.15423712885785656 -0.058491964076490655
-0.44180725323578374 0.2232870119608802 -0.058491964076490655
-0.4371702370527204 0.16928865119581182 -0.058491964076490655
-0.38466063847897414 0.5444294066715603 -0.058491964076490655
-0.35786291903517387 0.5955185348976229 -0.058491964076490655
-0.4265576845512766 0.29235738261699545 -0.05760417010918841
-0.1625345878599507 -0.3192780273793452 -0.05760417010918841
0.2108715547873764 -0.5801187241571107 -0.05760417010918841
0.5881156990471949 -0.6749624366024466 -0.057126127203717965
0.580303112134935 -0.5367943785527608 -0.057126127203717965
0.14921084916605312 -0.5096825166282228 -0.057126127203717965
0.13023937500324034 -0.4934836913171386 -0.057126127203717965
-0.09978121274040928 -0.4116837210067819 -0.057126127203717965
-0.11223081583573236 -0.35208542906334533 -0.057126127203717965
-0.3072450045302178 -0.10233532769249419 -0.057126127203717965
-0.30536014964579145 -0.15294641301308642 -0.057126127203717965
-0.4106115390616554 0.14023730091193645 -0.057126127203717965
-0.44761888912943154 0.20172044773979944 -0.057126127203717965
-0.3254311224911862 0.5318841949951431 -0.057126127203717965
-0.2924188452762702 0.6282986198441676 -0.057126127203717965
0.39975996510747625 -0.6520710106147762 -0.0562383332364157
-0.09444761975223186 -0.42721328625020744 -0.0562383332364157
-0.389570822036592 0.22939230278217418 -0.0562383332364157
0.6341648892127263 -0.5795109267487268 -0.055760290330945254
0.6495100664783274 -0.6075993620372973 -0.055760290330945254
0.18302214095154115 -0.5824747927626436 -0.055760290330945254
0.13229495949676326 -0.5927322276771665 -0.055760290330945254
-0.19184544714965276 -0.41757730711279606 -0.055760290330945254
-0.10612552501443846 -0.4089930223674197 -0.055760290330945254
-0.32174336293469996 -0.17216373781299818 -0.055760290330945254
-0.3660511110874462 0.0020350969404313284 -0.055760290330945254
-0.35095178445894404 0.23675416352641904 -0.055760290330945254
-0.4321781032827362 0.2772580559884934 -0.055760290330945254
-0.30783231438551006 0.5134590555814393 -0.055760290330945254
-0.33135885451901975 0.5891810518079575 -0.054872496363643004
-0.3467928111813512 0.2114042311677579 -0.054872496363643004
-0.14867134360130785 -0.3514844608393254 -0.054872496363643004
0.5152483018847716 -0.5491756898044453 -0.054872496363643004
0.5110005492104485 -0.5124551654799513 -0.054394453458172565
0.5125302865079538 -0.6518524767151326 -0.054394453458172565
0.08067998407468316 -0.600312622321055 -0.054394453458172565
0.052202285277372446 -0.5422508968594877 -0.054394453458172565
-0.20067558253212828 -0.41330223770101754 -0.054394453458172565
-0.21856121638108672 -0.2840189485087181 -0.054394453458172565
-0.3374026826810389 -0.1004094977018846 -0.054394453458172565
-0.3500298445698225 -0.032520575940717875 -0.054394453458172565
-0.4688713108697747 0.2258684436504207 -0.054394453458172565
-0.43742291687418333 0.2802355803711377 -0.054394453458172565
-0.28670281796371644 0.5280325350139239 -0.054394453458172565
-0.35473515259652444 0.6088081276697012 -0.054394453458172565
0.0854945590512069 -0.49742413069508784 -0.053506659490870315
-0.13307348651424372 -0.34626013480096973 -0.053506659490870315
-0.38064507807302245 0.2833633468097872 -0.053506659490870315
0.517324373931386 -0.7055571825525551 -0.05302861658539987
0.6126324709134648 -0.5631482010129099 -0.05302861658539987
0.1459874741463095 -0.5250208647094601 -0.05302861658539987
0.12397018375721372 -0.5586614268858516 -0.05302861658539987
0.05085010677332743 -0.5480488743844077 -0.05302861658539987
-0.1081606219548697 -0.3600414288472463 -0.05302861658539987
-0.2877203664339321 -0.11111082960005873 -0.05302861658539987
-0.31418345584390306 -0.1254726043172636 -0.05302861658539987
-0.44767352260434246 0.16707599546191998 -0.05302861658539987
-0.4359341546828612 0.27751756499432007 -0.05302861658539987
-0.2865184299858921 0.5285583822099416 -0.05302861658539987
-0.31216884645656334 0.5713637098026376 -0.05302861658539987
-0.3737749186029758 0.4592694776541827 -0.052140822618097625
-0.378213888439487 -0.10340750963762073 -0.052140822618097625
-0.18994693389649867 -0.40835790822158036 -0.052140822618097625
0.39975996510747625 -0.5531366167354861 -0.052140822618097625
0.5249594020501853 -0.5147907465323927 -0.05166277971262718
0.5388158171244644 -0.6589001949786397 -0.05166277971262718
0.09134717005103789 -0.6027301535858627 -0.05166277971262718
0.0541895779272567 -0.547782536194217 -0.05166277971262718
-0.1195721890268856 -0.32407211480277737 -0.05166277971262718
-0.1847635829643263 -0.31379419233516287 -0.05166277971262718
-0.36751255654131293 -0.16060875786934123 -0.05166277971262718
-0.4066437829462507 -0.013426176459355553 -0.05166277971262718
-0.4124076145493515 0.18161532897258525 -0.05166277971262718
-0.3867230521568609 0.5366987699716668 -0.05166277971262718
-0.32385358090313376 0.4953617170172011 -0.05166277971262718
-0.3439313829328924 -0.08541260883884043 -0.051321320494434004
-0.41658707538003587 0.22831329165268385 -0.050774985745324935
-0.29097788737549496 -0.15737172448086992 -0.050774985745324935
0.07095522554054152 -0.5261476801294976 -0.050774985745324935
0.5616594388215879 -0.6700659114135565 -0.050774985745324935
0.5349983030650647 -0.5113283500599138 -0.05029694283985449
0.44009312796045397 -0.5627657666885335 -0.05029694283985449
0.1335720169728057 -0.48560964174560406 -0.05029694283985449
0.08569943458212281 -0.5061108532059221 -0.05029694283985449
-0.11895073324977407 -0.32798523744327107 -0.05029694283985449
-0.2179056146821558 -0.34611672192932863 -0.05029694283985449
-0.3152692961577574 -0.08638235301850912 -0.05029694283985449
-0.3455772163645835 -0.03840733286236816 -0.05029694283985449
-0.40819400779684767 0.22243336391539725 -0.05029694283985449
-0.38862156541001497 0.27758585683795883 -0.05029694283985449
-0.3459255047671405 0.5438489260006317 -0.05029694283985449
-0.29254859977918357 0.6276225305921452 -0.05029694283985449
-0.3737749186029758 0.5909088354520151 -0.049409148872552225
-0.3977999891950475 0.22418163511254632 -0.049409148872552225
-0.14891036505404304 -0.441943836923061 -0.049409148872552225
0.07071620408780632 -0.5611540791786618 -0.049409148872552225
0.6516066260780337 -0.5801187241571107 -0.049409148872552225
0.5127078453014143 -0.5148180632698481 -0.04893110596708178
0.4215792091500202 -0.5674779038995993 -0.04893110596708178
0.16313555608397076 -0.5241945334014326 -0.04893110596708178
-0.1529805589349057 -0.4315156723994414 -0.04893110596708178
-0.19610002900833973 -0.3092118096270104 -0.04893110596708178
-0.37848022662967773 -0.14051046828649094 -0.04893110596708178
-0.3442865005198133 -0.03848928307473452 -0.04893110596708178
-0.40374137959160866 0.21447736413149637 -0.04893110596708178
-0.38967325980205 0.4786028985882801 -0.04893110596708178
-0.3436445571896101 0.5059469527811896 -0.04893110596708178
0.10453432505765824 -0.5531366167354861 -0.048589646748888625
0.5022796807777947 -0.5691237373312904 -0.04804331199977953
-0.0943793279085932 -0.43620732205741564 -0.04804331199977953
-0.27955949111911527 -0.09441347383041247 -0.04804331199977953
-0.4637221058594216 0.1574400163245086 -0.04804331199977953
0.6067525431761782 -0.661433822377633 -0.04756526909430909
0.6176041171303572 -0.6483491051364706 -0.04756526909430909
0.12741892186096473 -0.602060893518204 -0.04756526909430909
0.18255092723043465 -0.5509717652921414 -0.04756526909430909
-0.17108472668350785 -0.42234407779877275 -0.04756526909430909
-0.2913193465936882 -0.12924914327048007 -0.04756526909430909
-0.3700188672028509 -0.11253129994774232 -0.04756526909430909
-0.4150505088981666 0.1329369028269665 -0.04756526909430909
-0.3671369514013005 0.46657670492351655 -0.04756526909430909
-0.3622677429498658 0.596515595814747 -0.04756526909430909
-0.40158335733262784 0.4775921793024283 -0.04667747512700684
-0.374314424167721 -0.05843050141721588 -0.04667747512700684
-0.18399188513120973 -0.4092183854514272 -0.04667747512700684
0.15044010235154848 -0.5117517594904734 -0.04667747512700684
0.6156304828492009 -0.6880539830279729 -0.04667747512700684
0.5253691531120172 -0.710405903450898 -0.04619943222153639
0.4442725887911384 -0.5577736329185494 -0.04619943222153639
0.17067497562167602 -0.543787463341357 -0.04619943222153639
-0.10691088121628273 -0.3646169823710348 -0.04619943222153639
-0.365108683645233 -0.1609229003500789 -0.04619943222153639
-0.34173238556772834 -0.03413909263495348 -0.04619943222153639
-0.44270870557181363 0.21235348779433477 -0.04619943222153639
-0.37648610479542954 0.46133872051643326 -0.04619943222153639
-0.35337614490811553 0.5990492232137402 -0.04619943222153639
-0.375714406962313 0.5301495821667216 -0.04531163825423415
-0.43831754002584944 0.2847086961294683 -0.04531163825423415
-0.3015562939551195 -0.10088071142299121 -0.04531163825423415
-0.1744310270218009 -0.41027007984346214 -0.04531163825423415
0.08494822430209782 -0.5531366167354861 -0.04531163825423415
0.6516066260780337 -0.5711246883499025 -0.04531163825423415
0.6064110839579852 -0.6685634908535065 -0.0448335953487637
0.5050659879982512 -0.5645823297293213 -0.0448335953487637
0.15382737779602484 -0.506964501251405 -0.0448335953487637
0.07590638420434251 -0.5057352480659096 -0.0448335953487637
-0.14167825881271165 -0.3534376075673903 -0.0448335953487637
-0.3618989669942172 -0.15700977770958519 -0.0448335953487637
-0.373262729775686 0.17251885539991912 -0.0448335953487637
-0.41826022554918246 0.21048912046300008 -0.0448335953487637
-0.3707359315610565 0.49364759174187134 -0.0448335953487637
-0.3347666175165876 0.6153436571059187 -0.04394580138146146
-0.40975789101617244 0.1214570439113119 -0.04394580138146146
-0.3894478967180425 0.13944511552572839 -0.04394580138146146
-0.27483369553932174 -0.08541943802320433 -0.04394580138146146
-0.19274007030131887 -0.38961179714277516 -0.04394580138146146
0.1433787257193137 -0.5581628964272897 -0.04394580138146146
0.6606006618852419 -0.6358175518287812 -0.04394580138146146
0.520977987566053 -0.5157809782651529 -0.04346775847599101
0.5216472476337116 -0.6415540666944265 -0.04346775847599101
0.17932755221069102 -0.5748124479063887 -0.04346775847599101
-0.09819684196799296 -0.3688510766766302 -0.04346775847599101
-0.21453882679077113 -0.36144824082620214 -0.04346775847599101
-0.3518737243480656 -0.10282702896669228 -0.04346775847599101
-0.4476530350512508 0.17036083314093825 -0.04346775847599101
-0.33249932830778495 0.486770603087461 -0.04346775847599101
-0.344600643000551 0.5407211595619823 -0.04346775847599101
0.41417637329959217 -0.554994154882457 -0.04257996450868875
0.09659198364248504 -0.5711246883499025 -0.04257996450868875
-0.20288140908165614 -0.400224349644219 -0.04257996450868875
-0.3192097355357066 -0.12083558813420027 -0.04257996450868875
-0.4286815608884381 0.1942834659675521 -0.04257996450868875
-0.3288047395669348 0.545289883901407 -0.04257996450868875
0.5855889008325654 -0.6828638029114367 -0.0421019216032183
0.5151800100411329 -0.6300400618569526 -0.0421019216032183
0.14077680647668173 -0.49362027500441585 -0.0421019216032183
0.12194874518551009 -0.5217974896897166 -0.0421019216032183
-0.17667782867751194 -0.39385272063273435 -0.0421019216032183
-0.3819972565770674 -0.14393871883715048 -0.0421019216032183
-0.34086507915351766 -0.034221042847319846 -0.0421019216032183
-0.39614049739462864 0.2200294910193173 -0.0421019216032183
-0.3068284242840221 0.49834607058420954 -0.0421019216032183
0.5515590751474336 -0.5081596085150812 -0.04121412763591605
0.17489541155854363 -0.499165572707873 -0.04121412763591605
-0.22691330885809174 -0.34626013480096973 -0.04121412763591605
-0.3155219759792203 -0.07815318586005354 -0.04121412763591605
-0.38233188661089673 0.22939230278217418 -0.04121412763591605
-0.4172631646320584 0.5451464710297658 -0.04121412763591605
0.5601638474459015 -0.5215038347620705 -0.04073608473044561
0.5180619258426833 -0.6019721141214738 -0.04073608473044561
0.1828445821580806 -0.542032362959844 -0.04073608473044561
0.07347519457080715 -0.5024572395712552 -0.04073608473044561
-0.17407590943487997 -0.39386637900146204 -0.04073608473044561
-0.307285979636401 -0.18194312982205071 -0.04073608473044561
-0.3717534800312722 0.16891987524016316 -0.04073608473044561
-0.443043335605643 0.265566492357559 -0.04073608473044561
-0.3528298101590065 0.4771960866093243 -0.04073608473044561
0.5616594388215879 -0.6700659114135565 -0.03984829076314336
0.057966116880473186 -0.49017153690066484 -0.03984829076314336
-0.1622955664072155 -0.3666930544176493 -0.03984829076314336
-0.38148506774977764 -0.11240154544482887 -0.03984829076314336
-0.41875192682338064 0.5621921152019691 -0.03984829076314336
0.5312217641118482 -0.5092113029071161 -0.039370247857672916
0.518171192792505 -0.6302107914660493 -0.039370247857672916
0.18665526703311658 -0.5906288388930965 -0.039370247857672916
0.07252593794423015 -0.5038025888909363 -0.039370247857672916
-0.1396363326879165 -0.3493264385803445 -0.039370247857672916
-0.3338173608900106 -0.16432383416328294 -0.039370247857672916
-0.3790129030100591 0.16275312175959433 -0.039370247857672916
-0.38744011651506655 0.26144849418614946 -0.039370247857672916
-0.3659213565845328 0.5515249292256145 -0.039370247857672916
0.45372417995072556 -0.5621306525426942 -0.03848245389037067
0.04490188719240237 -0.5531366167354861 -0.03848245389037067
-0.3288047395669348 -0.08541260883884043 -0.03848245389037067
-0.3917629902173922 0.23047814309602843 -0.03848245389037067
-0.3135005374075167 0.5377231476262463 -0.03848245389037067
0.6095251920279068 -0.6568787564069362 -0.038004410984900226
0.4149958754232556 -0.6535734311748261 -0.038004410984900226
0.14492212138554686 -0.5245701385414451 -0.038004410984900226
-0.1787334131710349 -0.3956283085673389 -0.038004410984900226
-0.3052781994334251 -0.18063192642418888 -0.038004410984900226
-0.4458228136417354 0.15912682486238297 -0.038004410984900226
-0.40956667385398426 0.5523649189023696 -0.038004410984900226
-0.30760695130150256 0.5743207466321907 -0.038004410984900226
-0.4034818705857819 0.4722449279455233 -0.03711661701759798
-0.3739388190277085 -0.16573064614223884 -0.03711661701759798
-0.15640880948556524 -0.3570502460958741 -0.03711661701759798
0.39975996510747625 -0.598106795771527 -0.03711661701759798
0.5236072235461405 -0.5056806145909988 -0.03663857411212754
0.5407621346681656 -0.7049493851441712 -0.03663857411212754
0.41752267363788514 -0.6526173453638853 -0.03663857411212754
0.11219666991391307 -0.5800231155760166 -0.03663857411212754
-0.1207672962905617 -0.43424734614498683 -0.03663857411212754
-0.2846335751014658 -0.10432262034237844 -0.03663857411212754
-0.3916605524519342 0.1469572183259782 -0.03663857411212754
-0.4323488328918328 0.21132228095539152 -0.03663857411212754
-0.3779202335118409 0.5485678923960614 -0.03663857411212754
0.6156304828492009 -0.6441628151214223 -0.03575078014482527
0.5086854557110988 -0.6250889031931517 -0.03575078014482527
-0.09620272013374481 -0.3372660989937616 -0.03575078014482527
-0.3737749186029758 -0.08541943802320433 -0.03575078014482527
-0.3198107037597266 0.4790399663875675 -0.03575078014482527
0.6102012812799292 -0.5429543028489656 -0.035272737239354826
0.5174882743561188 -0.573098322631059 -0.035272737239354826
0.1950278470632132 -0.5829596648524779 -0.035272737239354826
0.0539573856588853 -0.5513268828790623 -0.035272737239354826
-0.13932219020717876 -0.34946302226762177 -0.035272737239354826
-0.283322371703604 -0.08599991869413268 -0.035272737239354826
-0.375065634447746 0.1672330667022888 -0.035272737239354826
-0.36193311291603647 0.46639914613005623 -0.035272737239354826
-0.3614482408262022 0.5969458344296703 -0.035272737239354826
0.5076952239783386 -0.5954912181601674 -0.034384943272052576
0.08494822430209782 -0.5891127599643189 -0.034384943272052576
-0.3674169479602189 -0.13413883927500636 -0.034384943272052576
-0.4751268437470737 0.19556052344359448 -0.034384943272052576
-0.38616988822338794 0.5545365995300781 -0.034384943272052576
0.6231425856494506 -0.6569197315131193 -0.033906900366582136
0.5270423032811637 -0.6360702316502441 -0.033906900366582136
0.1149078561063668 -0.6058715783932398 -0.033906900366582136
-0.11098790428150918 -0.3353334398187882 -0.033906900366582136
-0.14476505014517793 -0.370360326421044 -0.033906900366582136
-0.3560805019162055 -0.1116639935335317 -0.033906900366582136
-0.4767521896256732 0.21623246451300931 -0.033906900366582136
-0.3828235878850949 0.4619874930310003 -0.033906900366582136
-0.35055569176583995 0.5315563941456776 -0.033906900366582136
0.5088971604263784 -0.5891127599643189 -0.033019106399279886
0.14790647495255518 -0.5711246883499025 -0.033019106399279886
-0.2118754448888644 -0.31754341455092383 -0.033019106399279886
-0.39669366132810163 0.13045107971852016 -0.033019106399279886
-0.3576921894260773 0.5531980793947608 -0.033019106399279886
-0.3305666691328116 0.5250959857374627 -0.03254106349380944
-0.38210652352688923 0.21942169361093344 -0.03254106349380944
-0.3363100131828208 -0.04875354717362133 -0.03254106349380944
-0.32301359122637857 -0.17675977888987832 -0.03254106349380944
-0.16809354393213563 -0.39119616791519146 -0.03254106349380944
0.11752343371772658 -0.5533756381882213 -0.03254106349380944
0.15057668603882582 -0.4933402784454975 -0.03254106349380944
0.5248842810221829 -0.6380097200095813 -0.03254106349380944
0.5426196728151363 -0.5118405388872036 -0.03254106349380944
-0.3018226321453102 0.48124579293709524 -0.0316532695265072
-0.3108166679525184 -0.06742453722442403 -0.0316532695265072
-0.1688515833965244 -0.3732422422225944 -0.0316532695265072
0.11691563630934274 -0.536582673837481 -0.0316532695265072
0.575106102834035 -0.6970480188351811 -0.0316532695265072
-0.36491063729868095 0.5504049429899407 -0.031175226621036754
-0.38048800683265355 0.26558015072628677 -0.031175226621036754
-0.41285834071736643 0.1265447862623902 -0.031175226621036754
-0.3566814701402255 -0.16929548038017553 -0.031175226621036754
-0.14067436871122377 -0.3520307955884344 -0.031175226621036754
0.07581760480761233 -0.5024913854930745 -0.031175226621036754
0.19738391566874608 -0.5721558951888458 -0.031175226621036754
0.5137663688778132 -0.6365551037400785 -0.031175226621036754
0.6582514224640726 -0.6089037362507952 -0.031175226621036754
-0.292828596338102 0.5621921152019691 -0.030287432653734507
-0.3829601715723721 0.2850979596382086 -0.030287432653734507
-0.337798775374143 -0.16636576028807806 -0.030287432653734507
-0.12192825763241849 -0.3372660989937616 -0.030287432653734507
0.19219373555220973 -0.5991516609791981 -0.030287432653734507
0.6243513512818544 -0.6430769748075681 -0.030287432653734507
-0.35847754562792156 0.537292909011323 -0.029809389748264064
-0.4293508209560967 0.21427931778494436 -0.029809389748264064
-0.4442521012380468 0.14880109810422137 -0.029809389748264064
-0.38412113291422895 -0.15176496411813803 -0.029809389748264064
-0.17184276614789662 -0.3826050539854512 -0.029809389748264064
0.06324507639373962 -0.5565990132079648 -0.029809389748264064
0.20053216966048704 -0.5644594044107717 -0.029809389748264064
0.5128171122512362 -0.5552195179664644 -0.029809389748264064
0.6618367442551011 -0.6040413569837244 -0.029809389748264064
0.5600614096804437 -0.7060420546423893 -0.028921595780961793
0.19281519132932134 -0.5564487711519599 -0.028921595780961793
-0.0843199393406223 -0.3912303138370108 -0.028921595780961793
-0.29909778758412864 -0.15800683862670925 -0.028921595780961793
-0.3955805042767918 0.1469025848510672 -0.028921595780961793
-0.35423662213796236 0.45730267255738993 -0.028921595780961793
-0.3280808460243652 0.5285788697630331 -0.028443552875491347
-0.41333638362283687 0.5174541284342995 -0.028443552875491347
-0.3479879184450273 0.2123330002412433 -0.028443552875491347
-0.3423948164510231 -0.11139082615897711 -0.028443552875491347
-0.18106216503911238 -0.3932517524087144 -0.028443552875491347
-0.09819001278362906 -0.3712071452821631 -0.028443552875491347
0.12667454076530366 -0.61227052414218 -0.028443552875491347
0.5173038863782945 -0.6010501742323523 -0.028443552875491347
0.537928023157162 -0.510672748360983 -0.028443552875491347
0.6366507123211727 -0.5888191050366727 -0.027555758908189103
0.20569503303956782 -0.5674300996090523 -0.027555758908189103
-0.19229617331766777 -0.31104886022088973 -0.027555758908189103
-0.37179445513745535 -0.05684613064479956 -0.027555758908189103
-0.4547280700522134 0.2114042311677579 -0.027555758908189103
-0.41875192682338064 0.517221936165928 -0.027555758908189103
-0.3671437805856644 0.4577465695410412 -0.027077716002718657
-0.3549741740492596 0.19838097658587017 -0.027077716002718657
-0.37152128776290083 -0.10786696702722352 -0.027077716002718657
-0.14537284755356186 -0.3651701463045078 -0.027077716002718657
-0.10180948049647671 -0.3426953005630331 -0.027077716002718657
0.14278458667965757 -0.605461827331408 -0.027077716002718657
0.517522420277938 -0.5821469919131782 -0.027077716002718657
0.5552195179664645 -0.517877537864859 -0.027077716002718657
-0.3917629902173922 0.517221936165928 -0.026189922035416414
-0.4622879771430103 0.16643405213171683 -0.026189922035416414
-0.20288140908165614 -0.3912303138370108 -0.026189922035416414
0.06945280498049157 -0.4939958801444283 -0.026189922035416414
0.5094366659911237 -0.6250889031931517 -0.026189922035416414
-0.3366514724010139 0.5362548729880156 -0.025711879129945967
-0.43942386789279536 0.27501808351714613 -0.025711879129945967
-0.43025227329212673 0.13513590019213054 -0.025711879129945967
-0.39101860912173103 -0.1433650673505859 -0.025711879129945967
-0.16973254817946282 -0.38317870547201577 -0.025711879129945967
0.05363641399378374 -0.5514498081976118 -0.025711879129945967
0.19928242892190007 -0.5712202969309965 -0.025711879129945967
0.5341036799133986 -0.6526173453638853 -0.025711879129945967
0.5677852171959733 -0.5300061692950805 -0.025711879129945967
-0.3934361403865387 0.48123896375273156 -0.02482408516264372
-0.3018226321453102 -0.07641857303163228 -0.02482408516264372
-0.1724164176344612 -0.3760695245492338 -0.02482408516264372
0.19277421622313817 -0.5531366167354861 -0.02482408516264372
0.6336185544636171 -0.581197735286601 -0.02482408516264372
-0.3130020069489547 0.49372271276987384 -0.024346042257173277
-0.38380016124912736 0.2041448081889709 -0.024346042257173277
-0.3277667035436275 -0.09290422408599873 -0.024346042257173277
-0.21286567662162456 -0.3640706476219257 -0.024346042257173277
-0.0952807802446232 -0.3702442302868583 -0.024346042257173277
0.11227862012627943 -0.5630662508005435 -0.024346042257173277
0.5118268805184759 -0.5540722149933354 -0.024346042257173277
0.5621852860176053 -0.5124141903737681 -0.024346042257173277
-0.3917629902173922 0.4902398287443035 -0.02345824828987103
-0.33780560455850683 -0.09441347383041247 -0.02345824828987103
-0.16689843666845944 -0.3642482064153862 -0.02345824828987103
0.11570004149257507 -0.538781671202645 -0.02345824828987103
0.590806397686557 -0.5240442913454276 -0.02345824828987103
-0.32248091484599717 0.5307027461001946 -0.022980205384400588
-0.397424384055035 0.22065777598079284 -0.022980205384400588
-0.3883415688510966 -0.06907037065611513 -0.022980205384400588
-0.28436723691127513 -0.10240361953613276 -0.022980205384400588
-0.13272519811168668 -0.4381672979698445 -0.022980205384400588
0.1408519275046842 -0.5275340045553618 -0.022980205384400588
0.41509148400434975 -0.6091905619940775 -0.022980205384400588
0.6126802752040117 -0.6703527371568387 -0.022980205384400588
-0.3473801210366434 0.5448323285490281 -0.022092411417098317
-0.40617939840950795 0.22939230278217418 -0.022092411417098317
-0.3737749186029758 -0.17535979609528632 -0.022092411417098317
-0.1179331847795584 -0.44938764787967217 -0.022092411417098317
0.1928834831729601 -0.5349573279588815 -0.022092411417098317
0.6606006618852419 -0.6358175518287812 -0.022092411417098317
-0.3193190024855284 0.487419375602028 -0.02161436851162787
-0.44040727044119177 0.20404919960787693 -0.02161436851162787
-0.39139421426174353 -0.07021767362924423 -0.02161436851162787
-0.2858696574713251 -0.14673868442633448 -0.02161436851162787
-0.09727490207887135 -0.43763462158946315 -0.02161436851162787
0.10267678691068734 -0.5725383295132221 -0.02161436851162787
0.4164573208771226 -0.6556016989308937 -0.02161436851162787
0.6561412044956388 -0.6215104105864871 -0.02161436851162787
0.6078861877805796 -0.6790599472207647 -0.021272909293434717
0.207142820124707 -0.564295503986039 -0.021272909293434717
-0.08500968696137251 -0.3822362780298026 -0.021272909293434717
-0.382768954410184 -0.16636576028807806 -0.021272909293434717
-0.44280431415290783 0.13480809934266508 -0.021272909293434717
-0.3131727365580513 0.582611376449921 -0.021272909293434717
-0.3819426231021565 0.554290748892979 -0.02024853163885518
-0.39966435652638216 0.21920315971128995 -0.02024853163885518
-0.3912166554682831 -0.06030169793291448 -0.02024853163885518
-0.2838687064527131 -0.12013218214472236 -0.02024853163885518
-0.13271836892732278 -0.44438868492532413 -0.02024853163885518
0.14281190341711306 -0.5267691359066091 -0.02024853163885518
0.426291346361086 -0.5656681700431755 -0.02024853163885518
0.6600065228455856 -0.6102285980173847 -0.02024853163885518
-0.3737749186029758 0.14844598051730035 -0.019907072420662003
0.4101471545249127 -0.6330858780832358 -0.019907072420662003
-0.3933678485429001 0.4902398287443035 -0.019360737671552938
-0.3288047395669348 -0.10340750963762073 -0.019360737671552938
-0.14891036505404304 -0.400224349644219 -0.019360737671552938
0.13355152941971413 -0.513322471894162 -0.019360737671552938
0.548390333602601 -0.5891127599643189 -0.019360737671552938
-0.3039601668511995 0.5849879326085453 -0.01888269476608249
-0.3929034640061574 0.46043043899603936 -0.01888269476608249
-0.36611257374672096 0.1723344674220949 -0.01888269476608249
-0.3692061942635511 -0.12366287046083975 -0.01888269476608249
-0.19541711057195332 -0.3180965784843968 -0.01888269476608249
-0.09423591503695215 -0.3592150975392188 -0.01888269476608249
0.20122191728123726 -0.5626155246325285 -0.01888269476608249
0.5364802360720231 -0.5589072775229507 -0.01888269476608249
0.5915576079665821 -0.5355651253672654 -0.01888269476608249
-0.3439313829328924 -0.18652551253020305 -0.018541235547889313
0.6377502110037546 -0.5744436719507401 -0.017994900798780245
0.39975996510747625 -0.5621306525426942 -0.017994900798780245
-0.08623211096250408 -0.43620732205741564 -0.017994900798780245
-0.3487186411719607 -0.09939877841603284 -0.017994900798780245
-0.4547280700522134 0.2473803743965907 -0.017994900798780245
-0.3076684139607773 0.5850767120052756 -0.0175168578933098
-0.412981266035916 0.5260657299171314 -0.0175168578933098
-0.38131433814068105 0.14755135736563424 -0.0175168578933098
-0.31087813061179315 -0.10088754060735511 -0.0175168578933098
-0.15295324219745032 -0.3645760072648516 -0.0175168578933098
-0.08974914090989378 -0.3770529270976302 -0.0175168578933098
0.20230775759509168 -0.5815323653204304 -0.0175168578933098
0.5387338669120979 -0.6500290844899811 -0.0175168578933098
0.5786641078876077 -0.5315222482238582 -0.0175168578933098
-0.3557868469885594 0.5531980793947608 -0.01717539867511662
-0.3647808827957676 0.15894926606892246 -0.016629063926007555
-0.1305330299308865 -0.34626013480096973 -0.016629063926007555
0.2001292477830191 -0.5441425809282779 -0.016629063926007555
0.6381121577750394 -0.6250889031931517 -0.016629063926007555
-0.3220984805216208 0.5309485967372938 -0.01615102102053711
-0.3956692836735221 0.27851462591144427 -0.01615102102053711
-0.41380759734394346 0.13019839989705714 -0.01615102102053711
-0.3742734490615378 -0.15961169695221716 -0.01615102102053711
-0.18065924316164436 -0.3942146674040191 -0.01615102102053711
0.06711039474368637 -0.5127488204075975 -0.01615102102053711
0.17512760382691503 -0.5218862690864468 -0.01615102102053711
0.5317817572296851 -0.6567285143509312 -0.01615102102053711
0.5584838680923913 -0.5223233368857341 -0.01615102102053711
-0.37070861482360107 0.5587365479138542 -0.015263227053234841
-0.292828596338102 -0.10340750963762073 -0.015263227053234841
0.06731527027460228 -0.5662554798984678 -0.015263227053234841
0.5166892597855468 -0.5674642455308716 -0.015263227053234841
-0.37970265063080927 0.5527336948580183 -0.014785184147764396
-0.35954972757304815 0.45932411112909366 -0.014785184147764396
-0.3913395807868327 0.1413231412257909 -0.014785184147764396
-0.36583940637216644 -0.12381994170120869 -0.014785184147764396
-0.21283835988416908 -0.35845022889046607 -0.014785184147764396
-0.11120643818115289 -0.4381741271542083 -0.014785184147764396
0.14379530596550932 -0.6085691062169659 -0.014785184147764396
0.413937351846857 -0.5828572270870199 -0.014785184147764396
0.6513198003347513 -0.6154051197651932 -0.014785184147764396
0.6246245186564091 -0.6351687793142141 -0.013897390180462151
0.12506285325543184 -0.5891127599643189 -0.013897390180462151
-0.28382773134652994 -0.16636576028807806 -0.013897390180462151
-0.3647808827957676 0.45157981606047237 -0.013897390180462151
-0.3295832665844152 0.5197145884587383 -0.013419347274991705
-0.3810548291348543 0.20706086991234054 -0.013419347274991705
-0.3107620344776075 -0.10225337748012782 -0.013419347274991705
-0.16595600922624634 -0.4012418981144346 -0.013419347274991705
0.12010486540726698 -0.5814504151080641 -0.013419347274991705
0.438338027578941 -0.6575002121840477 -0.013419347274991705
0.6618572318081928 -0.6145036674291633 -0.013419347274991705
0.6785887334996582 -0.6160948673859434 -0.01253155330768946
0.1322266676531246 -0.5754612204209557 -0.01253155330768946
-0.23885755231048894 -0.34626013480096973 -0.01253155330768946
-0.3917629902173922 0.22039826697496595 -0.01253155330768946
-0.34643086441006643 0.6045330582579228 -0.012053510402219015
-0.4030448027864946 0.4775853501180644 -0.012053510402219015
-0.4496676444385906 0.1646994393032956 -0.012053510402219015
-0.3097103400855725 -0.18420358984648955 -0.012053510402219015
-0.09433152361804621 -0.3855279448931848 -0.012053510402219015
0.18540552629452942 -0.5345066017908665 -0.012053510402219015
0.537026570821132 -0.6549665847850544 -0.012053510402219015
0.6330722197145081 -0.6384399586245048 -0.012053510402219015
-0.4007570260246004 0.44526282052389876 -0.01116571643491677
-0.3108166679525184 -0.06742453722442403 -0.01116571643491677
0.039971216081692885 -0.5261476801294976 -0.01116571643491677
0.5549736673293654 -0.6430769748075681 -0.01116571643491677
-0.31955802393826366 0.5285720405786692 -0.010687673529446325
-0.4189021688793856 0.21662172802174945 -0.010687673529446325
-0.33762121658068256 -0.10023876809278809 -0.010687673529446325
-0.21175934875467864 -0.3626228605367867 -0.010687673529446325
0.07049767018816262 -0.505865002568823 -0.010687673529446325
0.20001315164883346 -0.5585589891203937 -0.010687673529446325
0.54223723849076 -0.6628269759878612 -0.010687673529446325
0.6447432957923509 -0.5687549613756417 -0.010687673529446325
-0.4029218774679451 0.2734542002978213 -0.009799879562144079
-0.1863889288429259 -0.324638937104978 -0.009799879562144079
0.057966116880473186 -0.49017153690066484 -0.009799879562144079
0.6516066260780337 -0.5621306525426942 -0.009799879562144079
-0.40369357530106165 0.4954163504921121 -0.009321836656673634
-0.4288591196818986 0.14092021934832297 -0.009321836656673634
-0.32995204254006383 -0.18023583373108484 -0.009321836656673634
-0.08888183449568314 -0.3950614862651382 -0.009321836656673634
0.18987864205286 -0.5439786805035451 -0.009321836656673634
0.5422304093063961 -0.6509783411165581 -0.009321836656673634
0.6665625398348947 -0.612967100947294 -0.009321836656673634
-0.3737749186029758 0.2833633468097872 -0.008434042689371365
-0.22104021030516915 -0.3372660989937616 -0.008434042689371365
0.4188133894826555 -0.6010706617854438 -0.008434042689371365
0.6271581460554023 -0.6681127646854915 -0.008434042689371365
-0.4346161221006355 0.2786990138892685 -0.00795599978390092
-0.3471820746900914 -0.03809319038163039 -0.00795599978390092
-0.2986470614161137 -0.17859000029939373 -0.00795599978390092
-0.09261056915835256 -0.4144085655679634 -0.00795599978390092
0.16167411063010398 -0.608767152563518 -0.00795599978390092
0.5072854729165067 -0.5506234768895842 -0.00795599978390092
-0.3847084427695212 0.5621921152019691 -0.007068205816598674
-0.40975789101617244 -0.049436465610007634 -0.007068205816598674
0.05228423548973881 -0.5315222482238582 -0.007068205816598674
0.5028055279738122 -0.6653742617555823 -0.007068205816598674
-0.3801806935362797 0.5522283352150923 -0.006590162911128229
-0.37725780262854614 0.2188890172305521 -0.006590162911128229
-0.33533343981878827 -0.18182020450350114 -0.006590162911128229
-0.10919865797817695 -0.4409262884528453 -0.006590162911128229
0.19171569264673932 -0.5925546688837061 -0.006590162911128229
0.5394031269797567 -0.6531978260348137 -0.006590162911128229
0.5877127771697269 -0.6878217907596015 -0.006590162911128229
-0.4298425222302949 0.28762475785283814 -0.005702368943825984
-0.337798775374143 -0.1303896170592453 -0.005702368943825984
0.1518469143305044 -0.5261476801294976 -0.005702368943825984
0.5298354396859839 -0.5664808429824753 -0.005702368943825984
-0.38050849438574513 0.4554792803322384 -0.005224326038355539
-0.39892680461508495 0.13482175771139288 -0.005224326038355539
-0.29913193350594797 -0.1737822545072338 -0.005224326038355539
-0.09023401299972807 -0.4214084795409235 -0.005224326038355539
0.20010193104556373 -0.565545244724626 -0.005224326038355539
0.515275618622227 -0.6619869863111061 -0.005224326038355539
0.6516066260780337 -0.5621306525426942 -0.004336532071053294
0.12991840333813878 -0.5064318248710238 -0.004336532071053294
-0.36441210684011893 -0.13545687185723201 -0.004336532071053294
-0.3439313829328924 0.514223924230192 -0.004336532071053294
-0.3756802610404937 0.5552058595977368 -0.0038584891655828483
-0.33262225362633446 -0.04563260991933567 -0.0038584891655828483
-0.12713892530204637 -0.3618375043349424 -0.0038584891655828483
0.4171402393135089 -0.5770729079308275 -0.0038584891655828483
0.6039730651400859 -0.6701068865197397 -0.0038584891655828483
0.5300539735856276 -0.6340829390003598 -0.0029706951982806035
0.048965251888901135 -0.5101878762711487 -0.0029706951982806035
-0.3997121608169293 0.2856238068342261 -0.0029706951982806035
-0.30809182339133684 0.5932034413982731 -0.002492652292810158
-0.4407487296593849 0.20269019191946802 -0.002492652292810158
-0.18702404298876513 -0.31036594178450333 -0.002492652292810158
0.14794745005873836 -0.5241330707421579 -0.002492652292810158
0.5336734412984752 -0.559289711847327 -0.002492652292810158
0.6516066260780337 -0.5621306525426942 -0.0021511930746169793
0.12991840333813878 -0.5711246883499025 -0.0016048583255078887
-0.38016703516755196 -0.050433526527131706 -0.0016048583255078887
-0.3467928111813512 0.596208282518373 -0.0016048583255078887
-0.3799075261617252 0.2020482485892649 -0.0011268154200374434
-0.3019728742013152 -0.17973730327252274 -0.0011268154200374434
0.06500017677525256 -0.5603618937924537 -0.0011268154200374434
0.4147636831548843 -0.655533407087255 -0.0011268154200374434
0.6445111035239793 -0.5702710403044196 -0.0011268154200374434
0.40700572971753546 -0.6259562096073623 -2.3902145273519838E-4
-0.37314663364150036 -0.1349719997673977 -2.3902145273519838E-4
-0.31913461450770414 0.517221936165928 -2.3902145273519838E-4
-0.3871396324030566 0.27473125777386387 2.390214527352469E-4
-0.305633317020346 -0.1067606391602777 2.390214527352469E-4
0.061469488459135184 -0.5565102338112347 2.390214527352469E-4
0.5402157999190564 -0.6514222381002092 2.390214527352469E-4
0.5449620830519415 -0.5690622746720156 2.390214527352469E-4
-0.3753388018223005 0.26537527519537085 0.001126815420037492
-0.1579044008612513 -0.31027716238777314 0.001126815420037492
0.6594465297277489 -0.577953872713766 0.001126815420037492
-0.3854050195746353 0.202041419404901 0.0016048583255079373
-0.3070674457367573 -0.10747087433411949 0.0016048583255079373
0.11710685347153087 -0.5831167360928468 0.0016048583255079373
0.5348207442716043 -0.6437530640595904 0.0016048583255079373
-0.3198107037597266 0.5801801868163856 0.0024926522928101825
-0.3288047395669348 -0.10340750963762073 0.0024926522928101825
0.13891243914534693 -0.5441425809282779 0.0024926522928101825
-0.30377577887337515 0.5698476308738601 0.002970695198280628
-0.3809250746319408 0.21852024127490363 0.002970695198280628
-0.186382099658562 -0.39475417296876436 0.002970695198280628
0.44022971164773134 -0.5567151093421505 0.002970695198280628
0.6288517837776405 -0.5613589547095776 0.002970695198280628
-0.4465876822904882 0.2833633468097872 0.0038584891655828726
-0.1774973308011756 -0.4092183854514272 0.0038584891655828726
0.5022728515934308 -0.6790599472207647 0.0038584891655828726
-0.3184790128087732 0.5278003427455527 0.004336532071053318
-0.3657984312659832 -0.1254316292110804 0.004336532071053318
0.06407823688613097 -0.5624516242077958 0.004336532071053318
0.5479259490658582 -0.6515041883125756 0.004336532071053318
0.6730639233492927 -0.6117993104210734 0.004677991289246497
0.04468335329275877 -0.5451396418454019 0.005224326038355587
-0.38306943852219394 -0.049436465610007634 0.005224326038355587
-0.3549605156805319 0.6050589054539403 0.005702368943826032
-0.38129385058758947 0.2044111463791617 0.005702368943826032
-0.16859207439069762 -0.4052438001516587 0.005702368943826032
0.41908655685720997 -0.5657023159649949 0.005702368943826032
0.6453169472789154 -0.5766973027908151 0.005702368943826032
0.06410555362358646 -0.4983460705842093 0.006590162911128278
-0.292828596338102 -0.11240154544482887 0.006590162911128278
-0.3198107037597266 0.6161631592295821 0.006590162911128278
-0.4429545562089128 0.2810072782042543 0.007068205816598723
-0.310386429337595 -0.1093079249279988 0.007068205816598723
0.1179468431482861 -0.5807196923811306 0.007068205816598723
0.5091566694322053 -0.5629911297725411 0.007068205816598723
0.4212787250380101 -0.5814640734767917 0.007955999783900969
-0.1670145328026452 -0.31201177521619444 0.007955999783900969
-0.3331002965318049 0.5065752377426649 0.007955999783900969
-0.3847289303226128 0.27753122336304786 0.008434042689371413
-0.36917887752609563 -0.13353787105098633 0.008434042689371413
0.06263044980099199 -0.5574526612534477 0.008434042689371413
0.546191336237437 -0.6527880749729819 0.008434042689371413
0.5526995489361989 -0.5621306525426942 0.009321836656673658
-0.18563088937853703 -0.30301773940898624 0.009321836656673658
-0.4262572004392666 0.28568526949350076 0.009321836656673658
-0.3306895944513611 0.514934159404034 0.009799879562144103
-0.3919337198264887 -0.06969182643322676 0.009799879562144103
0.06777965481134499 -0.5027508944989013 0.009799879562144103
0.5408645724336234 -0.6546934174104998 0.009799879562144103
0.5447640367053894 -0.5458703645723353 0.010960840904000907
-0.2298635165032808 -0.33553148616534023 0.010960840904000907
-0.43673999843779704 0.22939230278217418 0.010960840904000907
-0.38349967713711736 0.5559160947715787 0.011165716434916794
-0.3886557113318343 -0.054831521257459825 0.011165716434916794
-0.12093119671529443 -0.3606014219650831 0.011165716434916794
0.4136027218130276 -0.6470447309229727 0.011165716434916794
-0.348704982803233 0.6061379165834306 0.012531553307689508
-0.3807748325759358 0.21918267215819826 0.012531553307689508
-0.21229202513506001 -0.3661535488529041 0.012531553307689508
0.41861534313610327 -0.5695403175774861 0.012531553307689508
0.663339164815151 -0.6007701776734338 0.012531553307689508
0.15102741220684074 -0.5351417159367058 0.01259984515132813
-0.3647808827957676 -0.05843050141721588 0.01259984515132813
-0.34141824308699065 0.5099488548184135 0.01259984515132813
0.5413016402329106 -0.5555473188159299 0.0138973901804622
0.14124802019778832 -0.5272471788120796 0.0138973901804622
-0.2202070498127778 -0.3507059338218449 0.0138973901804622
-0.3846333217415187 0.19793707960221904 0.0138973901804622
-0.30590648439490054 0.5839225798477828 0.0138973901804622
0.1534790893934678 -0.5261476801294976 0.014238849398655377
-0.3792450952784304 -0.104192865839465 0.014238849398655377
-0.3985921745812556 0.29235738261699545 0.014238849398655377
-0.3650267334328667 0.6013984626349094 0.014238849398655377
-0.3964478106910025 0.27665708776447323 0.01526322705323489
-0.16900865463689335 -0.4069510962426245 0.01526322705323489
0.12524724123325617 -0.5832191738583047 0.01526322705323489
0.5180550966583194 -0.5541200192838823 0.01526322705323489
-0.31214835890347176 -0.07719710004911265 0.015604686271428069
0.5532390545009441 -0.6441628151214223 0.016151021020537136
0.05156717113153312 -0.5311124971620264 0.016151021020537136
-0.1579044008612513 -0.3372660989937616 0.016151021020537136
-0.371610067159631 -0.038277578359454716 0.016151021020537136
-0.38983716022678266 0.2546261390066497 0.016151021020537136
-0.3219755552030713 0.6082481345518643 0.016151021020537136
0.4185333929237369 -0.5690281287501964 0.01662906392600758
-0.13201496293784487 -0.36570965186925297 0.01662906392600758
-0.38891522033766107 -0.05803440872411175 0.01662906392600758
-0.33407686989583735 0.5109800616573569 0.01662906392600758
0.11621223031986475 -0.5081596085150812 0.01697052314420076
-0.322740423851824 -0.07641857303163228 0.01697052314420076
0.40915009360778853 -0.5634008808343729 0.017516857893309826
0.15382737779602484 -0.5261476801294976 0.017516857893309826
-0.20071655763831145 -0.3799280137148167 0.017516857893309826
-0.37714170649436046 -0.05774758298082948 0.017516857893309826
-0.375714406962313 0.2500847314046805 0.017516857893309826
0.6543997624828537 -0.6292000721801975 0.01799490079878027
0.4187929019295638 -0.565046714266064 0.01799490079878027
-0.12530187470816706 -0.3633330957106285 0.01799490079878027
-0.3107415469245159 -0.11177326048335344 0.01799490079878027
-0.32789645804654094 0.515473664968779 0.01799490079878027
-0.4491281388738453 0.2502281442763218 0.01833636001697345
-0.2062140510512215 -0.32827206318655333 0.01833636001697345
0.5046835536738747 -0.547441076976024 0.01888269476608254
0.07030645302597449 -0.5711246883499025 0.01888269476608254
-0.34037337787931954 -0.027548929723825208 0.01888269476608254
-0.4547280700522134 0.2642894348815166 0.01888269476608254
-0.3018226321453102 0.5508898150797751 0.01888269476608254
0.41888851051065795 -0.6489022690699435 0.019360737671552986
0.067731850520798 -0.5168190142884601 0.019360737671552986
-0.3921795704635878 -0.05677100961679699 0.019360737671552986
-0.3113630027016274 0.5908951770832873 0.019360737671552986
-0.3108166679525184 0.5352100077803446 0.01970219688974614
0.06696015268768143 -0.5292071547245084 0.01970219688974614
0.12092436753093053 -0.5261476801294976 0.02024853163885523
-0.2118754448888644 -0.31696293387999547 0.02024853163885523
-0.37174665084690833 0.22039826697496595 0.02024853163885523
-0.35849803318101314 0.5824952803157353 0.02024853163885523
0.4185948555830118 -0.568099359676711 0.020726574544325676
-0.1800241290158051 -0.3114176361765384 0.020726574544325676
-0.3687554680955361 -0.1285115913591829 0.020726574544325676
-0.3263120872741246 0.5166073095731805 0.020726574544325676
-0.4392736258367904 0.2436448105495572 0.021068033762518854
0.08494822430209782 -0.5891127599643189 0.02161436851162792
-0.3220848221528931 -0.05612223710222997 0.02161436851162792
-0.30876791264335934 0.564602817282413 0.022092411417098366
-0.379265582831522 0.20144728036524495 0.022092411417098366
