0.3922034596154137 0.1920027152168191 -0.2872670061646745
0.46641410287462115 0.28687642383173123 -0.2868470251615097
0.02389691908007306 0.1319958294846426 -0.2868470251615097
0.0737570637757896 -0.12076553746001774 -0.28558708215201556
0.6280395921325355 0.40138844415462616 -0.28558708215201556
0.18987341153077392 0.6350826735556079 -0.28558708215201556
-0.09919951294750896 0.030091638876752785 -0.28558708215201556
0.3675169762493909 0.2870696150931871 -0.28558708215201556
0.06607981103793846 0.29853509647958415 -0.28558708215201556
0.10103063012130709 0.16390598610509866 -0.28558708215201556
0.4996094013647613 0.2536895249616544 -0.28516710114885085
0.6447212375782384 0.08181649922652079 -0.28390715813935663
0.41540321023023313 0.6052640223309123 -0.28390715813935663
-0.09769598095617921 0.043321040476441766 -0.28390715813935663
0.13905571014784163 -0.1630828233388958 -0.28390715813935663
0.6056294058036655 0.4773882064873155 -0.28390715813935663
0.3978648035380741 0.18579539599004438 -0.28390715813935663
0.37144799843901266 0.17425431802307767 -0.28390715813935663
0.07034681803009207 0.21846991803626029 -0.28390715813935663
0.03495921870343196 0.32219682619788503 -0.2834871771361919
0.4404340780188511 0.5988551122226184 -0.28222723412669776
-0.13154644981125635 0.2818030533135013 -0.28222723412669776
0.3938329859076928 -0.1593281931706032 -0.28222723412669776
0.6789748881963538 0.17956287790307976 -0.28222723412669776
-0.037588299783243295 0.5178575759522689 -0.28222723412669776
0.10468446484884024 0.3004166113737622 -0.28222723412669776
0.07049801119123138 0.21505127267049942 -0.28222723412669776
0.0682133145340152 0.16483834393212438 -0.28222723412669776
0.02389691908007306 0.31033656266851306 -0.281807253123533
0.4404340780188511 0.5988551122226184 -0.28054731011403883
-0.13154644981125635 0.2818030533135013 -0.28054731011403883
0.3938329859076928 -0.1593281931706032 -0.28054731011403883
0.6814359768748991 0.2057192947801791 -0.28054731011403883
-0.05495871407413646 0.49815206728377975 -0.28054731011403883
0.10664157632358792 0.3014749635017372 -0.28054731011403883
0.42143413743567876 0.22232534364531253 -0.28054731011403883
0.44607862270138504 0.23025458498506252 -0.27928736710454466
0.045341149101664084 0.17625342759814178 -0.27928736710454466
-0.13152125095106648 0.3079342713304108 -0.27886738610137995
0.4371078284737863 -0.1291903563835022 -0.27886738610137995
0.6388667023941221 0.40689859491614744 -0.27886738610137995
0.044937967338625935 0.5819382774151431 -0.27886738610137995
0.05831856209945422 0.2259287806524658 -0.27886738610137995
0.05524430115628841 0.23155652609487318 -0.27886738610137995
0.08155191119452707 0.2187135070180958 -0.27886738610137995
0.35998251705261564 0.28873273986571935 -0.27886738610137995
0.41540321023023313 0.6052640223309123 -0.27718746208872097
-0.06939766096293978 0.017962587505355395 -0.27718746208872097
0.41814148637086734 -0.15060938754490336 -0.27718746208872097
0.5895273341423298 0.49815206728377975 -0.27718746208872097
0.2873258035051175 0.14042064840812707 -0.27718746208872097
0.06942285982312968 0.21473208710809413 -0.27718746208872097
0.06235877934989886 0.16337681004111118 -0.27718746208872097
0.4553518032512621 0.2979471230751536 -0.27676748108555627
0.3004712089041735 0.08774663099120679 -0.27676748108555627
-0.04234248473906793 -0.024774679376687356 -0.27550753807606204
0.6652331097728039 0.2565537954032378 -0.27550753807606204
0.31834560039886434 0.6392572847270653 -0.27550753807606204
-0.12737183863979895 0.1033447254487448 -0.27550753807606204
0.2707617527403006 0.13978227728331663 -0.27550753807606204
0.059712899029961096 0.23896499099069904 -0.27550753807606204
0.10134981568371237 0.29764473675287495 -0.27550753807606204
0.06827211187445831 0.2472974140934873 -0.27550753807606204
0.02389691908007306 0.24262722533829542 -0.27508755707289734
-0.06105683824008832 0.4704669195551609 -0.27382761406340317
0.1925276914707749 -0.16009255859636295 -0.27382761406340317
0.6773705607642645 0.20620647274385015 -0.27382761406340317
0.24122028897769365 0.645716592555739 -0.27382761406340317
0.06801172365249614 0.2146900890077777 -0.27382761406340317
0.2335766347200955 0.13906830957793664 -0.27382761406340317
0.33873147829248035 0.16011775745655285 -0.27382761406340317
0.33605199949228937 0.14889586505199132 -0.27382761406340317
0.3336581077742504 0.35325862119194834 -0.2734076330602384
0.4631466506699997 0.587263636535272 -0.27214769005074424
-0.13154644981125635 0.2818030533135013 -0.27214769005074424
0.3938329859076928 -0.1593281931706032 -0.27214769005074424
0.6814359768748991 0.2057192947801791 -0.27214769005074424
-0.05495871407413646 0.49815206728377975 -0.27214769005074424
0.05790698071635273 0.2972751534700899 -0.27214769005074424
0.44641460750391676 0.22711312708139036 -0.27214769005074424
0.4167219505801704 0.2570157745067191 -0.27214769005074424
0.23839801663642668 0.20268703193732973 -0.27214769005074424
0.12346601531036695 0.3421963215685893 -0.27172770904757954
0.4165035604585247 0.6092118437606607 -0.27046776603808537
-0.1346879077149285 0.2316573215356327 -0.27046776603808537
0.41814148637086734 -0.15060938754490336 -0.27046776603808537
0.6814275772548358 0.2576289467713395 -0.27046776603808537
-0.085827317806744 0.4556499897635092 -0.27046776603808537
0.06025887433407522 0.29904747330344517 -0.27046776603808537
0.44839691783885444 0.22648315557664325 -0.27046776603808537
0.4229880671473883 0.20770160511511668 -0.27046776603808537
0.4104474343928895 0.19737847205732764 -0.27046776603808537
0.4885471017414025 0.26475182458501334 -0.26948501049067985
0.66608987101926 0.3079342713304108 -0.26878784202542644
0.11916540983796013 0.6052640223309123 -0.26878784202542644
0.02613121801690946 -0.10108522765171853 -0.26878784202542644
0.443970318065498 -0.14389809111433105 -0.26878784202542644
0.34565276522463506 0.6423819433906108 -0.26878784202542644
0.37668936135850856 0.29630919716281107 -0.26878784202542644
0.04994414089634953 0.2183523233553742 -0.26878784202542644
0.05515190533559221 0.255016664931655 -0.26878784202542644
0.3637035487406551 0.29978663986901505 -0.26878784202542644
0.046021518326790974 0.3076402846281955 -0.2672507115538435
0.45907283493930173 0.23029658308537906 -0.2672507115538435
0.6196147732090509 0.42509217197324345 -0.2671079180127675
-0.1283041964668247 0.28159306281191904 -0.2671079180127675
0.14073563416050058 -0.1593281931706032 -0.2671079180127675
0.6851570085629385 0.22068741773297001 -0.2671079180127675
0.0569410244090739 0.22182976606157806 -0.2671079180127675
0.04946536255274172 0.20293062091916525 -0.2671079180127675
0.04634070388919614 0.1694917334471896 -0.2671079180127675
0.18552240833798733 0.31033656266851306 -0.2671079180127675
0.33721114706102406 0.3014917627418639 -0.2671079180127675
0.6606469172182449 0.33228476989390177 -0.2654279940001086
0.16746322520190393 0.6209629122292099 -0.2654279940001086
0.02613121801690946 -0.10108522765171853 -0.2654279940001086
0.3955129099203516 -0.1630828233388958 -0.2654279940001086
0.396520864327947 0.6293121345721246 -0.2654279940001086
0.37775611310654683 0.2984343010388246 -0.2654279940001086
0.21647500827122773 0.32044130560465645 -0.2654279940001086
0.044064406852043304 0.2736470222320424 -0.2654279940001086
0.13457871265410562 0.22518961408689592 -0.2654279940001086
0.42630591707238946 0.20272903003764617 -0.2654279940001086
0.5217340006114793 0.1970424872547958 -0.2650080129969439
-0.010885907602029824 0.5273827451040448 -0.26374806998744965
-0.08489495997971827 0.03778569085473071 -0.26374806998744965
0.6628728165350181 0.18154518823801732 -0.26374806998744965
0.6176492621142399 0.45391126841040724 -0.26374806998744965
-0.15010121053107411 0.2578305376528586 -0.26374806998744965
0.07309349379078939 0.21792394273214616 -0.26374806998744965
0.04795343094134876 0.22986820246215103 -0.26374806998744965
0.0449547665787526 0.17984846498523183 -0.26374806998744965
0.10202178528877592 0.15201212409547354 -0.26374806998744965
0.29699376619796963 0.1389675141371771 -0.26374806998744965
0.43322720400454434 0.11880842598527007 -0.26332808898428495
0.14154199768657688 -0.1545236104943987 -0.2620681459747908
0.6657286873565382 0.22287971856948988 -0.2620681459747908
0.09195064083288575 0.6031473180749619 -0.2620681459747908
-0.14439786850809708 0.17956287790307976 -0.2620681459747908
0.6337681330157023 0.030091638876752785 -0.2620681459747908
0.07264831392743479 0.21383332776132163 -0.2620681459747908
0.31635489044386356 0.13018151155097105 -0.2620681459747908
0.434386351573279 0.26329869031406344 -0.2620681459747908
0.42691908933701006 0.2568729809656431 -0.2620681459747908
0.03822667090805363 0.2979471230751536 -0.26097619536656247
0.5799769661303639 0.4906092084669412 -0.26038822196213185
0.2418922585827572 0.632747579178012 -0.26038822196213185
0.05368197182451556 -0.10511704528209995 -0.26038822196213185
0.4870687686102625 -0.11557457226090173 -0.26038822196213185
0.46876599649234363 0.5980487486965421 -0.26038822196213185
0.1428523384164509 0.19269988368207255 -0.26038822196213185
0.16991591426038596 0.31490595598294524 -0.26038822196213185
0.04280446384254919 0.22888544691474552 -0.26038822196213185
0.06634859887996386 0.2470958232119682 -0.26038822196213185
0.42441600255814826 0.20021754363872116 -0.26038822196213185
0.3779157058877495 0.1209335298612836 -0.2587082979494729
-0.08840600116617546 0.42742726635083955 -0.2587082979494729
0.2669987229519446 -0.16715663906959366 -0.2587082979494729
0.6748590743653393 0.28349977656628694 -0.2587082979494729
0.18952902710817873 0.6391816881464956 -0.2587082979494729
0.13950928963125955 0.18682854925782966 -0.2587082979494729
0.35507713893565157 0.14195777887970992 -0.2587082979494729
0.3146245687108249 0.3281185583425077 -0.2587082979494729
0.04219129157792862 0.27639369799273966 -0.2587082979494729
0.18602638554178488 0.3150235506638315 -0.2587082979494729
0.14207957337062768 0.6178382535656641 -0.25702837393681405
-0.06626460267933088 0.007563857866996714 -0.25702837393681405
0.5835972023776437 -0.030662813041056797 -0.25702837393681405
0.587024247363468 0.4960773611281461 -0.25702837393681405
-0.15010121053107411 0.20530771339707762 -0.25702837393681405
0.07897322783509561 0.23085935762961973 -0.25702837393681405
0.43814938136163506 0.19560615222397237 -0.25702837393681405
0.04161171779356127 0.2855660831018574 -0.25702837393681405
0.2733404360997321 0.32475871031718984 -0.25702837393681405
0.2127707758233149 0.21821792943436144 -0.25702837393681405
0.4553518032512621 0.15412042873136053 -0.25636480395181377
0.653549238264761 0.10636018905146752 -0.25534844992415506
0.12054294752834045 0.6023157556886959 -0.25534844992415506
-0.07985518794174157 0.011780467138770671 -0.25534844992415506
0.4896306527295674 -0.11880002636520685 -0.25534844992415506
0.13672061577024583 0.18887805655327353 -0.25534844992415506
0.048516205485589436 0.1581942444620584 -0.25534844992415506
0.32698880944399455 0.3278917686007987 -0.25534844992415506
0.04115813831014335 0.24076250968424406 -0.25534844992415506
0.057898581096289516 0.18736612494188046 -0.25534844992415506
0.34323367464640625 0.2834241799857173 -0.25534844992415506
0.06815451719357223 0.1209335298612836 -0.254063308054471
0.46641410287462115 0.28687642383173123 -0.254063308054471
0.6447212375782384 0.3813049525832889 -0.2536685259114962
-0.10346651993966256 0.37830628822069273 -0.2536685259114962
0.11642713369732614 -0.15060938754490336 -0.2536685259114962
0.6789748881963538 0.17956287790307976 -0.2536685259114962
0.20512712156571677 0.2655161900107732 -0.2536685259114962
0.4167387498202971 0.1749430868682678 -0.2536685259114962
0.044568384055840994 0.2388305970696863 -0.2536685259114962
0.0570334202297701 0.24867495178386761 -0.2536685259114962
0.21891089808958322 0.3209284835683275 -0.2536685259114962
0.23445019520667812 0.13364215501704835 -0.2536685259114962
0.050658108601729514 0.192027914077009 -0.2536685259114962
-0.13152125095106648 0.15521237933958879 -0.25198860189883726
0.6039158833107534 0.017878591304722524 -0.25198860189883726
0.52951204879009 0.5478778180584836 -0.25198860189883726
-0.12737183863979895 0.35979352560119143 -0.25198860189883726
0.14150839920632366 0.18964242197903328 -0.25198860189883726
0.19646711328046013 0.32215482809756846 -0.25198860189883726
0.4544614435245529 0.20442575329043178 -0.25198860189883726
0.13833334282239831 0.18539221422700622 -0.25198860189883726
0.22709212803123216 0.2389565913706357 -0.25198860189883726
0.3366147740365301 0.29924066456490095 -0.25198860189883726
0.3779157058877495 0.35539212468802506 -0.2517618121571283
-0.11898061819656772 0.10636018905146752 -0.2503086778861784
0.39164908469123627 -0.15069338374553634 -0.2503086778861784
0.508437402051284 0.564223478701655 -0.2503086778861784
0.11452881956302147 0.6173930737023096 -0.2503086778861784
0.1632802144103832 -0.17350675183744435 -0.2503086778861784
0.052144841352932715 0.22179616758132495 -0.2503086778861784
0.36953288506458154 0.3173082473210475 -0.2503086778861784
0.05684862858837769 0.24621386310532226 -0.2503086778861784
0.18720233235064615 0.27254667200375077 -0.2503086778861784
0.25652439673301625 0.1296103373866669 -0.2503086778861784
0.050548913540906765 0.32095368242851735 -0.2494603162597856
0.04947376217280505 0.5742694242973553 -0.24862875387351946
-0.13151285133100316 0.1810328114141563 -0.24862875387351946
0.6167169042872143 0.039524412207832635 -0.24862875387351946
0.6494670229139998 0.3824137024316438 -0.24862875387351946
-0.11112697343738727 0.4096368710567814 -0.24862875387351946
0.047911432841032206 0.23480717905936818 -0.24862875387351946
0.329139112180198 0.12487295167096883 -0.24862875387351946
0.11756108240587083 0.1433185173299637 -0.24862875387351946
0.34078938520798757 0.25796493157387135 -0.24862875387351946
0.2176173565998359 0.26610416341520376 -0.24862875387351946
0.33965543649944274 0.13576725889306188 -0.24862875387351946
0.43322720400454434 0.11880842598527007 -0.24715042074237958
0.032750118626785556 0.2979471230751536 -0.24715042074237958
0.5061863038743211 -0.09676782293918515 -0.2469488298608605
0.6310718549753848 0.40258958982367726 -0.2469488298608605
-0.1243731742772028 0.3063299438983215 -0.2469488298608605
-0.05678143162787137 -0.02068406440586294 -0.2469488298608605
0.6846698305992674 0.20530771339707762 -0.2469488298608605
0.21020049208394667 0.19428741187403517 -0.2469488298608605
0.3246453154463353 0.2987618862212931 -0.2469488298608605
0.051254481626223536 0.22169537214056542 -0.2469488298608605
0.3666434157628082 0.3171318552997183 -0.2469488298608605
0.047911432841032206 0.29482246441160803 -0.2469488298608605
0.45237833774885594 0.21187621628657408 -0.2469488298608605
0.29436468511815844 0.1269224589664127 -0.2469488298608605
-0.13560346630182768 0.18095721483358665 -0.2452689058482016
0.052018847051983286 -0.10792251838324037 -0.2452689058482016
0.638035140007856 0.37830628822069273 -0.2452689058482016
0.29265116262524626 0.6416595760651677 -0.2452689058482016
-0.11112697343738727 0.05350137999315482 -0.2452689058482016
0.30522539385999825 0.12993792256913542 -0.2452689058482016
0.06975884462566138 0.23541195170392543 -0.2452689058482016
0.39739442481452975 0.15380124316895535 -0.2452689058482016
0.32963468976393234 0.11995077431387821 -0.2452689058482016
0.3385214877908979 0.288951129987365 -0.2452689058482016
0.22824287597990353 0.27510855612305557 -0.2452689058482016
0.3557911066410317 0.09880893061456568 -0.24484892484503687
0.032750118626785556 0.2979471230751536 -0.24484892484503687
0.25859910288865 0.2951752484542663 -0.24417695523997332
0.14567461075771784 0.12279824551533507 -0.24417695523997332
0.4885471017414025 0.30007222695116714 -0.24417695523997332
-0.04576113010482891 -0.027042576793776855 -0.2435889818355427
0.5602126601214317 -0.04372422223947992 -0.2435889818355427
0.34470360815748274 0.6350826735556079 -0.2435889818355427
-0.052455627295274664 0.4960773611281461 -0.2435889818355427
0.3712884056578101 -0.17350675183744435 -0.2435889818355427
0.052766413237616494 0.2122793980496121 -0.2435889818355427
0.2861582563163196 0.3321251771126991 -0.2435889818355427
0.3684493340764165 0.31830780210857956 -0.2435889818355427
0.37789890664762305 0.13471730638515003 -0.2435889818355427
0.34073058786754445 0.16055453769984424 -0.2435889818355427
0.24909913259706387 0.28020712550147536 -0.2435889818355427
0.030599815890582145 0.18612298117251289 -0.24316900083237797
0.23687768540497028 0.29148781524648004 -0.2424970312273144
0.3194039525268395 0.15748867637674163 -0.2424970312273144
0.6102743956986674 0.44890509485268365 -0.24190905782288377
0.3424609096005832 0.6264646633706678 -0.24190905782288377
-0.023409741116402035 -0.04134712976156754 -0.24190905782288377
0.4426179792353076 -0.14001746664508893 -0.24190905782288377
0.5535685606513657 0.5364375355322764 -0.24190905782288377
0.2677966868579577 0.12679646466546327 -0.24190905782288377
0.04288846004318206 0.1895248272981472 -0.24190905782288377
0.13047129844315467 0.31788782110541486 -0.24190905782288377
0.361049268800654 0.32572466662446864 -0.24190905782288377
0.3419401331566589 0.16045374225908468 -0.24190905782288377
0.20202766176236106 0.18944923071757755 -0.24190905782288377
0.13142045551030693 0.19210351065757866 -0.24190905782288377
0.3063761418086696 0.14578800562857228 -0.2408171072146555
0.30326828238525066 0.3090094226985125 -0.2408171072146555
0.5799769661303639 0.4906092084669412 -0.24022913381022487
-0.007778048178610793 0.5247032663038539 -0.24022913381022487
0.18987341153077392 -0.17194442250567163 -0.24022913381022487
0.5697882269935876 -0.05249342558555943 -0.24022913381022487
0.1889158548435583 0.6423819433906108 -0.24022913381022487
0.266864329030932 0.12949274270578082 -0.24022913381022487
0.33980662966058206 0.13533887826983382 -0.24022913381022487
0.041771310574763916 0.14186538305901372 -0.24022913381022487
0.3667442112035677 0.317946618445858 -0.24022913381022487
0.44519666259473917 0.2554954432752628 -0.24022913381022487
0.23034278099572716 0.27232828188210506 -0.24022913381022487
0.43322720400454434 0.13412933298071947 -0.23913718320199656
0.2672843100340967 0.17625342759814178 -0.23913718320199656
-0.07570577563047405 0.44890509485268365 -0.23854920979756594
0.21736536799793704 -0.16402358078598486 -0.23854920979756594
0.6773117634238214 0.2577969391726055 -0.23854920979756594
0.24122028897769365 0.645716592555739 -0.23854920979756594
0.005207764439242675 -0.09416394071956381 -0.23854920979756594
0.2482423713506079 0.3255566742232028 -0.23854920979756594
0.04442559051476502 0.24104809676639613 -0.23854920979756594
0.4761240636677897 0.2252736102875289 -0.23854920979756594
0.34661032191185065 0.1354480733306567 -0.23854920979756594
0.20686584291881882 0.19428741187403517 -0.23854920979756594
0.13112646880809165 0.19180952395536324 -0.23854920979756594
0.20213685682318394 0.10987123023792471 -0.23745725918933766
0.5106717009881203 0.28687642383173123 -0.23745725918933766
0.4846244791718438 -0.11142515994963421 -0.23686928578490704
0.4371078284737863 0.5923286074334384 -0.23686928578490704
-0.1305720938839142 0.3341662847880798 -0.23686928578490704
0.16409497755652283 -0.17035689431370887 -0.23686928578490704
0.3264680330000703 0.1748002933271918 -0.23686928578490704
0.33646358087539086 0.16336841042104785 -0.23686928578490704
0.15765246896797583 0.13288618921135179 -0.23686928578490704
0.2675530978761221 0.33556902133864996 -0.23686928578490704
0.31701006080880056 0.11385265014792637 -0.23686928578490704
0.34401483931229265 0.28730480445495926 -0.23686928578490704
0.24892274057573469 0.28037511790274133 -0.23686928578490704
0.43322720400454434 0.11880842598527007 -0.23577733517667873
0.21197281191730194 0.35325862119194834 -0.23577733517667873
-0.07540338930819544 0.44938387319629136 -0.2351893617722481
-0.008004837920319755 -0.06136342437239848 -0.2351893617722481
0.6781433258100874 0.23113654509170847 -0.2351893617722481
0.531788345827243 0.5513048630443078 -0.2351893617722481
-0.1377957671383475 0.12756083009122304 -0.2351893617722481
0.2944738801789812 0.3328139459578893 -0.2351893617722481
0.10804431287415812 0.13653162431882174 -0.2351893617722481
0.048952985728880814 0.3108237406321842 -0.2351893617722481
0.037655496743749614 0.224164860439174 -0.2351893617722481
0.3421165251779881 0.17344795449700137 -0.2351893617722481
0.20686584291881882 0.2618119575628603 -0.2351893617722481
0.23009079239382832 0.26518020520824137 -0.2351893617722481
0.2672843100340967 0.1873157272215007 -0.2340974111640198
0.3004712089041735 0.08774663099120679 -0.2340974111640198
0.6345744965417787 0.058423557350245424 -0.2335094377595892
0.1440198856052488 0.6107741730924333 -0.2335094377595892
-0.11457081766333801 0.0799097854721529 -0.2335094377595892
0.4896306527295674 -0.11880002636520685 -0.2335094377595892
0.06572702699528007 0.2279194906074667 -0.2335094377595892
0.33775712236513816 0.3219532372160494 -0.2335094377595892
0.15342746007613864 0.1305930929340724 -0.2335094377595892
0.04363602622881527 0.3045912225452196 -0.2335094377595892
0.07480701628370143 0.1360780448354038 -0.2335094377595892
0.4329500165424557 0.1803776410492194 -0.2335094377595892
0.13896331432714543 0.26539019570982375 -0.2335094377595892
0.25250097872269817 0.286582437129516 -0.2335094377595892
0.21197281191730194 0.17625342759814178 -0.23241748715136093
0.5106717009881203 0.17625342759814178 -0.23241748715136093
0.6565983003477369 0.3316883968694079 -0.2318295137469303
-0.10346651993966256 0.37830628822069273 -0.2318295137469303
0.0474914518378675 -0.11557457226090173 -0.2318295137469303
0.6748926728455924 0.15380964278901857 -0.2318295137469303
0.04625670768856327 0.21479088444853725 -0.2318295137469303
0.30051320700449 0.331008027644281 -0.2318295137469303
0.21580303866616418 0.33516583957561186 -0.2318295137469303
0.2606822086643471 0.11924520622856144 -0.2318295137469303
0.037353110421471 0.15433041923294294 -0.2318295137469303
0.3442920267743814 0.17331356057598862 -0.2318295137469303
0.3493905961528012 0.16610668656168184 -0.2318295137469303
0.2558524271279527 0.1692817429456072 -0.2318295137469303
0.2555836392859273 0.10599060576868258 -0.23073756313870197
0.43322720400454434 0.33325912582124395 -0.23073756313870197
0.4399217011949901 -0.1359604501545176 -0.23014958973427135
0.5016169105598887 0.5541775331059544 -0.23014958973427135
-0.10429808232592876 0.40689859491614744 -0.23014958973427135
0.0673733525276858 -0.13206302644514895 -0.23014958973427135
0.33200338262178136 0.16707264286896079 -0.23014958973427135
0.04831461460407036 0.15400283405047444 -0.23014958973427135
0.3416209475942536 0.219545069404362 -0.23014958973427135
0.17766036395874354 0.32874013022719145 -0.23014958973427135
0.3676177716901503 0.33266275279675006 -0.23014958973427135
0.40556725513611525 0.1561699360268044 -0.23014958973427135
0.22639495956597872 0.17658101278061017 -0.23014958973427135
0.2588762903507388 0.16581269985946656 -0.23014958973427135
0.46641410287462115 0.1562539322274374 -0.22905763912604307
0.2166765991527468 0.6344611016709242 -0.22846966572161245
-0.0578313841357832 0.4679638327762991 -0.22846966572161245
0.3904479390221851 -0.14766112090268696 -0.22846966572161245
0.6773705607642645 0.20619807312378693 -0.22846966572161245
0.13804775574024636 0.6293121345721246 -0.22846966572161245
0.4686568014315207 0.2496913058115262 -0.22846966572161245
0.2046315439819824 0.33176399344997753 -0.22846966572161245
0.3593105474475521 0.3327635482375096 -0.22846966572161245
0.28888813283689035 0.34718569588618625 -0.22846966572161245
0.4452974580354987 0.2726222685843204 -0.22846966572161245
0.22668054664813067 0.2749993610622328 -0.22846966572161245
0.050616110501413084 0.3194837489174408 -0.22846966572161245
0.05442953801014888 0.24097250018582647 -0.22846966572161245
0.2672843100340967 0.1873157272215007 -0.22737771511338417
0.5956254583082816 0.4704669195551609 -0.22678974170895355
0.24218624528497248 0.6327643784181387 -0.22678974170895355
0.05368197182451556 -0.10511704528209995 -0.22678974170895355
0.4426179792353076 -0.14001746664508893 -0.22678974170895355
0.49136937408266934 0.5846849531758405 -0.22678974170895355
0.34103297418982303 0.12137031010457497 -0.22678974170895355
0.24257262780788408 0.33980242985055037 -0.22678974170895355
0.1628098356868387 0.324363928174215 -0.22678974170895355
0.34397284121197613 0.29420929214698743 -0.22678974170895355
0.35362400466470156 0.12666207074445052 -0.22678974170895355
0.13389834342897886 0.2650458112872287 -0.22678974170895355
0.2672843100340967 0.35325862119194834 -0.22636976070578882
0.32995387532633746 0.2536895249616544 -0.22569779110072521
0.09464691887320328 0.599098701204454 -0.22510981769629462
-0.13154644981125635 0.18133519773643492 -0.22510981769629462
0.6167169042872143 0.039524412207832635 -0.22510981769629462
0.6789748881963538 0.2835753731468565 -0.22510981769629462
-0.09919951294750896 0.43304661217318346 -0.22510981769629462
0.18036504161912442 0.12596490227919707 -0.22510981769629462
0.27381081482327657 0.34062559261675335 -0.22510981769629462
0.3335993104338073 0.2787455916104622 -0.22510981769629462
0.347248693036661 0.1719696213658615 -0.22510981769629462
0.20361518995432382 0.19611852904783342 -0.22510981769629462
0.22288391837952154 0.2858852686642625 -0.22510981769629462
0.4442895036279033 0.12987072560862908 -0.22401786708806634
0.3779157058877495 0.35539212468802506 -0.22401786708806634
0.008668407905319973 -0.08148051442398907 -0.22342989368363572
0.6409834066500725 0.08343762589873663 -0.22342989368363572
0.29264276300518305 0.6416595760651677 -0.22342989368363572
-0.11854383795327635 0.3843204161860117 -0.22342989368363572
0.49136937408266934 -0.12154670212590417 -0.22342989368363572
0.2704509667979587 0.11533938289912944 -0.22342989368363572
0.26655354308859003 0.10945124923476 -0.22342989368363572
0.46102154679398605 0.18209116354213145 -0.22342989368363572
0.3549595442547655 0.32179364443484687 -0.22342989368363572
0.22572298996091517 0.18342670313219533 -0.22342989368363572
0.2227243255983189 0.2666753375795079 -0.22342989368363572
0.3225958081508914 0.24262722533829542 -0.2223379430754074
0.3336581077742504 0.09880893061456568 -0.2223379430754074
0.34365365564957095 -0.16724063527022665 -0.2217499696709768
0.5898297204646085 0.4659731228212983 -0.2217499696709768
-0.04902018268938713 0.49380106409099317 -0.2217499696709768
-0.03521960692539414 -0.05249342558555943 -0.2217499696709768
0.6850814119823689 0.21864631005758947 -0.2217499696709768
0.3312474168160848 0.170331695453519 -0.2217499696709768
0.4582916702734154 0.18258674112586581 -0.2217499696709768
0.4290609924531501 0.3039696506605358 -0.2217499696709768
0.46876599649234363 0.2048541339136597 -0.2217499696709768
0.2515938197558624 0.285784473223503 -0.2217499696709768
0.03909183177457293 0.22379527715638906 -0.2217499696709768
0.3303486574693123 0.20944032646821859 -0.2206580190627485
0.6229746212343688 0.42742726635083955 -0.22007004565831786
0.31751403801259825 0.6303956855602896 -0.22007004565831786
-0.00562774544240738 -0.059129125435562195 -0.22007004565831786
0.39465614867389553 -0.15905940532857768 -0.22007004565831786
0.5535685606513657 0.5364375355322764 -0.22007004565831786
0.3496089862744468 0.12331062233919597 -0.22007004565831786
0.25639000281200364 0.3407263880575129 -0.22007004565831786
0.274423987087897 0.33839969329998015 -0.22007004565831786
0.3575634264743868 0.28497810969742665 -0.22007004565831786
0.20295161996932348 0.26707011972248274 -0.22007004565831786
0.13898851318733532 0.18458585070092992 -0.22007004565831786
0.29769093466322305 0.3555181189889746 -0.21965006465515313
0.29333993147043647 0.35956673585948257 -0.21897809505008958
-0.13152125095106648 0.3079342713304108 -0.21839012164565896
0.1918137237653949 -0.16326761498028833 -0.21839012164565896
0.6491478373515945 0.3832200659577201 -0.21839012164565896
0.34503959296001463 0.6391816881464956 -0.21839012164565896
-0.037588299783243295 -0.0547193249023325 -0.21839012164565896
0.2632356931635887 0.11507899467716738 -0.21839012164565896
0.331507805038047 0.28586006980407264 -0.21839012164565896
0.34174694189520305 0.12566251595691846 -0.21839012164565896
0.36411513012375657 0.1347341056252766 -0.21839012164565896
0.22607577400357343 0.18336790579175224 -0.21839012164565896
0.24950231436010203 0.2900682794557833 -0.21839012164565896
0.3779157058877495 0.11512099277748382 -0.21729817103743065
0.5327963002348384 0.26475182458501334 -0.21729817103743065
0.5803297501730222 -0.027042576793776855 -0.21671019763300006
0.2668055316904889 0.6302864904994667 -0.21671019763300006
-0.14280194069607113 0.2062232719839768 -0.21671019763300006
0.31928635784595344 -0.18011725282725724 -0.21671019763300006
0.37799130246831925 0.3275137856979505 -0.21671019763300006
0.33548082532798534 0.1704408905143419 -0.21671019763300006
0.3915818877307298 0.32527108714105085 -0.21671019763300006
0.31371740974398915 0.335401028937384 -0.21671019763300006
0.20394277513679232 0.26633095315691274 -0.21671019763300006
0.13290718826151002 0.26603696645469743 -0.21671019763300006
0.040360174404130374 0.22060342153233703 -0.21671019763300006
0.3336581077742504 0.3643209208153073 -0.21561824702477178
0.09413454204934225 0.5988551122226184 -0.21503027362034116
-0.12754823066112814 0.15609433944623474 -0.21503027362034116
0.6280815902328519 0.06184220271600629 -0.21503027362034116
0.6748926728455924 0.3093286082609177 -0.21503027362034116
-0.11112697343738727 0.4096368710567814 -0.21503027362034116
0.2540969065347243 0.11470101177431911 -0.21503027362034116
0.3352036378658966 0.1738175377797863 -0.21503027362034116
0.24348818639478315 0.12250425881311978 -0.21503027362034116
0.36675261082363103 0.32076889078712495 -0.21503027362034116
0.23393781838281721 0.17597624013605306 -0.21503027362034116
0.21954926921439355 0.17756376832801568 -0.21503027362034116
0.40116585422294887 0.1209335298612836 -0.21393832301211282
0.4111026047578265 0.3311340219452304 -0.21393832301211282
0.2668727286509952 -0.17446430852465997 -0.2133503496076822
0.6280815902328519 0.40129604833392996 -0.2133503496076822
-0.01365778222291702 0.531380964254173 -0.2133503496076822
-0.08308064204604669 0.009218583019465768 -0.2133503496076822
0.6834350864499632 0.1921875068582115 -0.2133503496076822
0.3135494173427232 0.11207193069450788 -0.2133503496076822
0.473335389806776 0.26308869981248106 -0.2133503496076822
0.24833476717130412 0.3352666350163714 -0.2133503496076822
0.1428523384164509 0.2672717106040018 -0.2133503496076822
0.14160919464708321 0.2720594940400796 -0.2133503496076822
0.3225958081508914 0.3643209208153073 -0.2129303686045175
0.20091051229394294 0.3090094226985125 -0.21225839899945392
-0.04540834606217053 0.4906092084669412 -0.2116704255950233
-0.025845630934757394 -0.04349743249777096 -0.2116704255950233
0.6773705607642645 0.20619807312378693 -0.2116704255950233
0.5697882269935876 0.5156316766354957 -0.2116704255950233
-0.14763172223246554 0.1791512965199784 -0.2116704255950233
0.2906688522903088 0.10840969634691139 -0.2116704255950233
0.31992472897076374 0.11627174072615518 -0.2116704255950233
0.48967265082988387 0.20906234356537032 -0.2116704255950233
0.4383929703434706 0.29105103500318863 -0.2116704255950233
0.14063483871974103 0.18673615343713335 -0.2116704255950233
0.0586125488016695 0.22534080724803524 -0.2116704255950233
0.3273331938665896 0.3592475502970773 -0.21057847498679502
-0.13152125095106648 0.15521237933958879 -0.2099905015823644
0.39135509798902074 -0.15078577956623254 -0.2099905015823644
0.5488563737958574 0.5307845912296791 -0.2099905015823644
0.13905571014784163 0.6262210743888322 -0.2099905015823644
0.13804775574024636 -0.16617388352218826 -0.2099905015823644
0.28865294347511805 0.10994682681849435 -0.2099905015823644
0.4710254942893699 0.18760131430365276 -0.2099905015823644
0.3166572767661422 0.3561984882141014 -0.2099905015823644
0.3614440509436288 0.12283184399558829 -0.2099905015823644
0.22657135158730793 0.2763349006522966 -0.2099905015823644
0.5217340006114793 0.1970424872547958 -0.20889855097413607
0.3779157058877495 0.11200473373400156 -0.20889855097413607
0.34365365564957095 -0.16724063527022665 -0.20831057756970547
0.5579783611845954 0.5044769811914407 -0.20831057756970547
-0.04902018268938713 0.49380106409099317 -0.20831057756970547
0.0027802742409505305 -0.0881666119943715 -0.20831057756970547
0.44328154922030794 0.29204219017065747 -0.20831057756970547
0.3048558105772133 0.3488992183790984 -0.20831057756970547
0.3357916112703273 0.28934591213033994 -0.20831057756970547
0.3459047538265339 0.2778216334034998 -0.20831057756970547
0.25177021177719167 0.17440551118421688 -0.20831057756970547
0.2127707758233149 0.2399393469180412 -0.20831057756970547
0.5106717009881203 0.2536895249616544 -0.2072186269614772
0.5450429462871218 -0.06462247695695682 -0.20663065355704657
0.4371078284737863 0.5923286074334384 -0.20663065355704657
-0.14356630612183088 0.231892510897405 -0.20663065355704657
0.13905571014784163 -0.1630828233388958 -0.20663065355704657
0.6056294058036655 0.4773882064873155 -0.20663065355704657
0.33435527623950384 0.1700041102710506 -0.20663065355704657
0.3380595086874168 0.34586695553624913 -0.20663065355704657
0.3673657830882516 0.2936465176027468 -0.20663065355704657
0.14126481022448817 0.19428741187403517 -0.20663065355704657
0.2293432262081951 0.18398107805637268 -0.20663065355704657
0.4553518032512621 0.14519163260407839 -0.20553870294881826
-0.06105683824008832 -0.007328668505224537 -0.20495072954438764
0.5034396281136237 -0.09372716047627255 -0.20495072954438764
0.3690457071009104 0.629639719754593 -0.20495072954438764
0.023376142636148813 0.567280940404694 -0.20495072954438764
0.2665367438484635 -0.18662695837631058 -0.20495072954438764
0.32053790123538434 0.11087078502545676 -0.20495072954438764
0.3982091879606691 0.1294843430857175 -0.20495072954438764
0.32716520146532374 0.35598849771251895 -0.20495072954438764
0.205731894210274 0.2648694192658995 -0.20495072954438764
0.22252273471679992 0.1780845447719399 -0.20495072954438764
0.5327963002348384 0.1983780268448597 -0.20385877893615933
0.14154199768657688 -0.1545236104943987 -0.20327080553172872
0.6411010013309584 0.0837232129808887 -0.20327080553172872
0.05368197182451556 0.5682552963320363 -0.20327080553172872
-0.1346375099945487 0.334771057432637 -0.20327080553172872
0.5338630519828765 -0.09066969877323329 -0.20327080553172872
0.3088792285875314 0.10679696929475889 -0.20327080553172872
0.4917137585052644 0.24670944068905662 -0.20327080553172872
0.35909215732590644 0.3280681606221279 -0.20327080553172872
0.13440232063277655 0.2664485478377989 -0.20327080553172872
0.2551048609423195 0.287523194576605 -0.20327080553172872
0.5217340006114793 0.2315649257149365 -0.20217885492350043
-0.08867478900820085 0.03619816266276797 -0.20159088151906981
0.3424609096005832 -0.16332641232073142 -0.20159088151906981
0.4371078284737863 0.5923286074334384 -0.20159088151906981
0.06896928033971175 0.5914046492264762 -0.20159088151906981
0.13804775574024636 -0.16617388352218826 -0.20159088151906981
0.36180523460635056 0.3359218053813084 -0.20159088151906981
0.44434830096834643 0.298871081282116 -0.20159088151906981
0.36356915481964236 0.28544008880090793 -0.20159088151906981
0.2030776142702729 0.19319546126580692 -0.20159088151906981
0.22712572651148527 0.2787875897107786 -0.20159088151906981
0.4885471017414025 0.26854005323355923 -0.2004989309108415
-0.13560346630182768 0.18095721483358665 -0.1999109575064109
0.14292793499702042 -0.15069338374553634 -0.1999109575064109
0.5898885178050516 0.46589752624072855 -0.1999109575064109
0.24105229657642768 0.6416007787247245 -0.1999109575064109
-0.037588299783243295 -0.0547193249023325 -0.1999109575064109
0.3755050149295839 0.334174684408143 -0.1999109575064109
0.40402172504446904 0.3256154715636459 -0.1999109575064109
0.37394268559781124 0.311134526574526 -0.1999109575064109
0.4336219861475191 0.15591794742490556 -0.1999109575064109
0.20248964086584234 0.18628257395371542 -0.1999109575064109
0.22290071761964808 0.2698671932035598 -0.1999109575064109
0.4996094013647613 0.2550250645517183 -0.19881900689818263
0.6102743956986674 0.0142331561972527 -0.19823103349375198
0.29237397516315755 0.6295053258335803 -0.19823103349375198
-0.12360880885144304 0.10501624984134042 -0.19823103349375198
0.34503959296001463 -0.17604343709655937 -0.19823103349375198
0.5072530556223593 0.5738830417744436 -0.19823103349375198
0.33653077783589713 0.17329676133586205 -0.19823103349375198
0.5073958491634355 0.22981780474177124 -0.19823103349375198
0.37952843293990207 0.1608149259218063 -0.19823103349375198
0.20977211146071875 0.2700771837051421 -0.19823103349375198
0.2589266880711185 0.18079762205238412 -0.19823103349375198
0.43322720400454434 0.11880842598527007 -0.19713908288552368
0.16657286547519476 -0.16179768146921178 -0.19655110948109306
0.6692397285429954 0.23090135572993628 -0.19655110948109306
0.02613121801690946 0.564223478701655 -0.19655110948109306
-0.14439786850809708 0.17956287790307976 -0.19655110948109306
0.6337681330157023 0.030091638876752785 -0.19655110948109306
0.3294162996422867 0.34572416199517314 -0.19655110948109306
0.3195467460679155 0.09976648730178131 -0.19655110948109306
0.36587065071698505 0.2282470757899352 -0.19655110948109306
0.1353094795996123 0.269304418659319 -0.19655110948109306
0.1374261838555626 0.18267913694656213 -0.19655110948109306
0.3264092356596272 0.22879305109404932 -0.19545915887286477
0.5186429404281869 0.5502465109163327 -0.19487118546843415
0.19211611008767354 0.6264646633706678 -0.19487118546843415
0.09746079159440692 -0.1291903563835022 -0.19487118546843415
0.5670919489532701 -0.04937716654207718 -0.19487118546843415
0.396520864327947 0.6293121345721246 -0.19487118546843415
0.48296975401937475 0.2588720905407072 -0.19487118546843415
0.4773000104766508 0.18515702486523394 -0.19487118546843415
0.3354220279875422 0.293512123681734 -0.19487118546843415
0.3937237908468699 0.3215752543132011 -0.19487118546843415
0.21020049208394667 0.2618119575628603 -0.19487118546843415
0.2322914928504115 0.2724038784626747 -0.19487118546843415
0.4885471017414025 0.1630576244787059 -0.19377923486020587
-0.13553626934132124 0.2827438107605904 -0.19319126145577525
0.14292793499702042 -0.15069338374553634 -0.19319126145577525
0.5898885178050516 0.46589752624072855 -0.19319126145577525
0.34503959296001463 0.6391816881464956 -0.19319126145577525
-0.037588299783243295 -0.0547193249023325 -0.19319126145577525
0.3696000820250879 0.33664417270675157 -0.19319126145577525
0.501877298781851 0.2390993849117118 -0.19319126145577525
0.37642057351648306 0.32057569952566906 -0.19319126145577525
0.38890240893053896 0.13570006193255554 -0.19319126145577525
0.20335480173236162 0.26252592526824037 -0.19319126145577525
0.22612617172395322 0.2768136789959044 -0.19319126145577525
0.36577825489628885 0.15581715198414603 -0.19209931084754692
0.5438585998581971 0.2315649257149365 -0.19209931084754692
0.21611382460850614 -0.17124725404041818 -0.19151133744311633
0.6534988405443812 0.3306888420818758 -0.19151133744311633
0.005720141263103584 0.5484237933625979 -0.19151133744311633
-0.09635204174605211 0.03166236782858885 -0.19151133744311633
0.6822087419207221 0.1791512965199784 -0.19151133744311633
0.3556903112002721 0.11790126701843434 -0.19151133744311633
0.4630962529496199 0.27895558211204446 -0.19151133744311633
0.3363963839148844 0.17631222493858476 -0.19151133744311633
0.2256977911007253 0.1803440425689662 -0.19151133744311633
0.2176005573597092 0.2675152995858373 -0.19151133744311633
0.32374655609956277 0.24262722533829542 -0.19041938683488804
0.4850948578953884 0.5742694242973553 -0.18983141343045742
0.03088540297273409 0.5566890195048796 -0.18983141343045742
0.26646954688795715 -0.1671398398294671 -0.18983141343045742
0.6144238080099349 0.011780467138770671 -0.18983141343045742
0.1889158548435583 0.6423819433906108 -0.18983141343045742
0.38513937914218294 0.1256709155769818 -0.18983141343045742
0.33771512426482175 0.09980848540209773 -0.18983141343045742
0.33375890321500995 0.16935733952617685 -0.18983141343045742
0.13485590011619436 0.18736612494188046 -0.18983141343045742
0.222127952573825 0.17788295389042083 -0.18983141343045742
0.4774848021180435 0.1430581291080015 -0.18873946282222911
0.3266780235016526 0.20944032646821859 -0.18873946282222911
0.5799769661303639 0.4906092084669412 -0.1881514894177985
-0.09347097206434204 0.40138844415462616 -0.1881514894177985
0.18987341153077392 -0.17194442250567163 -0.1881514894177985
0.6692061300627421 0.12837559323736267 -0.1881514894177985
7.055680853167711E-4 0.5538079498231696 -0.1881514894177985
0.37530342404806505 0.1155661726408384 -0.1881514894177985
0.4175703122065632 0.31525874002560367 -0.1881514894177985
0.34693790709431915 0.24833056736127243 -0.1881514894177985
0.4854056438377301 0.17625342759814178 -0.18705953880957019
0.3225958081508914 0.23023778574493595 -0.18705953880957019
0.3924890466975657 0.6178382535656641 -0.18647156540513957
-0.1119417365835268 0.10840129672684817 -0.18647156540513957
0.4418368145694213 -0.14037865030781063 -0.18647156540513957
0.6309206618142454 0.4314758832213475 -0.18647156540513957
0.34126816355159534 0.10997202567868423 -0.18647156540513957
0.42096375871213415 0.13557406763160612 -0.18647156540513957
0.42710388097840246 0.15031540084268807 -0.18647156540513957
0.34792066264172455 0.24931332290867794 -0.18647156540513957
0.3735983011752162 0.2998118387292049 -0.18537961479691129
0.43905654032847063 0.32007172232187153 -0.18537961479691129
-0.13560346630182768 0.2821810362163496 -0.18479164139248067
0.29268476110549946 -0.1696093281280757 -0.18479164139248067
0.6139534292863903 0.4520885508566722 -0.18479164139248067
0.21528226222223992 0.6432555038771935 -0.18479164139248067
0.06580262357584973 -0.1349188972666691 -0.18479164139248067
0.34198213125697535 0.345976150597072 -0.18479164139248067
0.4499004498301842 0.30563277543306805 -0.18479164139248067
0.32749278664779224 0.27945955931584215 -0.18479164139248067
0.24837676527162056 0.16714823944953044 -0.18479164139248067
0.38712168947712033 0.1430581291080015 -0.18369969078425238
0.04994414089634953 -0.11142515994963421 -0.18311171737982176
0.5604226506230141 -0.04349743249777096 -0.18311171737982176
0.1925276914707749 0.6232308096462992 -0.18311171737982176
-0.052455627295274664 0.4960773611281461 -0.18311171737982176
0.3712884056578101 -0.17350675183744435 -0.18311171737982176
0.40518927223326706 0.13120626519869297 -0.18311171737982176
0.4097502659276361 0.1469807516775602 -0.18311171737982176
0.3439140438715331 0.17305317235402654 -0.18311171737982176
0.2274365124538272 0.17822733831301601 -0.18311171737982176
0.36685340626439056 0.3643209208153073 -0.18201976677159346
0.2840751505406225 0.27581412420837237 -0.18201976677159346
0.008668407905319973 0.5446187654739254 -0.18143179336716284
0.2421946449050358 -0.16637547440370734 -0.18143179336716284
0.6651407139521076 0.12897196626185659 -0.18143179336716284
0.21528226222223992 0.6432555038771935 -0.18143179336716284
0.4133957010351059 0.13528848054945405 -0.18143179336716284
0.4803994702800068 0.1816879817790933 -0.18143179336716284
0.4445834903301186 0.16346080624174406 -0.18143179336716284
0.33840389311001184 0.19825203254391027 -0.18143179336716284
0.3557911066410317 0.09880893061456568 -0.18033984275893453
0.3272071995656402 0.2315649257149365 -0.18033984275893453
0.5634801123260533 -0.046193710538088496 -0.1797518693545039
0.46107194451436584 0.5837525953488147 -0.1797518693545039
-0.14280194069607113 0.20623167160404002 -0.1797518693545039
0.09059830200269531 -0.14389809111433105 -0.1797518693545039
0.6337681330157023 0.43304661217318346 -0.1797518693545039
0.3825690954028147 0.3357706122201691 -0.1797518693545039
0.4859684183819709 0.27384021349349813 -0.1797518693545039
0.33846269045045496 0.24427355087070124 -0.1797518693545039
0.25087145243041914 0.16894575814307547 -0.1797518693545039
0.4000403051344675 0.24262722533829542 -0.17865991874627563
-0.1101526175100451 0.08181649922652079 -0.178071945341845
0.26646954688795715 -0.17038209317389877 -0.178071945341845
0.5016925071404585 0.5541187357655116 -0.178071945341845
0.14073563416050058 0.6224664442205395 -0.178071945341845
0.04319924598552401 -0.12154670212590417 -0.178071945341845
0.43344559412619005 0.15676630905129832 -0.178071945341845
0.41794829510941156 0.31144531251686797 -0.178071945341845
0.3436116575492545 0.21347214409860002 -0.178071945341845
0.22644535728635848 0.27629290255198014 -0.178071945341845
0.4885471017414025 0.30007222695116714 -0.17697999473361672
0.2520641984794069 0.2965779850048365 -0.17697999473361672
0.14207957337062768 0.6178382535656641 -0.17639202132918608
0.05368197182451556 -0.10511704528209995 -0.17639202132918608
0.5994304861969542 -0.01028533476750426 -0.17639202132918608
0.42003980050517187 0.6173930737023096 -0.17639202132918608
0.4186286643345383 0.1362880353369861 -0.17639202132918608
0.507614239285081 0.21554685025423378 -0.17639202132918608
0.4390313414682809 0.15141575107097965 -0.17639202132918608
0.33812670564792313 0.16252004879465512 -0.17639202132918608
0.4774848021180435 0.151995324855347 -0.1753000707209578
0.3227973990324105 0.17625342759814178 -0.1753000707209578
0.653549238264761 0.10636018905146752 -0.17471209731652718
0.2418922585827572 0.632747579178012 -0.17471209731652718
-0.09255541347744298 0.03325829564061492 -0.17471209731652718
0.31928635784595344 -0.18011725282725724 -0.17471209731652718
0.46876599649234363 0.5980487486965421 -0.17471209731652718
0.36136005474299593 0.34273389725264036 -0.17471209731652718
0.470429121264876 0.29167260688787255 -0.17471209731652718
0.34054579622615194 0.20925553482682607 -0.17471209731652718
0.22983880379192947 0.17985686460529504 -0.17471209731652718
0.4000403051344675 0.17625342759814178 -0.1736201467082989
0.11806505960966854 -0.14607359271072434 -0.17303217330386828
0.6194635800479116 0.03778569085473071 -0.17303217330386828
0.09755318741510324 0.5923706055337551 -0.17303217330386828
-0.10817870679517089 0.40825093374633786 -0.17303217330386828
0.46876599649234363 -0.1349188972666691 -0.17303217330386828
0.444793480831701 0.15128975677003023 -0.17303217330386828
0.3430656822451404 0.11588535820324357 -0.17303217330386828
0.36726498764749205 0.2886823421453396 -0.17303217330386828
0.23141793236382888 0.17507748078928054 -0.17303217330386828
0.4845320833511476 0.28687642383173123 -0.17194022269563997
0.4000403051344675 0.2979471230751536 -0.17194022269563997
-0.11506639524707238 0.3556357136698606 -0.17135224929120932
0.5016169105598887 -0.09103928205601823 -0.17135224929120932
0.6494670229139998 0.3824137024316438 -0.17135224929120932
-0.006173720746521508 0.5477434241374709 -0.17135224929120932
0.4316144769523917 0.14270534506534324 -0.17135224929120932
0.5157618707464767 0.22861665907272014 -0.17135224929120932
0.45762810028841505 0.2892367170695171 -0.17135224929120932
0.3739846836981277 0.16345240662168084 -0.17135224929120932
0.488790690723238 0.17353195069763425 -0.17093226828804461
0.4442895036279033 0.1209335298612836 -0.17026029868298104
0.028835895677290217 0.5602420587916532 -0.16967232527855042
-0.12202968027954364 0.13144985418052849 -0.16967232527855042
0.638035140007856 0.08482356320918029 -0.16967232527855042
0.6388667023941221 0.40689859491614744 -0.16967232527855042
-0.1304628988230913 0.3608014800087868 -0.16967232527855042
0.4553686024913888 0.29779592991401427 -0.16967232527855042
0.39603368636427594 0.3251114943598482 -0.16967232527855042
0.3470639013952686 0.2876407892574911 -0.16967232527855042
0.23275347195389265 0.28124027876926067 -0.16967232527855042
0.4388045517265718 0.1319958294846426 -0.16858037467032214
0.3889780055111085 0.32007172232187153 -0.16858037467032214
-0.12594390322903887 0.13031590547198368 -0.16799240126589152
0.1918137237653949 -0.16326761498028833 -0.16799240126589152
