-0.03416504109104931 0.4454890500614957 -0.12366022903905168
0.26864640729417255 0.3582645931746543 -0.12366022903905168
0.5240941902953474 0.5589499120841667 -0.12299793247954642
0.5436130160419095 0.2008745464979423 -0.12299793247954642
0.09758466735338793 0.3850781424551955 -0.12299793247954642
0.09468948525040786 0.2971346207323197 -0.12299793247954642
0.10056500187116153 0.3124242098774695 -0.12299793247954642
0.20319258445621075 0.4329527223280036 -0.12299793247954642
0.4224978980672421 0.3199081609998788 -0.12299793247954642
0.43245126921866395 0.34674063303926295 -0.12299793247954642
0.194421885732477 0.5589499120841667 -0.12299793247954642
0.028138142399551664 0.4704197848371577 -0.12176795315475096
0.5299507841572582 0.4969873382527398 -0.12176795315475096
0.592604038686455 0.5662635583769888 -0.12110565659524572
0.28049205432989494 0.3402122812384255 -0.12110565659524572
0.37052654090492304 0.26547684518796877 -0.12110565659524572
0.35733737799134696 0.5044239824780414 -0.12110565659524572
0.4782065001010552 0.46950203103327187 -0.12110565659524572
0.3006542538771191 0.4093938875684596 -0.12110565659524572
0.0997702459997552 0.3016193145781125 -0.12110565659524572
0.12923298151831736 0.2560343885253083 -0.12110565659524572
0.12444552353103656 0.5077165425167248 -0.12110565659524572
0.07798068919203249 0.4454890500614957 -0.11987567727045025
0.5515132678588648 0.4704197848371577 -0.11987567727045025
0.5024654769377903 0.26123814720713523 -0.11921338071094499
0.5682882935731906 0.5131662970635108 -0.11921338071094499
0.2970494683175262 0.3223018899935192 -0.11921338071094499
0.10473747019604464 0.36970340089525217 -0.11921338071094499
0.11897684622540747 0.3963750294844708 -0.11921338071094499
0.5577577782770571 0.4059499454590324 -0.11921338071094499
0.5522701782125852 0.42384141394509556 -0.11921338071094499
0.4234440360093925 0.4880936415965263 -0.11921338071094499
0.13917689129031766 0.24854097602347744 -0.11921338071094499
0.16237619363184438 0.4953410582333981 -0.11874031173986982
0.028138142399551664 0.457949686759616 -0.11798340138614954
0.5889046393326469 0.34580395647653417 -0.11798340138614954
0.18631348356824845 0.524084728915926 -0.11732110482664429
0.1152206785950705 0.37260804437765377 -0.11732110482664429
0.1090329364534072 0.3979929253655478 -0.11732110482664429
0.42780573192270566 0.4417612665694234 -0.11732110482664429
0.5037143790214288 0.29729546418248526 -0.11732110482664429
0.43035084298709003 0.48670281882156535 -0.11732110482664429
0.30654869325671585 0.439499996887684 -0.11732110482664429
0.29237554688330347 0.4340218582026335 -0.11732110482664429
0.5790080364577542 0.2065135286331585 -0.11732110482664429
0.10705550815431292 0.27596005358699477 -0.1168480358555691
0.4089018958385415 0.3035399746006776 -0.11609112550184882
0.3142029492087122 0.34389275783339035 -0.11609112550184882
0.3570913821263879 0.5327229683277588 -0.11609112550184882
0.5183700557453379 0.19894442509595567 -0.11542882894234356
0.5589972189812741 0.5567737948172209 -0.11542882894234356
0.19694807403801842 0.34516058267587185 -0.11542882894234356
0.10259919844678483 0.39160649425603294 -0.11542882894234356
0.4124593745010269 0.48942769609495834 -0.11542882894234356
0.09809558184214914 0.29914043316967853 -0.11542882894234356
0.10133137360430335 0.28645272336544214 -0.11542882894234356
0.481849131178334 0.48339133602403905 -0.11542882894234356
0.4277111181284906 0.4887180926383456 -0.11542882894234356
0.20095023753331445 0.5115957080795412 -0.11542882894234356
0.2234399364182284 0.2585700382102711 -0.11495575997126839
0.26490916242267865 0.4171332959352495 -0.1141988496175481
0.4120052282887947 0.30332236287398306 -0.1141988496175481
0.5639833659364066 0.30842204638217346 -0.1141988496175481
0.5270556020542783 0.567427308045834 -0.11353655305804285
0.5210854716393095 0.23016697718691742 -0.11353655305804285
0.1821599380022083 0.21064815144035554 -0.11353655305804285
0.42082323390963605 0.459321586775734 -0.11353655305804285
0.09191730107990725 0.4651024896022727 -0.11353655305804285
0.08858689552353796 0.29230931722735287 -0.11353655305804285
0.5099778121984643 0.46759083239012816 -0.11353655305804285
0.42950878021857625 0.449850745974809 -0.11353655305804285
0.2999919573176139 0.4319876616270102 -0.11353655305804285
0.1429803658177621 0.5597257451967298 -0.11353655305804285
0.24404682079826315 0.5078016949315183 -0.11306348408696766
0.26864640729417255 0.3492478985859614 -0.11230657373324739
0.4089018958385415 0.48259658015263285 -0.11230657373324739
0.651207822823248 0.40810713996713516 -0.11230657373324739
0.5703887198047645 0.5352586180127218 -0.11164427717374215
0.5615139459073942 0.24900458361513103 -0.11164427717374215
0.11350816891977837 0.36910733399169743 -0.11164427717374215
0.4129419048515236 0.5005921238123326 -0.11164427717374215
0.10363995018315023 0.48007039184709127 -0.11164427717374215
0.0835818258095626 0.46994671586608255 -0.11164427717374215
0.4981983948186922 0.4641374289012793 -0.11164427717374215
0.32765703074609026 0.32398601553054684 -0.11164427717374215
0.29438135932066223 0.3191323278873156 -0.11164427717374215
0.1464432306860324 0.25364065953166787 -0.11164427717374215
0.19122393948800873 0.5422978843023204 -0.11164427717374215
0.26361295344193264 0.2546151816120827 -0.11041429784894667
0.21097929972010826 0.5063919493977141 -0.11041429784894667
0.651207822823248 0.40810713996713516 -0.11041429784894667
0.18709877806023323 0.5515132678588648 -0.10975200128944142
0.2770859577381537 0.42449424912517936 -0.10975200128944142
0.305914780835475 0.3306941335403929 -0.10975200128944142
0.09833211632768665 0.3036913566714217 -0.10975200128944142
0.3907928156257836 0.49568166789257223 -0.10975200128944142
0.5185687447131894 0.3115821471089557 -0.10975200128944142
0.399667589523154 0.503175080394403 -0.10975200128944142
0.5457985946882767 0.44055021000347094 -0.10975200128944142
0.4352802216656934 0.3126891285012717 -0.10975200128944142
0.5190701978225291 0.26085969203027504 -0.10975200128944142
0.5385133325337189 0.5569535610262295 -0.10975200128944142
0.028138142399551664 0.28349131160651153 -0.10852202196464597
0.2524485257245584 0.5119647018769797 -0.10852202196464597
0.5889046393326469 0.32327641207393415 -0.10852202196464597
0.18140302764848804 0.5034021535005191 -0.10785972540514072
0.20448879343695672 0.4264716774242736 -0.10785972540514072
0.30858288983233917 0.32908569903873724 -0.10785972540514072
0.09779281770066092 0.303000675973652 -0.10785972540514072
0.424787551887246 0.48376979120089925 -0.10785972540514072
0.4235575725624506 0.3187822568487199 -0.10785972540514072
0.42131522563955415 0.3189809458165715 -0.10785972540514072
0.2633101893004444 0.5049632811050673 -0.10785972540514072
0.5662257128593029 0.36142469390143656 -0.10785972540514072
0.5414652829132282 0.21711973496466394 -0.10785972540514072
0.29296215240743667 0.5202623316296385 -0.10738665643406553
0.26490916242267865 0.4171332959352495 -0.10662974608034524
0.48921008436826396 0.24370621113908902 -0.10662974608034524
0.1625086529437454 0.5582876155246614 -0.10596744952083999
0.16834632404681316 0.25372581194646127 -0.10596744952083999
0.1963330843756207 0.42122061184533904 -0.10596744952083999
0.11959183588780518 0.38258979966733997 -0.10596744952083999
0.42615945190336396 0.3094154912214314 -0.10596744952083999
0.4261878360416285 0.26567553415582035 -0.10596744952083999
0.1990863457872782 0.2754586004776551 -0.10596744952083999
0.5504535933636564 0.3324255659745281 -0.10596744952083999
0.27293241217211367 0.5085018370087097 -0.10596744952083999
0.5471042650484443 0.4271812808808864 -0.10596744952083999
0.5533014685695289 0.5231953592503047 -0.10596744952083999
0.31775096649177603 0.24610940151215097 -0.10473747019604453
0.31775096649177603 0.5179821391890563 -0.10473747019604453
0.6262865494270077 0.40810713996713516 -0.10473747019604453
0.4254403870673298 0.32580260037947556 -0.10407517363653927
0.5506144368138219 0.3363709611932951 -0.10407517363653927
0.23114149926733238 0.27055760593731626 -0.10407517363653927
0.09159561417957607 0.39970543504083994 -0.10407517363653927
0.3485099109910842 0.5110374866936725 -0.10407517363653927
0.440531287244628 0.30852612155581 -0.10407517363653927
0.2012719244336455 0.4247970132666674 -0.10407517363653927
0.32747726453708176 0.31970001065260584 -0.10407517363653927
0.31253774643052756 0.24897619947686653 -0.10360210466546409
0.31386233954953807 0.34580395647653417 -0.10284519431174383
0.48921008436826396 0.24370621113908902 -0.10284519431174383
0.11716972275590026 0.37797264650964624 -0.10218289775223857
0.40898704825333504 0.45727792882068924 -0.10218289775223857
0.43625474374610834 0.45723062192358166 -0.10218289775223857
0.09215383556544489 0.39710355569992656 -0.10218289775223857
0.5804461661298227 0.4012476398865451 -0.10218289775223857
0.08357236443014106 0.296519631069922 -0.10218289775223857
0.20125300167480253 0.42487270430203955 -0.10218289775223857
0.29591410278694574 0.3321038790741969 -0.10218289775223857
0.028138142399551664 0.545183605025879 -0.10095291842744311
0.31380557127300907 0.3956465032690149 -0.10095291842744311
0.4164331538580584 0.3582645931746543 -0.10095291842744311
0.09836050046595116 0.39596819016934603 -0.10029062186793786
0.42131522563955415 0.45516804120969395 -0.10029062186793786
0.4300196947073375 0.4139258883113598 -0.10029062186793786
0.2679178810787168 0.267529964522435 -0.10029062186793786
0.09522878387743344 0.2841346854071739 -0.10029062186793786
0.4986998479280319 0.295034194500746 -0.10029062186793786
0.27389747287310695 0.42243166841129154 -0.10029062186793786
0.29518557657148997 0.43379478509651737 -0.10029062186793786
0.28690686957767436 0.32488484657558964 -0.09906064254314237
0.4165750745493808 0.3582645931746543 -0.09906064254314237
0.5764440026345269 0.3208826830802938 -0.09906064254314237
0.09105631555255049 0.3870934162719757 -0.09839834598363711
0.30604724014737616 0.43997306585875917 -0.09839834598363711
0.3094722594979604 0.4340218582026335 -0.09839834598363711
0.43823217204520254 0.31244313263631246 -0.09839834598363711
0.3876610990372659 0.2572359837118392 -0.09839834598363711
0.19504633677429625 0.4883017919437994 -0.09839834598363711
0.37301488369277835 0.5177550660829402 -0.09839834598363711
0.5169792329703767 0.46024880195904133 -0.09839834598363711
0.028138142399551664 0.23364876481403068 -0.09716836665884167
0.4167264566201249 0.4205677766652553 -0.09716836665884167
0.6138259127288874 0.4205677766652553 -0.09716836665884167
0.0881138265524628 0.3181294216686361 -0.09650607009933641
0.2767831935966656 0.43177004990031564 -0.09650607009933641
0.4306630685079997 0.2637737968920982 -0.09650607009933641
0.3302305259487393 0.5067514818157315 -0.09650607009933641
0.32630405348881525 0.2523633733097648 -0.09650607009933641
0.4111442427614378 0.26740696658995555 -0.09650607009933641
0.4328486471543671 0.3087910401796121 -0.09650607009933641
0.346778478556949 0.2427884573352032 -0.09603300112826123
0.3147517092151595 0.3956465032690149 -0.09527609077454095
0.3675935132842569 0.23364876481403068 -0.09527609077454095
0.43490176648883333 0.26558092036160524 -0.0946137942150357
0.3822208058699013 0.5107725680698706 -0.0946137942150357
0.4691330372358332 0.26984800248070345 -0.0946137942150357
0.36928710020070604 0.24743399463116147 -0.0946137942150357
0.44722048249563096 0.30793005465225537 -0.0946137942150357
0.20428064308968374 0.34516058267587185 -0.0946137942150357
0.30423065529844745 0.43381370785536033 -0.0946137942150357
0.09105631555255049 0.3900359052720634 -0.0946137942150357
0.028138142399551664 0.2585700382102711 -0.09338381489024025
0.42328319255922686 0.47191468278575527 -0.09338381489024025
0.6387471861251277 0.43302841336337555 -0.09338381489024025
0.43238503956271335 0.5035062286741558 -0.092721518330735
0.3448767412932268 0.25677237612018544 -0.092721518330735
0.4081166013465567 0.504698362481265 -0.092721518330735
0.26503216035515814 0.49342039821083283 -0.092721518330735
0.44657710869496886 0.2695641610980583 -0.092721518330735
0.29089957169354896 0.3378469363830496 -0.092721518330735
0.29733330970017136 0.41306490278400304 -0.092721518330735
0.35213361930952003 0.5282950427584949 -0.09224844935965981
0.41444626417954256 0.434069165099741 -0.09149153900593954
0.6138259127288874 0.30842204638217346 -0.09149153900593954
0.46943580137732144 0.27236472940682344 -0.09082924244643428
0.42040693321508976 0.4480720066435663 -0.09082924244643428
0.545486369167367 0.45079688391695927 -0.09082924244643428
0.5934177173167041 0.399932508146956 -0.09082924244643428
0.5894723220979371 0.3857688231529652 -0.09082924244643428
0.30035148973563097 0.33041029215774775 -0.09082924244643428
0.19185785190924953 0.42931009125072467 -0.09082924244643428
0.08135840164550927 0.44944390665968426 -0.09082924244643428
0.2866608737127153 0.4454890500614957 -0.0895992631216388
0.41732252352367966 0.40810713996713516 -0.0895992631216388
0.6138259127288874 0.30842204638217346 -0.0895992631216388
0.20457394585175026 0.42219513392575403 -0.08893696656213354
0.3080908981024209 0.3286126300676621 -0.08893696656213354
0.481962667731392 0.4893803891978509 -0.08893696656213354
0.4205583152858339 0.4481287749200953 -0.08893696656213354
0.5773712178178341 0.34824499236728207 -0.08893696656213354
0.5463852002124099 0.3102291698516807 -0.08893696656213354
0.5863122213711549 0.39433137152942593 -0.08893696656213354
0.36459425600764017 0.23614656898130773 -0.0884638975910584
0.3147517092151595 0.34580395647653417 -0.0877069872373381
0.395703271545544 0.5327229683277588 -0.0877069872373381
0.09093331762007088 0.3804326051592372 -0.08704469067783284
0.30026633732083746 0.3302021418104748 -0.08704469067783284
0.19792259611843324 0.33041975353716935 -0.08704469067783284
0.42296150565889584 0.3183470333953308 -0.08704469067783284
0.37175652022971845 0.2508211684640598 -0.08704469067783284
0.4233683449740204 0.5129581467162379 -0.08704469067783284
0.5025790134908483 0.4880368733199973 -0.08704469067783284
0.5415598967074431 0.44794900871108667 -0.08704469067783284
-0.03416504109104931 0.3582645931746543 -0.08581471135303738
0.3395594460583419 0.3065960001538233 -0.08581471135303738
0.617165779664678 0.4205677766652553 -0.08581471135303738
0.0830992954590659 0.32016361824425943 -0.08515241479353212
0.29291484551032915 0.4334352526785003 -0.08515241479353212
0.44037990517388387 0.260992151342176 -0.08515241479353212
0.3505630303255505 0.5137245184493795 -0.08515241479353212
0.3139191078260671 0.2545016450590246 -0.08515241479353212
0.3080625139641564 0.26549576794681184 -0.08515241479353212
0.4340975492380055 0.348396374438026 -0.08515241479353212
-0.03416504109104931 0.24610940151215097 -0.08392243546873668
0.26864640729417255 0.3582645931746543 -0.08392243546873668
0.501670721066384 0.4977347872270385 -0.08392243546873668
0.0999973191058713 0.3975103950150511 -0.08326013890923142
0.2800946763941918 0.42674605742749716 -0.08326013890923142
0.28391707368047936 0.42648113880369504 -0.08326013890923142
0.3723242029950087 0.513942130176074 -0.08326013890923142
0.43876200929280684 0.26520246518474516 -0.08326013890923142
0.4193377973404599 0.26394410172168525 -0.08326013890923142
0.4214855304691412 0.31021970847225916 -0.08326013890923142
0.4552058867273799 0.4901562223104141 -0.08326013890923142
0.27915799983146306 0.4454890500614957 -0.08203015958443596
0.4179185904272344 0.40810713996713516 -0.08203015958443596
0.5076030059636668 0.2710306749083914 -0.08203015958443596
0.32686227487468394 0.3232385665562481 -0.08136786302493071
0.29277292481900663 0.33264317770122265 -0.08136786302493071
0.4534176860167158 0.5033548466034116 -0.08136786302493071
0.3614057711425936 0.2517389222679456 -0.08136786302493071
0.5405002222122347 0.4609110985185466 -0.08136786302493071
0.5692722770330271 0.4392161555050389 -0.08136786302493071
0.5356843800866893 0.4564453274315969 -0.08136786302493071
-0.03416504109104931 0.4704197848371577 -0.08013788370013522
0.5265919944626245 0.24610940151215097 -0.08013788370013522
0.6262865494270077 0.4354316037364375 -0.08013788370013522
0.3247902327813747 0.3235318693183146 -0.07947558714062997
0.32683389073641944 0.3190944823696295 -0.07947558714062997
0.4454417431643882 0.5036386879860567 -0.07947558714062997
0.3969143281114965 0.24793544774050114 -0.07947558714062997
0.34167879504875853 0.5164399343433511 -0.07947558714062997
0.34526465784950844 0.5211800854335245 -0.07947558714062997
0.4504373514989422 0.5021532514168808 -0.07947558714062997
0.40590263856192477 0.43622635960784373 -0.07824560781583452
0.3432966909298357 0.3333433197784139 -0.07824560781583452
0.0797594285232752 0.45417459637043606 -0.07758331125632927
0.2742853894293887 0.4300764629838665 -0.07758331125632927
0.29693593176446814 0.3371846398235444 -0.07758331125632927
0.3730338064516215 0.5179537550507917 -0.07758331125632927
0.4382510948040456 0.25375419608472577 -0.07758331125632927
0.4939123899407511 0.2697912342041744 -0.07758331125632927
0.5907023014227325 0.39862683778678865 -0.07758331125632927
-0.03416504109104931 0.38318586657089476 -0.0763533319315338
0.4247402449901385 0.3016193145781125 -0.0763533319315338
0.5639833659364066 0.457949686759616 -0.0763533319315338
0.2742948508088101 0.43016161539866 -0.07569103537202855
0.2922336261919809 0.44580127558240534 -0.07569103537202855
0.4542219032675437 0.31109015537903745 -0.07569103537202855
0.4380050989390864 0.2574725181973767 -0.07569103537202855
0.42325480842096236 0.3104657043372182 -0.07569103537202855
0.45731577433837534 0.31258505332763503 -0.07569103537202855
-0.03416504109104931 0.3707252298727746 -0.0744610560472331
0.40746376616647295 0.3025181456231553 -0.0744610560472331
0.6138259127288874 0.4205677766652553 -0.0744610560472331
0.1978658278419042 0.3394932164023913 -0.07379875948772785
0.29218631929487343 0.32698527280716355 -0.07379875948772785
0.3747652388857566 0.5171116922822778 -0.07379875948772785
0.45136456668224967 0.27057652869615917 -0.07379875948772785
0.39538158464521284 0.23910798074023837 -0.07379875948772785
0.5713443191263363 0.42709612846609285 -0.07379875948772785
-0.03416504109104931 0.5078016949315183 -0.07256878016293239
0.5764440026345269 0.2935582193109914 -0.07256878016293239
0.5784214309336209 0.3208826830802938 -0.07256878016293239
0.30675684360398886 0.3244023162250931 -0.07190648360342713
0.2929905365457012 0.44792062457282217 -0.07190648360342713
0.4576469226181279 0.3071826056779565 -0.07190648360342713
0.42375626153030205 0.31401372162028207 -0.07190648360342713
0.4001595812530721 0.2581064306186175 -0.07190648360342713
0.5973158056383636 0.37269319679244733 -0.07190648360342713
0.028138142399551664 0.5327229683277588 -0.07067650427863165
0.6138259127288874 0.30842204638217346 -0.07067650427863165
0.6262865494270077 0.3318389604503948 -0.07067650427863165
0.32656897211261743 0.32296418655302456 -0.07001420771912639
0.19631416161677775 0.4373617251384242 -0.07001420771912639
0.41645207661690137 0.5146328108738439 -0.07001420771912639
0.5659891783737653 0.44457129625760994 -0.07001420771912639
0.41655615179053784 0.5242928792631989 -0.07001420771912639
0.4659067068531004 0.2762912018667473 -0.07001420771912639
0.36195453114904075 0.43302841336337555 -0.06878422839433095
0.4189593421635998 0.40810713996713516 -0.06878422839433095
0.20606884380034785 0.3433818433446293 -0.06812193183482569
0.2993296607581086 0.4338420919936249 -0.06812193183482569
0.2827722467704773 0.3387457674280924 -0.06812193183482569
0.4146071076297081 0.24961957327752873 -0.06812193183482569
0.4160830828194627 0.44440099142802286 -0.06812193183482569
0.47129023174393614 0.27401100942616496 -0.06812193183482569
0.5975239559856367 0.3968480984555459 -0.06812193183482569
0.3147517092151595 0.4205677766652553 -0.06689195251003023
0.41444626417954256 0.40810713996713516 -0.06689195251003023
0.20070424166835538 0.4221667497874895 -0.06622965595052498
0.29952834972596015 0.3446402068076892 -0.06622965595052498
0.2966331676229801 0.33587896946337686 -0.06622965595052498
0.40309260887373827 0.24614724702983704 -0.06622965595052498
0.4240022573952612 0.31018186295457323 -0.06622965595052498
0.48220866359635123 0.36987370572483924 -0.06622965595052498
-0.03416504109104931 0.40810713996713516 -0.06499967662572953
0.4256296146557598 0.46512141236111565 -0.06499967662572953
0.5700008032484829 0.457949686759616 -0.06499967662572953
0.1988214271634762 0.3399473626146235 -0.06433738006622428
0.29510042415669646 0.3289343169679933 -0.06433738006622428
0.5365075200963603 0.4675151413547561 -0.06433738006622428
0.5945152373295987 0.350932024122989 -0.06433738006622428
0.48985345816892606 0.5029480072882868 -0.06433738006622428
0.45595333570167873 0.3171548995882213 -0.06433738006622428
0.5265919944626245 0.5101954239251588 -0.06310740074142882
0.41444626417954256 0.4111063972437517 -0.06310740074142882
-0.03416504109104931 0.3333433197784139 -0.06310740074142882
0.19664530989653034 0.3421802481580982 -0.06244510418192357
0.19405289193503836 0.33519775014502856 -0.06244510418192357
0.5737096639817122 0.330845515611137 -0.06244510418192357
0.4214760690897197 0.24614724702983704 -0.06244510418192357
0.6181876086422005 0.3823438038023809 -0.06244510418192357
0.463588668894832 0.3149220140447464 -0.06244510418192357
0.41526940418921343 0.3978604660536468 -0.06197203521084838
0.41955540906715455 0.3582645931746543 -0.06121512485712808
0.028138142399551664 0.24610940151215097 -0.06121512485712808
0.19688184438206785 0.42283850772641624 -0.060552828297622825
0.332255261144941 0.4504373514989422 -0.060552828297622825
0.4717443779561683 0.30918841811531533 -0.060552828297622825
0.4544868218913457 0.25816319889514655 -0.060552828297622825
0.46356028475656763 0.2743705418441821 -0.060552828297622825
0.48932362092132176 0.45375829567588993 -0.060552828297622825
0.48588914019131596 0.3518970848239824 -0.060552828297622825
0.5764440026345269 0.48288042153527794 -0.05932284897282737
0.3895155294038806 0.48288042153527794 -0.05932284897282737
0.028138142399551664 0.2959519483046318 -0.05932284897282737
0.20250190375844104 0.4305684547137846 -0.05866055241332212
0.2952896517451266 0.4383835541159466 -0.05866055241332212
0.4208705408067435 0.3171832837264858 -0.05866055241332212
0.4785187256219647 0.4868068939952019 -0.05866055241332212
0.6138069899700443 0.3908874294199986 -0.05866055241332212
0.50007174794415 0.27799425016261803 -0.05866055241332212
0.5889046393326469 0.32365486725079423 -0.057430573088526664
0.32143144308674093 0.3068609187776255 -0.057430573088526664
-0.03416504109104931 0.3333433197784139 -0.057430573088526664
0.19954995337893194 0.3355762053218888 -0.05676827652902141
0.33273779149543775 0.3263135148682368 -0.05676827652902141
0.42968854642758486 0.43969868585553556 -0.05676827652902141
0.5714957011970803 0.44079620586843 -0.05676827652902141
0.6041469215806893 0.4073502296134149 -0.05676827652902141
0.5632359169621077 0.44480783074314756 -0.05676827652902141
-0.03416504109104931 0.5202623316296385 -0.055538297204225956
0.4200000938999652 0.4205677766652553 -0.055538297204225956
0.5639833659364066 0.4953410582333981 -0.055538297204225956
0.30158146906042643 0.325414683823194 -0.0548760006447207
0.33610604256949295 0.4445902190164529 -0.0548760006447207
0.4171238345558281 0.44480783074314756 -0.0548760006447207
0.5723472253450157 0.44083405138611603 -0.0548760006447207
0.6178280762241835 0.3861756624680899 -0.0548760006447207
0.5200731040412083 0.4343624678618076 -0.0548760006447207
-0.03416504109104931 0.5327229683277588 -0.05364602131992525
0.471006390361291 0.4560479494958937 -0.05364602131992525
0.4154775545364864 0.35035487997827736 -0.05364602131992525
0.3253011472701359 0.45391913912605547 -0.052983724760419994
0.44027583000024734 0.4471353300808374 -0.052983724760419994
0.4966845741112517 0.48467808362536363 -0.052983724760419994
0.56910197220344 0.31127938296746765 -0.052983724760419994
-0.03416504109104931 0.2087274914177904 -0.051753745435624506
0.26490916242267865 0.3208826830802938 -0.051753745435624506
0.5265919944626245 0.24610940151215097 -0.051753745435624506
0.32404278380707596 0.443558928659509 -0.05109144887611925
0.4651308737405372 0.31065493192564836 -0.05109144887611925
0.49525590581860457 0.49551136306298516 -0.05109144887611925
0.5238765785686529 0.4850376160433807 -0.05109144887611925
0.5078016949315183 0.4864852070948708 -0.05109144887611925
0.312471516774577 0.40810713996713516 -0.0498614695513238
0.5764440026345269 0.48288042153527794 -0.0498614695513238
0.06822600700846225 0.3119322181475513 -0.04919917299181854
0.43404078096147647 0.42387925946278165 -0.04919917299181854
0.5057485755970521 0.280548822606424 -0.04919917299181854
0.49245533750983955 0.2744178487412897 -0.04919917299181854
0.5903711531429799 0.4351572237332138 -0.04919917299181854
-0.03416504109104931 0.3208826830802938 -0.04796919366702309
0.3124242098774695 0.3677448953550009 -0.04796919366702309
0.6387471861251277 0.38318586657089476 -0.04796919366702309
0.33190519010634534 0.4507590383992732 -0.047306897107517835
0.4251187001669986 0.3511780199879482 -0.047306897107517835
0.506969093542426 0.2772468011883192 -0.047306897107517835
0.4316848974855221 0.5275854393018823 -0.047306897107517835
0.5184079012630238 0.28886537511792565 -0.047306897107517835
0.28552550818213485 0.3582645931746543 -0.04607691778272238
0.5515132678588648 0.2585700382102711 -0.04607691778272238
0.3016193145781125 0.32665412452741094 -0.04541462122321713
0.4173036007648367 0.45555595776597557 -0.04541462122321713
0.5607948810713598 0.310910389170029 -0.04541462122321713
0.4511374935761336 0.25012102638686856 -0.04541462122321713
0.49683595618199566 0.5045375190310996 -0.04541462122321713
0.028138142399551664 0.3208826830802938 -0.044184641898421674
0.3147517092151595 0.3707252298727746 -0.044184641898421674
0.5639833659364066 0.48527415052891837 -0.044184641898421674
0.33625742464023706 0.32943577007733293 -0.04352234533891642
0.4238508753245171 0.30675684360398886 -0.04352234533891642
0.43018053815750296 0.5166291619317813 -0.04352234533891642
0.4533703791196083 0.504111756957132 -0.04352234533891642
0.5394121635787618 0.30657707739498036 -0.04352234533891642
0.408741052388376 0.43732387962073815 -0.04229236601412093
0.5062784128446561 0.5078016949315183 -0.04229236601412093
0.29859167316323126 0.4426317134762017 -0.04163006945461568
0.42375626153030205 0.4161398510959917 -0.04163006945461568
0.5740124281232004 0.3216301320545925 -0.04163006945461568
0.4243334056750138 0.25234445055092186 -0.04163006945461568
0.5966818932171228 0.43141997886171995 -0.04163006945461568
-0.03416504109104931 0.2710306749083914 -0.040400090129820224
0.501670721066384 0.3956465032690149 -0.040400090129820224
0.48921008436826396 0.24370621113908902 -0.040400090129820224
0.2920065530858648 0.4484315390615834 -0.03973779357031497
0.4230371966942678 0.3600906394030045 -0.03973779357031497
0.5330446552280899 0.28901675718866965 -0.03973779357031497
0.4640806606247504 0.5135352908609494 -0.03973779357031497
0.5466785029744765 0.4648754164961566 -0.03973779357031497
0.28558227645866385 0.44913168113877466 -0.038507814245519516
0.41667914972301745 0.378568713413201 -0.038507814245519516
0.05513145788910131 0.2995945793819107 -0.03784551768601426
0.4345990023473451 0.34476320474016864 -0.03784551768601426
0.45297300118390516 0.2536785050493538 -0.03784551768601426
0.48308857188255094 0.49909722586373506 -0.03784551768601426
0.4667203854833499 0.24957226638042126 -0.03784551768601426
-0.03416504109104931 0.4843753194838754 -0.03661553836121881
0.31212144573598144 0.3567602338466352 -0.03661553836121881
0.605717510564659 0.43302841336337555 -0.03661553836121881
0.3039184297775378 0.32900054662394373 -0.035953241801713554
0.42193021530195185 0.3103237836458958 -0.035953241801713554
0.543925241562819 0.4703440938017857 -0.035953241801713554
0.6015639649986189 0.422270824961126 -0.035953241801713554
0.5863216827505765 0.3365980342994111 -0.035953241801713554
0.26490916242267865 0.34580395647653417 -0.0347232624769181
0.4189120352664922 0.40217485506985245 -0.0347232624769181
0.5326851228100729 0.4953410582333981 -0.0347232624769181
0.307154221539692 0.3310725887172531 -0.034060965917412846
0.45616148604895174 0.3704508498695509 -0.034060965917412846
0.4988512299987759 0.49730902515307085 -0.034060965917412846
0.5248416392696463 0.29133479514693805 -0.034060965917412846
0.6060675816032546 0.4333406388842852 -0.03358789694633766
0.26490916242267865 0.43302841336337555 -0.03283098659261736
0.41444626417954256 0.3707252298727746 -0.03283098659261736
0.5332717283342059 0.4953410582333981 -0.03283098659261736
0.29109826066140054 0.32014469548541646 -0.0321686900331121
0.42519439120237057 0.308261202932008 -0.0321686900331121
0.5618829397048327 0.3084125850027519 -0.0321686900331121
0.4987566162045609 0.4893898505772723 -0.0321686900331121
0.584117181345366 0.34392114197165485 -0.0321686900331121
0.4104441006842465 0.3013638573337319 -0.03093871070831665
0.3406758888300792 0.45883905642523726 -0.03093871070831665
0.6031440153620097 0.44248979278487915 -0.03093871070831665
0.3318105763121304 0.44498759695215606 -0.030276414148811395
0.4657269406440918 0.3077313656844038 -0.030276414148811395
0.6182159927804651 0.37128345125864326 -0.030276414148811395
0.5482680147172891 0.4742894890205527 -0.030276414148811395
0.5629520755794627 0.44383330866273263 -0.030276414148811395
0.46577424754119956 0.3012408594012523 -0.02980334517773621
0.4084477496263093 0.46268983784978934 -0.02980334517773621
0.6387471861251277 0.43302841336337555 -0.02980334517773621
0.3317632694150228 0.44503490384926364 -0.028384138264510687
0.46587832271483604 0.3076745974078748 -0.028384138264510687
0.5741448874351013 0.3189431002988854 -0.028384138264510687
0.5916011324677753 0.4408908196626451 -0.028384138264510687
0.49588981823984535 0.49125374232330854 -0.028384138264510687
0.028138142399551664 0.2710306749083914 -0.027911069293435502
0.501670721066384 0.40810713996713516 -0.027911069293435502
0.651207822823248 0.40810713996713516 -0.027911069293435502
0.331952497003453 0.4408245900066945 -0.02649186238020998
0.4636075916536751 0.3069744553306834 -0.02649186238020998
0.5822627509787514 0.4411841224247116 -0.02649186238020998
0.6024060277671327 0.42948039608031174 -0.02649186238020998
0.4429439389971113 0.5269988337777489 -0.02649186238020998
0.028138142399551664 0.2710306749083914 -0.026018793409134794
0.501670721066384 0.3956465032690149 -0.026018793409134794
0.45182817427390315 0.5327229683277588 -0.026018793409134794
0.2931419186164453 0.316397989234501 -0.02459958649590927
0.4261783746622069 0.3887964645678464 -0.02459958649590927
0.5939759387025728 0.4328959540514746 -0.02459958649590927
0.5416828946399227 0.29597087106347475 -0.02459958649590927
0.482993958088336 0.2534230478049732 -0.02459958649590927
-0.03416504109104931 0.2959519483046318 -0.023748062347973952
0.47338119659608846 0.3582645931746543 -0.023748062347973952
0.5639833659364066 0.4953410582333981 -0.023748062347973952
0.2908522647964414 0.3199081609998788 -0.02270731061160853
0.4215801442633563 0.4277111181284906 -0.02270731061160853
0.5079246928639979 0.4904495250724808 -0.02270731061160853
0.5315497572794924 0.27988652604691866 -0.02270731061160853
0.5069974776806906 0.5034873059153128 -0.02270731061160853
-0.03416504109104931 0.22118812811591054 -0.021477331286813076
0.501670721066384 0.43302841336337555 -0.021477331286813076
0.5764440026345269 0.47269997727774005 -0.021477331286813076
0.32739211212228825 0.31517747128912704 -0.02081503472730782
0.4192431835462449 0.3100777877809366 -0.02081503472730782
0.5839941834128864 0.31841326305128126 -0.02081503472730782
0.5973252670177852 0.4042468971631617 -0.02081503472730782
0.5503779023282843 0.46036233851209934 -0.02081503472730782
0.2848348274843651 0.4205677766652553 -0.019585055402512368
0.4204637014916188 0.367896277425745 -0.019585055402512368
0.601176048442337 0.44289663210000385 -0.019585055402512368
0.2914483316999961 0.4489235307915015 -0.018922758843007113
0.4272380491574154 0.4282977236526238 -0.018922758843007113
0.49683595618199566 0.2744462328795542 -0.018922758843007113
0.6229277597323738 0.37907016652254066 -0.018922758843007113
0.4367088899583404 0.518862047475256 -0.018922758843007113
0.3116294540060632 0.40810713996713516 -0.01769277951821166
0.4672880682486401 0.23364876481403068 -0.01769277951821166
0.5962845152814197 0.4296980078070063 -0.01769277951821166
0.3034832063241487 0.43799563755966503 -0.017030482958706405
0.4268312098422907 0.3448672799138053 -0.017030482958706405
0.4397459927526432 0.4480436225053018 -0.017030482958706405
0.6123404761597113 0.35857681869556396 -0.017030482958706405
0.6199758093528648 0.3753329216510468 -0.017030482958706405
0.46419419717780847 0.2409529497274315 -0.01655741398763122
0.28576204266767247 0.4516862535825806 -0.015800503633910952
0.45441113085597357 0.2346422096532886 -0.015800503633910952
0.6147909734298809 0.43302841336337555 -0.015800503633910952
0.050410229557771066 0.4661432413386381 -0.015138207074405698
0.30609454704448363 0.33086443836998 -0.015138207074405698
0.4264149091477446 0.37285404024261287 -0.015138207074405698
0.4533609177401868 0.24584448288834881 -0.015138207074405698
0.6136650692787219 0.3682368870849191 -0.015138207074405698
0.439386460334626 0.5100251190955717 -0.015138207074405698
-0.03416504109104931 0.3333433197784139 -0.01390822774961021
0.501670721066384 0.3208826830802938 -0.01390822774961021
0.5913929821205024 0.34180179298123814 -0.01390822774961021
0.4612895536954067 0.5304900827842838 -0.01390822774961021
0.2939082903495871 0.45036166046357007 -0.013245931190104957
0.4291397864211376 0.44203564657264693 -0.013245931190104957
0.44530928385248725 0.3499575020425742 -0.013245931190104957
0.5466028119391044 0.28372784609204915 -0.013245931190104957
0.4814612146220524 0.5063351811211851 -0.013245931190104957
0.028138142399551664 0.5327229683277588 -0.012015951865309502
0.3147517092151595 0.38318586657089476 -0.012015951865309502
0.5766616143612214 0.2959519483046318 -0.012015951865309502
0.042197752219906015 0.47532077937749656 -0.011353655305804249
0.42874240848543443 0.45036166046357007 -0.011353655305804249
0.4224789753083991 0.33796047293610765 -0.011353655305804249
0.45360691360514593 0.24816252084661722 -0.011353655305804249
0.6228142231793158 0.38631758315941245 -0.011353655305804249
0.4680355172229387 0.5190891205813721 -0.011353655305804249
-0.03416504109104931 0.30842204638217346 -0.010123675981008794
0.501670721066384 0.38318586657089476 -0.010123675981008794
0.6395514033759556 0.3956465032690149 -0.010123675981008794
0.29774014901529605 0.32299257069128906 -0.009461379421503541
0.42070023597715644 0.4461986535181085 -0.009461379421503541
0.4412976589777698 0.3925526321981832 -0.009461379421503541
0.4660959344415306 0.25909987545787544 -0.009461379421503541
0.6156424975778162 0.34445097921925916 -0.009461379421503541
0.4939691582172801 0.5099115825425137 -0.009461379421503541
0.28453206334287706 0.3805745258505598 -0.008231400096708086
0.4213530711572402 0.3582645931746543 -0.008231400096708086
0.5515132678588648 0.5078016949315183 -0.008231400096708086
0.3054133277261354 0.3318957287269238 -0.007569103537202832
0.46806390136120335 0.3079111318934123 -0.007569103537202832
0.474015109017329 0.25735898164431864 -0.007569103537202832
0.624678114925352 0.38415092727188815 -0.007569103537202832
0.4739867248790646 0.5209719350862512 -0.007569103537202832
0.028138142399551664 0.2585700382102711 -0.006339124212407377
0.47472471247394193 0.4205677766652553 -0.006339124212407377
0.5265919944626245 0.24610940151215097 -0.006339124212407377
0.30684199601878237 0.43997306585875917 -0.0056768276529021245
0.4281463415818798 0.3757681451044359 -0.0056768276529021245
0.5736339729463401 0.3126891285012717 -0.0056768276529021245
0.6190864396872433 0.38916545836528504 -0.0056768276529021245
0.5464419684889389 0.48353325671536157 -0.0056768276529021245
0.26490916242267865 0.3582645931746543 -0.004446848328106635
0.41444626417954256 0.38318586657089476 -0.004446848328106635
0.4950288327124885 0.24610940151215097 -0.004446848328106635
0.3058485511795246 0.33056167422849186 -0.0037845517686013823
0.45837544883358367 0.4492736018300972 -0.0037845517686013823
0.4859742926061096 0.2532432815959647 -0.0037845517686013823
0.6163899465521148 0.42067185183889194 -0.0037845517686013823
0.5016044914104334 0.25246744848340136 -0.0033114827975262305
0.28317908608560205 0.3956465032690149 -0.002554572443805927
0.4170481435204561 0.38845585490867224 -0.002554572443805927
0.5971928077058841 0.34580395647653417 -0.002554572443805927
0.33516936600676406 0.32841394109981054 -0.0018922758843006745
0.4290640953857656 0.4581767598657321 -0.0018922758843006745
0.5855269268791701 0.30886673121498415 -0.0018922758843006745
0.520215024732531 0.4859742926061096 -0.0018922758843006745
0.028138142399551664 0.38318586657089476 -6.622965595052192E-4
0.28317908608560205 0.3980213095038123 -6.622965595052192E-4
0.5942503187057964 0.457949686759616 -6.622965595052192E-4
0.03665338387890493 0.2874177840664356 3.361357209109732E-17
0.4268312098422907 0.42279120082930877 3.361357209109732E-17
0.5032034645326676 0.26787057418160914 3.361357209109732E-17
0.6261919356327925 0.3813692817219661 3.361357209109732E-17
0.500128516220679 0.5117660129091284 3.361357209109732E-17
-0.03416504109104931 0.34580395647653417 0.0012299793247954889
0.2814476536514668 0.3926472459923983 0.0012299793247954889
0.5764440026345269 0.48288042153527794 0.0012299793247954889
0.04289789429709726 0.28942359650379434 0.0018922758843007417
0.3068514573982039 0.3298804549101436 0.0018922758843007417
0.4562750226020098 0.3196432423760768 0.0018922758843007417
0.5087289101148257 0.2597621720173806 0.0018922758843007417
0.5312280703791611 0.48446993327809046 0.0018922758843007417
0.028138142399551664 0.2959519483046318 0.002365344855375927
0.34058127503586416 0.3208826830802938 0.002365344855375927
0.6131163092722746 0.4349585347653622 0.002365344855375927
0.29739007797670036 0.32266142241153634 0.0037845517686014496
0.4304833022989912 0.35281483862786833 0.0037845517686014496
0.4971765658411698 0.2613895292778792 0.0037845517686014496
0.6239212045716318 0.3610273159657334 0.0037845517686014496
0.4626803764703679 0.5055120411115145 0.0037845517686014496
0.2814003467543593 0.3582645931746543 0.004257620739676635
0.26490916242267865 0.4704197848371577 0.004257620739676635
0.5277935896491552 0.5018977941725 0.004257620739676635
0.3305143673313844 0.4520741701388623 0.005676827652902191
0.4523012432449784 0.3142218719675552 0.005676827652902191
0.4689911165445108 0.24576879185297681 0.005676827652902191
0.5134406770667344 0.49820785619811364 0.005676827652902191
0.028138142399551664 0.30842204638217346 0.006149896623977343
0.41444626417954256 0.3291992355917953 0.006149896623977343
0.5859053820560305 0.3333433197784139 0.006149896623977343
0.5639833659364066 0.4953410582333981 0.006149896623977343
0.33106312733783155 0.32472400312542415 0.007569103537202899
0.46224515301697855 0.44298178451479725 0.007569103537202899
0.5434332498329009 0.2979861448802551 0.007569103537202899
0.5231669751120402 0.48907762505636265 0.007569103537202899
0.6060675816032546 0.3208826830802938 0.008042172508278085
-0.03416504109104931 0.5576442417239991 0.008799082861998354
0.4736461152198905 0.4637305895861547 0.008799082861998354
0.5996811504937396 0.30842204638217346 0.008799082861998354
0.5865014489595851 0.4205677766652553 0.008799082861998354
0.32225458309641175 0.31752389338565995 0.009461379421503607
0.4605894116182156 0.452840541872004 0.009461379421503607
0.5885072613969438 0.3104562429577968 0.009461379421503607
0.4926161809600051 0.5024654769377903 0.009461379421503607
0.5913929821205024 0.32553768175567344 0.009934448392578793
-0.03416504109104931 0.30842204638217346 0.010691358746299062
0.26490916242267865 0.34580395647653417 0.010691358746299062
0.5895669358921524 0.33149835079122075 0.010691358746299062
0.5790648047342832 0.2959519483046318 0.010691358746299062
0.30545117324382143 0.32612428727980664 0.011353655305804315
0.46247222612309463 0.44471321694893245 0.011353655305804315
0.5172630743530218 0.2826870943556838 0.011353655305804315
0.5306509262344495 0.48497138638743015 0.011353655305804315
0.6138259127288874 0.30842204638217346 0.0118267242768795
-0.03416504109104931 0.4454890500614957 0.01258363463059977
0.310834698134657 0.34580395647653417 0.01258363463059977
0.5931717214517452 0.30546063462324285 0.01258363463059977
0.32439285484567154 0.32090160583913674 0.013245931190105023
0.4290262498680795 0.3598162593997809 0.013245931190105023
0.4533041494636577 0.32145036584558384 0.013245931190105023
0.6095399078509462 0.3530702958722488 0.013245931190105023
0.5472272629809236 0.4850849229404882 0.013245931190105023
-0.03416504109104931 0.48288042153527794 0.014475910514900513
0.3107873912375494 0.3582645931746543 0.014475910514900513
0.5718268494768332 0.4740624159144366 0.014475910514900513
0.29746576901207233 0.41711437317640654 0.015138207074405765
0.30481726082258065 0.43505314855957733 0.015138207074405765
0.42631083397410807 0.45678593709077103 0.015138207074405765
0.587570584834215 0.32264249965269337 0.015138207074405765
0.6401001633824027 0.3772346589147689 0.015138207074405765
0.5669353163159155 0.47778073802708754 0.015611276045480916
0.2838886895422148 0.4454890500614957 0.01636818639920122
0.5764440026345269 0.29585733451041674 0.01636818639920122
0.29728600280306383 0.4351004554566848 0.017030482958706475
0.2905873461726393 0.3161898388872279 0.017030482958706475
0.46729752962806165 0.4607975619654886 0.017030482958706475
0.5807394688918893 0.4495006749362133 0.017030482958706475
0.5287964958678348 0.2889126820150331 0.017030482958706475
-0.03416504109104931 0.2710306749083914 0.01826046228350193
0.501670721066384 0.3208826830802938 0.01826046228350193
0.5733217474254306 0.28349131160651153 0.01826046228350193
0.30438203736919156 0.32215996930219665 0.018922758843007183
0.46321021371797194 0.45323791980770717 0.018922758843007183
0.5951586111302608 0.3264175900418733 0.018922758843007183
0.6094074485390452 0.35219984896547046 0.018922758843007183
0.5965115883875358 0.44746647836059 0.018922758843007183
0.4126486020894569 0.30842204638217346 0.020152738167802636
0.501670721066384 0.38318586657089476 0.020152738167802636
0.03841320045130453 0.29403128828206654 0.02081503472730789
0.29192140067107125 0.3438076054185968 0.02081503472730789
0.4296790850481633 0.30704068498663395 0.02081503472730789
0.5672380804574038 0.46999402276319 0.02081503472730789
0.6294371887743684 0.40687716064233975 0.02081503472730789
0.33928506605511816 0.3062080835975417 0.022045014052103344
0.3895155294038806 0.2935582193109914 0.022045014052103344
0.601176048442337 0.3122444436684609 0.022045014052103344
0.3221126624050892 0.3210056810127732 0.0227073106116086
0.4265473684596456 0.4578550729654009 0.0227073106116086
0.6321715274271829 0.37722519753534756 0.0227073106116086
0.5403488401414905 0.27530721840691097 0.0227073106116086
0.028138142399551664 0.23364876481403068 0.023937289936404087
0.31054139537259035 0.3594094200846562 0.023937289936404087
0.6185376796807961 0.4358573658104051 0.023937289936404087
0.3303724466400618 0.4463500355888526 0.024599586495909338
0.4636927440684688 0.44219649002281247 0.024599586495909338
0.574230039849895 0.3061891608386986 0.024599586495909338
0.6224168452436126 0.3912091163203298 0.024599586495909338
0.01567750570143139 0.49383669890537896 0.025829565820704795
0.30275468010869294 0.36423472358962306 0.025829565820704795
0.6138259127288874 0.3303346011223758 0.025829565820704795
0.32615267141807125 0.4523769342803504 0.026491862380210045
0.46364543717136103 0.44090974242148806 0.026491862380210045
0.5656296459557483 0.3002190304237298 0.026491862380210045
0.5845618661781767 0.46133686059251433 0.026491862380210045
-0.03416504109104931 0.43302841336337555 0.027721841705005502
0.31150645607358374 0.4095831151568898 0.027721841705005502
0.6109685761435935 0.4454890500614957 0.027721841705005502
0.32196128033434507 0.32086376032145064 0.028384138264510757
0.4293195526301462 0.4558303377691992 0.028384138264510757
0.6085748471499529 0.3445645157723172 0.028384138264510757
0.635009941253634 0.366524377409627 0.028384138264510757
-0.03416504109104931 0.2087274914177904 0.02961411758930621
0.480401540126844 0.4454890500614957 0.02961411758930621
0.29686024072909617 0.4399162975822301 0.030276414148811465
0.30441988288687744 0.330959052164195 0.030276414148811465
0.4257620739676608 0.3692208705447555 0.030276414148811465
0.6390310275077729 0.3816247389663466 0.030276414148811465
-0.03416504109104931 0.43302841336337555 0.03150639347360692
0.3895155294038806 0.48288042153527794 0.03150639347360692
0.6219816217902234 0.43602767063999215 0.03150639347360692
0.321658516192857 0.3169562106203697 0.03216869003311217
0.4716876096796393 0.3081382049995284 0.03216869003311217
0.6215085528191482 0.4061297116680409 0.03216869003311217
0.6256431756263454 0.3437602985214893 0.03264175900418736
0.26490916242267865 0.40810713996713516 0.03339866935790766
0.63542624194818 0.3333433197784139 0.03339866935790766
0.2924890834363615 0.45152541013241504 0.034060965917412915
0.4206623904594704 0.32271819068806534 0.034060965917412915
0.5689695128915389 0.45460981982382526 0.034060965917412915
0.46048533644457906 0.4437954631450467 0.034060965917412915
-0.03416504109104931 0.28499567093453065 0.03529094524220837
0.480401540126844 0.3707252298727746 0.03529094524220837
0.29683185659083167 0.4377685644535489 0.03595324180171362
0.4642320426954944 0.31955808996128326 0.03595324180171362
0.6142138292851691 0.34526465784950844 0.03595324180171362
0.6085275402528454 0.4329905678456895 0.03595324180171362
0.028138142399551664 0.3956465032690149 0.037183221126509076
0.501670721066384 0.4454890500614957 0.037183221126509076
0.4644969613192964 0.4461986535181085 0.03784551768601433
0.2994526586905882 0.3245631596752586 0.03784551768601433
0.6219816217902234 0.3583402842100263 0.03784551768601433
0.5997757642879545 0.440777283109587 0.03784551768601433
-0.03416504109104931 0.3707252298727746 0.039075497010809784
0.501670721066384 0.43302841336337555 0.039075497010809784
0.3005123331857965 0.42742727674584546 0.03973779357031504
0.46093002127738975 0.3278746424727848 0.03973779357031504
0.5972211918441487 0.3295209224921265 0.03973779357031504
0.5948842311270373 0.3168048285496256 0.03973779357031504
0.41444626417954256 0.3208826830802938 0.04096777289511049
0.31673859889367517 0.30739075602522964 0.04096777289511049
0.2967183200377736 0.32894377834741473 0.04163006945461575
0.4650835668434297 0.44452398936050247 0.04163006945461575
0.6208367948802215 0.40731238409572884 0.04163006945461575
-0.03416504109104931 0.4454890500614957 0.042860048779411235
0.501670721066384 0.457949686759616 0.042860048779411235
0.2885909951147021 0.43684134927024154 0.04352234533891649
0.47257697934526055 0.3195391672024402 0.04352234533891649
0.6142232906645906 0.35091310136414605 0.04352234533891649
0.028138142399551664 0.34580395647653417 0.04475232466371194
0.501670721066384 0.3707252298727746 0.04475232466371194
0.2890829868446202 0.4490465287239811 0.0454146212232172
0.46510248960227285 0.44631219007116657 0.0454146212232172
0.6109118078670644 0.345425501299674 0.0454146212232172
0.3003041828385235 0.4300764629838665 0.047306897107517905
0.47120507932914246 0.32374948104500934 0.047306897107517905
0.6332879701989201 0.3706873843550885 0.047306897107517905
-0.03416504109104931 0.3707252298727746 0.047656968146113525
0.501670721066384 0.38318586657089476 0.047656968146113525
0.29227147170966694 0.45190386530927523 0.04919917299181865
0.4319119705916382 0.3061796994592772 0.04919917299181865
0.6285762032470115 0.39892014054885516 0.04919917299181865
