-0.1125964417951231 0.2749745723019018 -0.06354930582584022
0.14350642119416457 0.20731177111877466 -0.06354930582584022
0.47087349252632643 0.29576871107741126 -0.06354930582584022
0.6927671849422591 0.25495276326694427 -0.06296166363194208
0.6941103670997405 0.4201473788601918 -0.06296166363194208
0.6210496526212349 0.31324686890163833 -0.06296166363194208
0.17458429836289116 0.2550870814826924 -0.06296166363194208
0.13982946003805913 0.3852078529887061 -0.06296166363194208
0.08529626444431303 0.3707686447957807 -0.06296166363194208
0.04954243438985417 0.2550870814826924 -0.06296166363194208
-0.1876215601789454 0.29715386767731405 -0.06296166363194208
-0.2169197209890091 0.43792775266985223 -0.06296166363194208
-0.2815519674293187 0.28917032872878373 -0.06296166363194208
-0.4898375456122675 0.23419220404537192 -0.06296166363194208
-0.4988200762904246 0.4150097071078254 -0.06296166363194208
0.08929223136282029 0.46575680799517066 -0.06245797032288655
0.1478549734290107 0.26927444302108994 -0.06245797032288655
-0.31661741662806836 0.2749745723019018 -0.06245797032288655
-0.26452713358324154 0.20731177111877466 -0.06245797032288655
0.17823607485354384 0.47267419610620015 -0.06245797032288655
-0.1386457807617787 0.409292788050045 -0.06245797032288655
-0.4338184547568075 0.3421336801759734 -0.06245797032288655
-0.13430562341541671 0.4665543224011752 -0.06245797032288655
-0.02144474263303952 0.20731177111877466 -0.061870328128988426
-0.3556872276338095 0.47267419610620015 -0.061870328128988426
-0.19073606380660543 0.3399929836124874 -0.061870328128988426
-0.3947486437510664 0.409292788050045 -0.061870328128988426
0.06971535141752846 0.409292788050045 -0.061870328128988426
-0.01709619039819338 0.3421336801759734 -0.061870328128988426
-0.45986779372346304 0.2120129086699597 -0.061870328128988426
-0.14298593810814053 0.2749745723019018 -0.061870328128988426
0.17389591750718197 0.20731177111877466 -0.061870328128988426
0.48628650778342597 0.3842172561475635 -0.061870328128988426
0.37482757337791983 0.36171056012126535 -0.0612826859350903
0.6138972076326462 0.3151692983645337 -0.0612826859350903
0.6971745013964951 0.2530135440270804 -0.0612826859350903
0.048014564685719026 0.2120129086699597 -0.060862941510877344
0.10311021780791052 0.20731177111877466 -0.060862941510877344
-0.0648463160966583 0.2749745723019018 -0.060862941510877344
-0.4945890524943581 0.2749745723019018 -0.060862941510877344
-0.08221534037058996 0.20731177111877466 -0.060862941510877344
0.12180563446235523 0.39939521452710364 -0.060862941510877344
-0.33397804601351583 0.39939521452710364 -0.060862941510877344
-0.22111716523113856 0.3399929836124874 -0.060862941510877344
-0.329637888667154 0.4665543224011752 -0.060862941510877344
-0.3628228828454296 0.219702626521541 -0.060191350432136644
-0.060606897412107445 0.461618127972431 -0.060191350432136644
0.7583480537812899 0.4195177622238724 -0.060191350432136644
0.5238788184159376 0.29116831218803735 -0.05960370823823851
0.6169361572639479 0.46370006031652716 -0.05960370823823851
0.699373962179371 0.2501760717194009 -0.05960370823823851
0.6036386539048817 0.34160480220146505 -0.05851237273528486
0.13916626384780273 0.40500300003458867 -0.05851237273528486
-0.36802771370567017 0.3473469059246983 -0.05792473054138673
-0.2240050068697236 0.4210876063704288 -0.05792473054138673
-0.036169377034429635 0.44390491327064463 -0.05792473054138673
0.11219348714787877 0.38760879109520413 -0.05792473054138673
0.618883771392296 0.3962051569030853 -0.05792473054138673
0.7837090118922363 0.3477582554604269 -0.05792473054138673
0.737570704782749 0.4003270471488564 -0.05792473054138673
0.48192956066009557 0.4195177622238724 -0.05683339503843308
-0.19253256994223683 0.40632939241510163 -0.05683339503843308
-0.4891323749795897 0.31797319111827616 -0.056245752844534945
-0.48889731810203046 0.4514267333525407 -0.056245752844534945
-0.33856165512592123 0.3742273388512954 -0.056245752844534945
-0.33856165512592123 0.23467910757745888 -0.056245752844534945
-0.18745366240926015 0.36479987908347256 -0.056245752844534945
-0.18633714224085374 0.22637656286652674 -0.056245752844534945
-0.03692491699801297 0.2885071325385273 -0.056245752844534945
-0.03611900770352408 0.42306880005271397 -0.056245752844534945
0.11374654151746658 0.35522970621141736 -0.056245752844534945
0.11466158436225088 0.2543819108500147 -0.056245752844534945
0.5050910579881661 0.2996471495571389 -0.056245752844534945
0.6467883807139728 0.4571268626333525 -0.056245752844534945
0.6094647065129576 0.4593934825241025 -0.056245752844534945
-0.1921296152949924 0.3421336801759734 -0.05515441734158126
0.49277575658175815 0.4098384558015218 -0.05515441734158126
0.6561738660393743 0.3510490517462564 -0.05515441734158126
0.7152486963031045 0.2675450959933327 -0.054566775147683134
0.6170452908142433 0.3688042408904641 -0.054566775147683134
0.49381672275380617 0.28645877974836814 -0.054566775147683134
0.12530630296029122 0.3178808473449493 -0.054566775147683134
0.1056118945762197 0.41450601379876983 -0.054566775147683134
0.07871467187265409 0.38760879109520413 -0.054566775147683134
0.0723933208440071 0.3147327641633522 -0.054566775147683134
-0.07496215672019031 0.2378355856475403 -0.054566775147683134
-0.07496215672019031 0.3585205024972468 -0.054566775147683134
-0.2620170619264482 0.4521990630930926 -0.054566775147683134
-0.2902994412299166 0.3178808473449493 -0.054566775147683134
-0.4555528210425539 0.2549191837130072 -0.054566775147683134
-0.4791256679063531 0.3850399552190209 -0.054566775147683134
0.7583480537812899 0.40632939241510163 -0.054147030723470206
-0.2146447062097749 0.40500300003458867 -0.05347543964472948
0.677429723681518 0.3497142644772593 -0.05347543964472948
0.7720653015645691 0.29310753142790125 -0.05347543964472948
0.7254400909229949 0.27551184516489446 -0.05288779745083135
0.7363282612870787 0.28927946227907914 -0.05288779745083135
0.5219060196221367 0.2913026304037855 -0.05288779745083135
0.21487976308733422 0.22637656286652674 -0.05288779745083135
0.1962850850947006 0.3850399552190209 -0.05288779745083135
0.02134400397122841 0.42365644224661203 -0.05288779745083135
0.030771463739051128 0.28933822649846885 -0.05288779745083135
-0.08236644836330663 0.2549191837130072 -0.05288779745083135
-0.10619114188163359 0.35649733437254044 -0.05288779745083135
-0.22710272072041515 0.45238375063974623 -0.05288779745083135
-0.22511313214964582 0.3183341713230993 -0.05288779745083135
-0.3989796675471329 0.22637656286652674 -0.05288779745083135
-0.37717814215351236 0.3735809324380075 -0.05288779745083135
0.6991389053018116 0.42029009196442424 -0.052468053026618396
0.04367440733935718 0.2120129086699597 -0.051796461947877695
-0.3079371019353446 0.27365657480987315 -0.051796461947877695
-0.16468672483994984 0.40632939241510163 -0.051796461947877695
0.14350642119416457 0.39939521452710364 -0.051796461947877695
0.48981236094681463 0.28218578150988033 -0.051796461947877695
0.7905508460069073 0.3842172561475635 -0.051796461947877695
-0.4656098974466961 0.45140994357557207 -0.05120881975397956
-0.1746682472477338 0.4521990630930926 -0.05120881975397956
-0.0322741487777335 0.2942576311502447 -0.05120881975397956
0.10886071641962791 0.2834366198940349 -0.05120881975397956
0.5196981639507765 0.28493930493271713 -0.05120881975397956
0.65220308378632 0.45595157824555616 -0.05120881975397956
0.6742648507229523 0.4550113507353192 -0.05120881975397956
0.18339893127136317 0.3399929836124874 -0.05078907532976661
-0.16902688218631182 0.47267419610620015 -0.05078907532976661
-0.3035969445889827 0.26927444302108994 -0.05078907532976661
0.1530681991777356 0.26927444302108994 -0.05011748425102591
-0.471796930259595 0.2736481799213889 -0.05011748425102591
-0.1212767564878469 0.409292788050045 -0.05011748425102591
0.04232283029339148 0.3399929836124874 -0.05011748425102591
0.28290354447528443 0.36210511988002547 -0.05011748425102591
0.7103964507592029 0.30682477921118034 -0.05011748425102591
0.6906768577096787 0.35479317201023597 -0.04952984205712778
0.7438332915920063 0.3948283951916668 -0.04952984205712778
0.7926999374588776 0.34081568268394474 -0.04952984205712778
0.7571391898395567 0.30963706685340703 -0.04952984205712778
0.4976615816795968 0.39858091034413057 -0.04952984205712778
0.20005439002413286 0.2934013525248503 -0.04952984205712778
0.10886071641962791 0.3521403872492101 -0.04952984205712778
-0.024366163825561626 0.42787907115419427 -0.04952984205712778
0.08529626444431303 0.21722613441868457 -0.04952984205712778
-0.19002249828544338 0.38760879109520413 -0.04952984205712778
-0.22214134162621815 0.45821819813630615 -0.04952984205712778
-0.3720488652896302 0.2590242841818099 -0.04952984205712778
-0.3801835122308771 0.35649733437254044 -0.04952984205712778
-0.4555192414886169 0.47267419610620015 -0.04911009763291483
-0.11693659914148505 0.40632939241510163 -0.04911009763291483
0.14218002881365163 0.39939521452710364 -0.04911009763291483
-0.27754760562232716 0.4083861400937451 -0.04843850655417413
-0.43578285866212413 0.40632939241510163 -0.04843850655417413
-0.13731099349278145 0.27365657480987315 -0.04843850655417413
-0.004075718359107735 0.40632939241510163 -0.04843850655417413
0.38942628445204613 0.3289369154787184 -0.04843850655417413
0.6991305104133272 0.2736481799213889 -0.04843850655417413
-0.3744665931730967 0.31956821993028534 -0.047850864360275996
-0.46399807885771843 0.46134949154093463 -0.047850864360275996
-0.2547722731645327 0.2867693906222856 -0.047850864360275996
-0.06581172827234803 0.21722613441868457 -0.047850864360275996
-0.10506622682474288 0.4238075502393287 -0.047850864360275996
0.045244251485913586 0.3473469059246983 -0.047850864360275996
0.1126971804569342 0.25748801958919043 -0.047850864360275996
0.14383382184505067 0.39341805392631135 -0.047850864360275996
0.4976196072371755 0.39862288478655183 -0.047850864360275996
0.6197736295716276 0.3755201516778713 -0.047850864360275996
0.7447735191022432 0.2985054447232797 -0.047850864360275996
0.6767917121567142 0.28891008718577177 -0.047850864360275996
0.371360484433921 0.35556550175078777 -0.04743111993606305
-0.004075718359107735 0.27365657480987315 -0.04743111993606305
-0.14431233048865344 0.265060209001992 -0.04743111993606305
-0.4481737140648903 0.4638931427516651 -0.04743111993606305
0.7525303960616986 0.41156780282927913 -0.04675952885732231
0.47087349252632643 0.3952733242813325 -0.04675952885732231
0.14756115233206166 0.2736481799213889 -0.04675952885732231
-0.030125057325763205 0.2779043883829082 -0.04675952885732231
-0.12996546606905487 0.27919720120948405 -0.04675952885732231
-0.329637888667154 0.27672910399511197 -0.04675952885732231
-0.4555192414886169 0.21376744036316983 -0.04675952885732231
-0.2818877629686891 0.3460960675405437 -0.04675952885732231
-0.02144474263303952 0.34635630908355564 -0.04675952885732231
0.22598620055200874 0.3280218726339341 -0.04675952885732231
0.05235472203208098 0.39647379333458155 -0.04675952885732231
-0.15114576971484017 0.40632939241510163 -0.04675952885732231
-0.23847779461658605 0.4623400883820774 -0.04675952885732231
-0.4294782974104457 0.39647379333458155 -0.04675952885732231
-0.2838269822085529 0.21110626071365982 -0.04675952885732231
0.16521560281445818 0.4647997907079651 -0.04675952885732231
-0.4472586712201061 0.3607199632801227 -0.046171886663424186
-0.34128159899482113 0.22468919028119075 -0.046171886663424186
-0.34743505225378296 0.35118336996200455 -0.046171886663424186
-0.11474553324709338 0.3547428026793304 -0.046171886663424186
-0.10810517645604459 0.22637656286652674 -0.046171886663424186
0.036446408354410195 0.3512757137353314 -0.046171886663424186
0.14889593960105887 0.44852210193698705 -0.046171886663424186
0.19114741334233407 0.2204749562620928 -0.046171886663424186
0.519748533281682 0.4030721756832091 -0.046171886663424186
0.6442531243917267 0.46231490371662454 -0.046171886663424186
0.7719897475682107 0.35062091243355925 -0.046171886663424186
0.6746845951471654 0.296893626134302 -0.046171886663424186
0.6730895663351562 0.4245798799798805 -0.04575214223921126
0.01754951437634338 0.3289369154787184 -0.04575214223921126
-0.2718810558954524 0.2749745723019018 -0.04575214223921126
-0.44170125504352664 0.265060209001992 -0.04575214223921126
-0.008415875705469577 0.4135154169576272 -0.04508055116047053
0.2216460432056469 0.3951809805080057 -0.04508055116047053
0.06537519407116651 0.26751991132787994 -0.04508055116047053
-0.1483082974071607 0.2736481799213889 -0.04508055116047053
-0.44249876944953126 0.21376744036316983 -0.04508055116047053
-0.40777751067863627 0.3951809805080057 -0.04508055116047053
-0.27754760562232716 0.3289369154787184 -0.04508055116047053
-0.22698519228163555 0.4623400883820774 -0.04508055116047053
0.15861722046583063 0.3399929836124874 -0.04508055116047053
0.6586587530307149 0.2736481799213889 -0.04508055116047053
0.802572326316366 0.37316118801379444 -0.04508055116047053
-0.4235850856944958 0.28441042695820895 -0.0444929089665724
-0.42274559684607 0.421901910553402 -0.0444929089665724
-0.29873630415659674 0.39094156182345496 -0.0444929089665724
-0.23182904293705295 0.2204749562620928 -0.0444929089665724
-0.12052961141274786 0.2875836948052588 -0.0444929089665724
-0.07779123413938549 0.41450601379876983 -0.0444929089665724
0.007996131281256653 0.3228170417736935 -0.0444929089665724
0.08529626444431303 0.4251507323968102 -0.0444929089665724
0.15751749007439284 0.3941903836668632 -0.0444929089665724
0.10575460768045207 0.22446252829211574 -0.0444929089665724
0.4921377450569545 0.2869204986150023 -0.0444929089665724
0.7720233271221478 0.37782035112255824 -0.0444929089665724
0.7666505984922221 0.3008811981643249 -0.0444929089665724
0.694647639962733 0.30480161108647397 -0.0444929089665724
0.673022407227282 0.40129245932454627 -0.0444929089665724
0.17143621518129407 0.3441568483006798 -0.04407316454235945
-0.13430562341541671 0.2689218577047512 -0.04407316454235945
-0.43688258905356203 0.26927444302108994 -0.04407316454235945
-0.3874031163273398 0.3952733242813325 -0.043401573463618746
0.18623640357904264 0.409292788050045 -0.043401573463618746
0.013284911026339752 0.2736481799213889 -0.043401573463618746
-0.3473259187034876 0.20731177111877466 -0.043401573463618746
-0.12618776625113834 0.3421336801759734 -0.043401573463618746
0.48579960425133906 0.3510490517462564 -0.043401573463618746
0.679536840691067 0.45948582629742935 -0.043401573463618746
0.7887039705403703 0.3467760535077687 -0.04281393126972062
0.6906768577096787 0.41330554474552084 -0.04281393126972062
0.617322322134224 0.37742579136379806 -0.04281393126972062
0.631492893895653 0.22358106500126854 -0.04281393126972062
0.249139302991595 0.3468348177271584 -0.04281393126972062
0.11555144254158227 0.31709172782742906 -0.04281393126972062
0.15758464918226686 0.44728805332980104 -0.04281393126972062
-0.0090622821187575 0.3803304227793517 -0.04281393126972062
0.013780209446911128 0.26041783567019683 -0.04281393126972062
-0.19083680246841656 0.2839990774224802 -0.04281393126972062
-0.07224221285129043 0.3899761496477651 -0.04281393126972062
-0.21733946541322202 0.4149257582229828 -0.04281393126972062
-0.23310506598666034 0.22144036843778253 -0.04281393126972062
-0.3851281015481056 0.2841166058612598 -0.04281393126972062
-0.42853806990020865 0.421901910553402 -0.04281393126972062
0.17641438405245966 0.4623400883820774 -0.042394186845507664
-0.12996546606905487 0.3421336801759734 -0.042394186845507664
-0.42513814006408374 0.40632939241510163 -0.042394186845507664
0.1825762321999058 0.27365657480987315 -0.041722595766766964
-0.2818877629686891 0.20731177111877466 -0.041722595766766964
0.025944402860602327 0.40632939241510163 -0.041722595766766964
-0.45117908414225505 0.4135154169576272 -0.041722595766766964
-0.30310164616841145 0.3399929836124874 -0.041722595766766964
0.17518033544527364 0.3421336801759734 -0.041722595766766964
0.6817698810278798 0.4217591974491695 -0.041722595766766964
0.6586587530307149 0.2847126429436423 -0.041722595766766964
-0.4352623755761001 0.22144036843778253 -0.04113495357286883
-0.4316441786393844 0.3867273278043569 -0.04113495357286883
-0.47097423118813764 0.44728805332980104 -0.04113495357286883
-0.34756937046953107 0.3545916946866137 -0.04113495357286883
-0.27792537560411884 0.22380772699034351 -0.04113495357286883
-0.13034323605084655 0.26014919923870056 -0.04113495357286883
-0.0715790166610339 0.3511581852965518 -0.04113495357286883
-0.04224727629703315 0.2597882190338774 -0.04113495357286883
0.013721445227521273 0.31709172782742906 -0.04113495357286883
0.06240340354773885 0.41843482160940293 -0.04113495357286883
0.16806986489910625 0.38489724211478854 -0.04113495357286883
0.2144264391091842 0.28441042695820895 -0.04113495357286883
0.39742661317754496 0.32594833517832217 -0.04113495357286883
0.7174481570859804 0.25781542024007653 -0.04113495357286883
0.6631584132582776 0.27737551040839986 -0.04113495357286883
0.7058464212007345 0.3815980509404748 -0.04113495357286883
0.6234086162853116 0.4608457982318791 -0.04113495357286883
0.17088215254133307 0.3421336801759734 -0.04071520914865588
0.004604596333616069 0.21622714268905777 -0.04071520914865588
-0.3005831796231338 0.27919720120948405 -0.04071520914865588
0.7251798493799828 0.24047997552008182 -0.04004361806991518
0.7321392119334336 0.3463311244181029 -0.04004361806991518
0.6586587530307149 0.4225651067436584 -0.04004361806991518
-0.10692989206824832 0.3280218726339341 -0.04004361806991518
-0.4034289584437901 0.27365657480987315 -0.04004361806991518
0.07405550876389032 0.27742587973930544 -0.04004361806991518
-0.4910631993309693 0.20731177111877466 -0.04004361806991518
-0.2562077990953409 0.3952733242813325 -0.04004361806991518
0.19445499940513214 0.3951809805080057 -0.04004361806991518
0.774978327868607 0.3681158600347548 -0.03945597587601705
0.7357658037586333 0.37908797928368126 -0.03945597587601705
0.6812661877188243 0.3137673519876625 -0.03945597587601705
0.6137544945284138 0.3039789120150165 -0.03945597587601705
0.5049147653299966 0.39884115188714264 -0.03945597587601705
0.2359845127367612 0.4169237416822364 -0.03945597587601705
0.1540420062419096 0.3842592305899848 -0.03945597587601705
0.11137918296490558 0.2210290189020538 -0.03945597587601705
0.018506531663548816 0.2867693906222856 -0.03945597587601705
0.01630707088067297 0.3473469059246983 -0.03945597587601705
-0.0935736244897924 0.4219774645497603 -0.03945597587601705
-0.13053631848598446 0.3842508357015006 -0.03945597587601705
-0.06623147269656096 0.21964386230215113 -0.03945597587601705
-0.34128159899482113 0.31956821993028534 -0.03945597587601705
-0.3215200315028756 0.3606947786146699 -0.03945597587601705
-0.42978051339587897 0.46134949154093463 -0.03945597587601705
-0.4666676533957128 0.38012894545572945 -0.03945597587601705
-0.3973762438466394 0.21722613441868457 -0.03945597587601705
0.16087544546809635 0.409292788050045 -0.0390362314518041
-0.1125964417951231 0.47267419610620015 -0.0390362314518041
-0.2632259258681815 0.3280218726339341 -0.0390362314518041
-0.45117908414225505 0.21622714268905777 -0.0390362314518041
0.7523792880689819 0.38085930075385993 -0.03836464037306336
0.6501547309961607 0.2736481799213889 -0.03836464037306336
0.1478549734290107 0.2736481799213889 -0.03836464037306336
-0.3122772592817065 0.2736481799213889 -0.03836464037306336
-0.2891997108384786 0.3399929836124874 -0.03836464037306336
0.14218002881365163 0.34635630908355564 -0.03836464037306336
-0.41633190204409615 0.40500300003458867 -0.03836464037306336
-0.035439021736299196 0.3951809805080057 -0.03836464037306336
0.10599805944649567 0.20731177111877466 -0.03836464037306336
0.6873440869814277 0.3721957758381047 -0.03777699817916524
0.7359001219743816 0.3219775529252677 -0.03777699817916524
0.6369495714104213 0.4715912554917306 -0.03777699817916524
0.6167514697172942 0.3802044994520878 -0.03777699817916524
0.6527571464262808 0.2339907267217497 -0.03777699817916524
0.395285916614059 0.3279547135260601 -0.03777699817916524
0.1819718002290391 0.39094156182345496 -0.03777699817916524
0.18574950004695567 0.32303530887428433 -0.03777699817916524
0.03038529886877528 0.2640696121608495 -0.03777699817916524
0.008004526169740952 0.3580252040766756 -0.03777699817916524
-0.04507635371622844 0.46092974711672186 -0.03777699817916524
-0.10216159540918926 0.3539284984963572 -0.03777699817916524
-0.1686071377620989 0.2532737855700925 -0.03777699817916524
-0.22203220807592275 0.22061766936632515 -0.03777699817916524
-0.3197151304787599 0.3867273278043569 -0.03777699817916524
-0.2556873160093169 0.44798482907399456 -0.03777699817916524
-0.4986102040783181 0.35287913743582483 -0.03777699817916524
-0.4193708516753979 0.25339131400887205 -0.03777699817916524
0.14350642119416457 0.34635630908355564 -0.037357253754952316
0.04367440733935718 0.39939521452710364 -0.037357253754952316
-0.24781291061108196 0.47267419610620015 -0.037357253754952316
-0.456140463236452 0.4135154169576272 -0.037357253754952316
0.7599095030393621 0.30682477921118034 -0.03668566267621158
0.6466204829442875 0.2723133926523918 -0.03668566267621158
0.2216460432056469 0.41160138238321625 -0.03668566267621158
-0.02796757098530873 0.39696909175515294 -0.03668566267621158
-0.37809318499829664 0.3952733242813325 -0.03668566267621158
-0.3035969445889827 0.2749745723019018 -0.03668566267621158
0.13632879154012326 0.27919720120948405 -0.03668566267621158
-0.37809318499829664 0.3289369154787184 -0.03668566267621158
-0.03145144970627613 0.33048157495982206 -0.03668566267621158
-0.18072096184488454 0.4623400883820774 -0.03668566267621158
0.7822902757383964 0.3596873919965589 -0.036098020482313455
0.7051244607910881 0.3508223897571815 -0.036098020482313455
0.6728545094575967 0.37638482519174987 -0.036098020482313455
0.694647639962733 0.30480161108647397 -0.036098020482313455
0.6202689279921989 0.3456091640084566 -0.036098020482313455
0.5054604330814734 0.3957686227019039 -0.036098020482313455
0.19547917580021174 0.41450601379876983 -0.036098020482313455
0.19173505553623224 0.32439528080873425 -0.036098020482313455
0.16831331666514973 0.2541468539724554 -0.036098020482313455
-0.0097422680859825 0.32311086287064267 -0.036098020482313455
0.0022204480040864767 0.4251843119507472 -0.036098020482313455
-0.06602160048445443 0.4558172600298081 -0.036098020482313455
-0.11388085973321475 0.3270312757927916 -0.036098020482313455
-0.34113049100210446 0.2532737855700925 -0.036098020482313455
-0.3477120835737635 0.316378162306267 -0.036098020482313455
-0.22335860045643569 0.4538864356784286 -0.036098020482313455
-0.37717814215351236 0.44798482907399456 -0.036098020482313455
-0.4933969783295933 0.32360616129121395 -0.036098020482313455
0.6557289369497086 0.47267419610620015 -0.0356782760581005
0.21656713567267022 0.4623400883820774 -0.0356782760581005
-0.15166625280086432 0.3421336801759734 -0.0356782760581005
-0.23847779461658605 0.40632939241510163 -0.0356782760581005
0.654511678119491 0.22157468665353072 -0.0350066849793598
0.6543941496807115 0.47267419610620015 -0.0350066849793598
0.14183583838579705 0.3399929836124874 -0.0350066849793598
0.05669487937844283 0.47267419610620015 -0.0350066849793598
-0.004571016779678991 0.2120129086699597 -0.0350066849793598
-0.09089565506331376 0.27365657480987315 -0.0350066849793598
-0.22698519228163555 0.4623400883820774 -0.0350066849793598
-0.30025577897224764 0.2736481799213889 -0.0350066849793598
-0.48219819709159184 0.3289369154787184 -0.0350066849793598
-0.33765500716962127 0.3441568483006798 -0.0350066849793598
-0.32663251858978926 0.46330550055776704 -0.0350066849793598
0.7366220823840277 0.34454301317095576 -0.03441904278546167
0.6937913613373385 0.3918062353373336 -0.03441904278546167
0.6631500183697934 0.3067660149917905 -0.03441904278546167
0.6104049340231945 0.3539620780502943 -0.03441904278546167
0.6746845951471654 0.24903436688554176 -0.03441904278546167
0.2299737725820317 0.2566065562983432 -0.03441904278546167
0.07614583599647075 0.23446923536535247 -0.03441904278546167
0.11004439569590847 0.3266115313685787 -0.03441904278546167
0.11714647135359145 0.380825721199923 -0.03441904278546167
-0.04507635371622844 0.46092974711672186 -0.03441904278546167
-0.19002249828544338 0.29099201952986786 -0.03441904278546167
-0.07123482623317932 0.26075363120956724 -0.03441904278546167
-0.11198361493577225 0.4181577902894225 -0.03441904278546167
-0.2787564695640605 0.4514183384640564 -0.03441904278546167
-0.30326954393809663 0.2801877980506267 -0.03441904278546167
-0.41315863419704624 0.2280219610094416 -0.03441904278546167
-0.41473687323208697 0.2801877980506267 -0.03441904278546167
-0.4555947954849752 0.4211463705898187 -0.03441904278546167
-0.012756033051831418 0.2753607371721778 -0.033999298361248716
0.0728298550451885 0.40632939241510163 -0.033999298361248716
-0.24270042352416832 0.3280218726339341 -0.033999298361248716
-0.3166090217395841 0.34503831159152704 -0.033999298361248716
-0.32805125474362906 0.21622714268905777 -0.033327707282508015
-0.3930276916117933 0.4091752596112654 -0.033327707282508015
-0.17047919789408864 0.3951809805080057 -0.033327707282508015
-0.035439021736299196 0.21622714268905777 -0.033327707282508015
-0.09301956184983128 0.26927444302108994 -0.033327707282508015
-0.10152358388438563 0.4122226041310514 -0.033327707282508015
0.05235472203208098 0.41131595617475136 -0.033327707282508015
0.35195989714679854 0.35556550175078777 -0.033327707282508015
0.6644092516424323 0.21836783925254377 -0.033327707282508015
0.6710076339910598 0.3953908527201122 -0.03274006508860988
0.686605336794813 0.3438210527613095 -0.03274006508860988
0.698467314223071 0.4379865168892421 -0.03274006508860988
0.6781013147602586 0.2800534798348785 -0.03274006508860988
0.6207054621933803 0.37813935688496003 -0.03274006508860988
0.4986605734092236 0.39449259965229655 -0.03274006508860988
0.2299737725820317 0.4219774645497603 -0.03274006508860988
0.18140934270059372 0.3842592305899848 -0.03274006508860988
0.23130016496254463 0.22061766936632515 -0.03274006508860988
0.03096454617418917 0.2854849726841941 -0.03274006508860988
0.03030134998393265 0.3842592305899848 -0.03274006508860988
-0.1963942186449959 0.4200382453098964 -0.03274006508860988
-0.19018200116664433 0.28765924880161714 -0.03274006508860988
-0.13938453094839343 0.2500081739497158 -0.03274006508860988
-0.22268700937769498 0.323413078856076 -0.03274006508860988
-0.34113049100210446 0.4505536649501776 -0.03274006508860988
-0.37246021482535885 0.46092974711672186 -0.03274006508860988
-0.3990132471010699 0.32439528080873425 -0.03274006508860988
-0.42302262816605046 0.2541384590839711 -0.03274006508860988
-0.17336703953267366 0.21622714268905777 -0.03232032066439693
-0.07090742558229321 0.26927444302108994 -0.03232032066439693
0.07105013868652557 0.2736481799213889 -0.03232032066439693
0.7194881149876553 0.2515360436538508 -0.03164872958565623
0.6035547050200392 0.3582518660657506 -0.03164872958565623
0.22790863001490405 0.3317743877863979 -0.03164872958565623
-0.07536511136743476 0.27649404711755277 -0.03164872958565623
-0.03773922118098604 0.2120129086699597 -0.03164872958565623
-0.40283292136140775 0.27672910399511197 -0.03164872958565623
-0.26457750291414706 0.2749745723019018 -0.03164872958565623
-0.2636708549578472 0.4083861400937451 -0.03164872958565623
-0.07220023840886905 0.47267419610620015 -0.03164872958565623
0.13077137536354377 0.40632939241510163 -0.03164872958565623
-0.45296719538940217 0.2507049496939093 -0.031061087391758103
-0.37379500209435607 0.3905721867301476 -0.031061087391758103
-0.27831993536287897 0.42382434001629726 -0.031061087391758103
-0.3148377002694055 0.3473469059246983 -0.031061087391758103
-0.317935414120097 0.2246136362848324 -0.031061087391758103
-0.14118103708402482 0.2507049496939093 -0.031061087391758103
-0.0702358345035525 0.39176426089491234 -0.031061087391758103
-0.038914505568782294 0.2532737855700925 -0.031061087391758103
-0.04105520213226841 0.28317637835102283 -0.031061087391758103
0.08019217224588356 0.41790594363489475 -0.031061087391758103
0.22725382871313182 0.440479798769067 -0.031061087391758103
0.10603163900043262 0.2806075424748396 -0.031061087391758103
0.3555780940835142 0.36120686681220976 -0.031061087391758103
0.658272588160439 0.23179966082735803 -0.031061087391758103
0.6397366743871953 0.3882132230660708 -0.031061087391758103
0.6640062969951878 0.341310981104516 -0.031061087391758103
0.7197819360846043 0.3721957758381047 -0.031061087391758103
0.780460190048828 0.3103590272630533 -0.031061087391758103
0.22598620055200874 0.265060209001992 -0.03064134296754515
-0.015769798017680456 0.409292788050045 -0.03064134296754515
-0.17707758024271616 0.34635630908355564 -0.03064134296754515
-0.38606832905834265 0.40632939241510163 -0.03064134296754515
0.7383682191887536 0.3946353127565289 -0.02996975188880442
0.4921125603915016 0.410459677549357 -0.02996975188880442
0.19125654689262947 0.3441568483006798 -0.02996975188880442
-0.27036158107980157 0.3421336801759734 -0.02996975188880442
-0.37809318499829664 0.27919720120948405 -0.02996975188880442
-0.19073606380660543 0.20731177111877466 -0.02996975188880442
0.03276105230982057 0.4083861400937451 -0.02996975188880442
-0.33397804601351583 0.4135154169576272 -0.02996975188880442
0.6524297457753948 0.46813256143621607 -0.02938210969490629
0.694647639962733 0.38859099304786243 -0.02938210969490629
0.6942614750924572 0.2789369596664721 -0.02938210969490629
0.5194966866271543 0.4001087800482657 -0.02938210969490629
0.375188553582743 0.3254446418692666 -0.02938210969490629
0.12960448586423182 0.2875836948052588 -0.02938210969490629
0.23626154405674174 0.35555710686230346 -0.02938210969490629
0.06866599035699611 0.45742907861878584 -0.02938210969490629
0.04399341310175899 0.3842592305899848 -0.02938210969490629
-0.039065613561498964 0.22144036843778253 -0.02938210969490629
-0.06961461275571736 0.285451393130257 -0.02938210969490629
-0.12830327814917167 0.35156953483228054 -0.02938210969490629
-0.22251911160800983 0.45788240259693586 -0.02938210969490629
-0.28689111650530735 0.35649733437254044 -0.02938210969490629
-0.34756937046953107 0.2560944681008035 -0.02938210969490629
-0.4305192635824937 0.29099201952986786 -0.02938210969490629
-0.4321058975060187 0.3473469059246983 -0.02938210969490629
0.12180563446235523 0.409292788050045 -0.028962365270693364
-0.19073606380660543 0.409292788050045 -0.028962365270693364
-0.48507764384169266 0.34635630908355564 -0.028962365270693364
-0.18663096333780277 0.409292788050045 -0.028290774191952632
0.0838859231789576 0.2736481799213889 -0.028290774191952632
-0.44683892679589315 0.33048157495982206 -0.028290774191952632
0.0838859231789576 0.3421336801759734 -0.028290774191952632
0.6606819211554213 0.27077712805977233 -0.028290774191952632
0.7511956087927012 0.30682477921118034 -0.028290774191952632
0.6939256795530869 0.3287942023744859 -0.027703131998054506
0.667255118838596 0.46048481802705615 -0.027703131998054506
0.699575439502993 0.24588628370394464 -0.027703131998054506
0.5230477244559959 0.29037919267051704 -0.027703131998054506
0.1269097266607847 0.41450601379876983 -0.027703131998054506
0.12749736885468277 0.2834366198940349 -0.027703131998054506
0.11476232302406199 0.23869186427293473 -0.027703131998054506
-0.045219066820460806 0.32172570627073993 -0.027703131998054506
0.01421674364809253 0.4210876063704288 -0.027703131998054506
-0.1728801360005867 0.22854244409546565 -0.027703131998054506
-0.07967168915985952 0.3941903836668632 -0.027703131998054506
-0.22350131356066805 0.4505536649501776 -0.027703131998054506
-0.2752474061776402 0.3813881787283682 -0.027703131998054506
-0.34743505225378296 0.2587640426387978 -0.027703131998054506
-0.43884699295887863 0.2905890648826234 -0.027703131998054506
-0.4378899756716731 0.3499829009087555 -0.027703131998054506
-0.2688672909296035 0.27672910399511197 -0.02661179649510085
-0.1386457807617787 0.33048157495982206 -0.02661179649510085
0.013091828591201829 0.4623400883820774 -0.02661179649510085
-0.028622372287080835 0.40632939241510163 -0.02661179649510085
0.5977874166313532 0.40632939241510163 -0.02661179649510085
0.7359840708592241 0.26259211178761993 -0.02661179649510085
0.7798641529664457 0.3126340420422875 -0.02602415430120272
0.6067783421979948 0.40166183441785364 -0.02602415430120272
0.6692363125208813 0.3175534466940632 -0.02602415430120272
0.7008430676641161 0.4295748386280147 -0.02602415430120272
0.1562162823593327 0.22380772699034351 -0.02602415430120272
0.1840453376846511 0.38379751172335064 -0.02602415430120272
0.11476232302406199 0.4412941029520401 -0.02602415430120272
-0.003043147075543845 0.35649733437254044 -0.02602415430120272
0.06000246544124078 0.2305907968856248 -0.02602415430120272
-0.06623147269656096 0.2826055259340932 -0.02602415430120272
-0.14146646329248969 0.41450601379876983 -0.02602415430120272
-0.29190286493041 0.3512757137353314 -0.02602415430120272
-0.34729233914955054 0.21764587884289752 -0.02602415430120272
-0.37314020079258386 0.2835877278867516 -0.02602415430120272
-0.48403667766964453 0.42465543397623884 -0.02602415430120272
-0.2815771520947715 0.27919720120948405 -0.024932818798249066
-0.12996546606905487 0.34388821186918356 -0.024932818798249066
-0.1212767564878469 0.4114082999480783 -0.024932818798249066
0.2939680074975378 0.3289369154787184 -0.024932818798249066
0.7915162581825972 0.3952733242813325 -0.024932818798249066
0.6561738660393743 0.30682477921118034 -0.024932818798249066
0.7808883293615252 0.3816148407174432 -0.024345176604350937
0.6906768577096787 0.37753492491409335 -0.024345176604350937
0.6484757532993088 0.4131796214182569 -0.024345176604350937
0.6718051483970644 0.23287420655334318 -0.024345176604350937
0.2198495370700155 0.42787907115419427 -0.024345176604350937
0.15504939286002062 0.22445413340363146 -0.024345176604350937
0.0054356902935576165 0.28441042695820895 -0.024345176604350937
-0.11236138491756391 0.45412149255598777 -0.024345176604350937
-0.12868104813096334 0.2935608554060511 -0.024345176604350937
-0.22203220807592275 0.2835877278867516 -0.024345176604350937
-0.41354479906732217 0.45095661959742206 -0.024345176604350937
-0.4494665268914662 0.2801877980506267 -0.024345176604350937
0.6817698810278798 0.31137480876964857 -0.023925432180137984
0.7057288927619548 0.24047997552008182 -0.023253841101397284
0.4852707262768306 0.32609104828255453 -0.023253841101397284
0.022678791240225513 0.39696909175515294 -0.023253841101397284
-0.4344396765046427 0.34488720359881037 -0.023253841101397284
0.17578476741614021 0.34488720359881037 -0.023253841101397284
-0.38870432404239996 0.42787907115419427 -0.022666198907499154
-0.45525899994560487 0.21722613441868457 -0.022666198907499154
-0.25362217344218924 0.39094156182345496 -0.022666198907499154
-0.10368946511332441 0.44850531216001843 -0.022666198907499154
-0.19217998462589794 0.26143361717679214 -0.022666198907499154
-0.04224727629703315 0.3227498826658195 -0.022666198907499154
0.15547753217271784 0.2305907968856248 -0.022666198907499154
0.15075960484456433 0.4219774645497603 -0.022666198907499154
0.753294330913766 0.27999471561548867 -0.022666198907499154
0.6427168597991071 0.37337106022590094 -0.022666198907499154
0.6939256795530869 0.37549496701241847 -0.022666198907499154
0.7092883254792807 0.3138764855379578 -0.022666198907499154
0.4842213652162982 0.32891173081326563 -0.0222464544832862
0.0838859231789576 0.2736481799213889 -0.02157486340454547
-0.28949353193542765 0.4116685414910903 -0.02157486340454547
0.0029088288597957763 0.409292788050045 -0.02157486340454547
0.4827018904006475 0.3510490517462564 -0.02157486340454547
0.6934639606864526 0.461618127972431 -0.02157486340454547
-0.4943959700592201 0.39377063924265027 -0.02098722121064734
-0.2498024991818514 0.2568416131759025 -0.02098722121064734
-0.2632930849760555 0.3653203621694966 -0.02098722121064734
-0.15724885364289645 0.35156953483228054 -0.02098722121064734
-0.15907893933246495 0.23030537067715995 -0.02098722121064734
0.08515355134008067 0.2883979989882319 -0.02098722121064734
0.23221520780732893 0.2857787937811431 -0.02098722121064734
0.2198495370700155 0.42787907115419427 -0.02098722121064734
0.49048395202555545 0.40289588302503965 -0.02098722121064734
0.7521694158568754 0.28047322425909144 -0.02098722121064734
0.7163904011369637 0.42803857403539525 -0.02098722121064734
0.7796123063119179 0.3808760905308285 -0.02098722121064734
-0.07090742558229321 0.3399929836124874 -0.019895885707693687
-0.4128648131000972 0.3280218726339341 -0.019895885707693687
-0.0758688046764902 0.4135154169576272 -0.019895885707693687
0.2939680074975378 0.36210511988002547 -0.019895885707693687
0.747291985647521 0.3828908637670506 -0.019895885707693687
-0.4102288181160399 0.2305907968856248 -0.019308243513795557
-0.22135222210869776 0.4149257582229828 -0.019308243513795557
-0.24444656032889417 0.3162354492020346 -0.019308243513795557
-0.10722371316519737 0.42787907115419427 -0.019308243513795557
-0.19660409085710243 0.2534248935628091 -0.019308243513795557
0.06231945466289634 0.39094156182345496 -0.019308243513795557
0.15547753217271784 0.2305907968856248 -0.019308243513795557
0.11219348714787877 0.4210876063704288 -0.019308243513795557
0.5190433626490043 0.28739061237012076 -0.019308243513795557
0.6722668672636987 0.2370128865760829 -0.019308243513795557
0.7293940833990809 0.4148753888920772 -0.019308243513795557
0.6939256795530869 0.3515443501668277 -0.019308243513795557
-0.3116392477569028 0.40632939241510163 -0.0182169080108419
0.4851448029495668 0.3952733242813325 -0.0182169080108419
0.7667429422655488 0.3926121446318225 -0.0182169080108419
-0.49840033186621163 0.3266115313685787 -0.017629265816943775
-0.3774635683619772 0.45191363688462766 -0.017629265816943775
-0.2263555756453161 0.38475452901055607 -0.017629265816943775
-0.08043562401192715 0.453248424153625 -0.017629265816943775
-0.19217998462589794 0.32439528080873425 -0.017629265816943775
0.08487652002010011 0.21964386230215113 -0.017629265816943775
-0.04507635371622844 0.39377063924265027 -0.017629265816943775
0.22725382871313182 0.2305907968856248 -0.017629265816943775
0.11219348714787877 0.4210876063704288 -0.017629265816943775
0.5191860757532366 0.29073177798685595 -0.017629265816943775
0.6126211845830389 0.27636812379028886 -0.017629265816943775
0.6563165791436066 0.4625499605941837 -0.017629265816943775
0.6638719787794397 0.3515443501668277 -0.017629265816943775
0.736235917513752 0.3952733242813325 -0.016537930313990118
0.5084406184933854 0.26259211178761993 -0.016537930313990118
-0.44463107112453304 0.2265528555246962 -0.01595028812009199
-0.37127653554907836 0.45810066969752644 -0.01595028812009199
-0.26374640895420554 0.38486366256085147 -0.01595028812009199
-0.32715300167581335 0.2547428910548378 -0.01595028812009199
-0.09755280163133105 0.38486366256085147 -0.01595028812009199
-0.01746556549150075 0.45202277043492306 -0.01595028812009199
-0.045496098140441366 0.2640696121608495 -0.01595028812009199
0.16018706461238716 0.35667362703070987 -0.01595028812009199
0.3459491569920691 0.32594833517832217 -0.01595028812009199
0.6129317954569563 0.3236481357336352 -0.01595028812009199
0.7703527443137802 0.31524485236089206 -0.01595028812009199
0.7030593182239606 0.30682477921118034 -0.015530543695879036
0.4842213652162982 0.37901242528732293 -0.014858952617138335
0.7498944010776413 0.37316118801379444 -0.014858952617138335
-0.46943796659551823 0.42365644224661203 -0.014271310423240206
-0.4823912795267298 0.2882552858839995 -0.014271310423240206
-0.3477120835737635 0.2640696121608495 -0.014271310423240206
-0.3444632617303553 0.3505957277681065 -0.014271310423240206
-0.23016685501716974 0.4486983945951566 -0.014271310423240206
-0.07496215672019031 0.3055067817191516 -0.014271310423240206
-0.07434932986083935 0.423295462041789 -0.014271310423240206
0.02606193129938192 0.3850399552190209 -0.014271310423240206
-0.0022288428925707755 0.2549191837130072 -0.014271310423240206
0.11587884319246838 0.3850399552190209 -0.014271310423240206
0.1056118945762197 0.21722613441868457 -0.014271310423240206
0.526162228083656 0.4067995061702201 -0.014271310423240206
0.6916758494393055 0.24539938017185756 -0.014271310423240206
0.7099934961119584 0.43711344848687916 -0.014271310423240206
0.6957557652426553 0.3804563461066155 -0.013851565999027253
0.7281936143458319 0.43950599170489296 -0.013179974920286521
0.47908369346393176 0.3178808473449493 -0.013179974920286521
0.6698659291572007 0.4457601836256658 -0.012592332726388392
0.6419109505046182 0.40744591258350804 -0.012592332726388392
0.49025729003648033 0.31480831815971055 -0.012592332726388392
0.10886071641962791 0.2834366198940349 -0.012592332726388392
0.22725382871313182 0.35649733437254044 -0.012592332726388392
0.07614583599647075 0.4407400403120791 -0.012592332726388392
0.0649470547584694 0.2905135108862651 -0.012592332726388392
-0.07893293897324478 0.23034734511958121 -0.012592332726388392
-0.07893293897324478 0.3604681166255949 -0.012592332726388392
-0.22982266458931502 0.4268045254282091 -0.012592332726388392
-0.22921823261844848 0.29309074165093263 -0.012592332726388392
-0.3806788106514484 0.2304732684468451 -0.012592332726388392
-0.38127484773383075 0.35998960798199225 -0.012592332726388392
0.28290354447528443 0.36210511988002547 -0.011500997223434737
0.6577521050744148 0.40632939241510163 -0.011500997223434737
0.6704535713510987 0.32034894455932145 -0.010913355029536609
0.7621929127070804 0.39884954677562684 -0.010913355029536609
0.748526034254707 0.3949459236304465 -0.010913355029536609
0.34171813319600264 0.3593683862341571 -0.010913355029536609
0.16774246424822015 0.3178808473449493 -0.010913355029536609
0.11466158436225088 0.42419371510960463 -0.010913355029536609
-0.038914505568782294 0.3539284984963572 -0.010913355029536609
0.0723933208440071 0.3147327641633522 -0.010913355029536609
-0.07871467187265396 0.2517711005314101 -0.010913355029536609
-0.07496215672019031 0.36323842982540044 -0.010913355029536609
-0.23818397351963702 0.35649733437254044 -0.010913355029536609
-0.4461253612747311 0.4521990630930926 -0.010913355029536609
-0.2853296672472353 0.28933822649846885 -0.010913355029536609
-0.43171973263574276 0.22637656286652674 -0.010913355029536609
0.28290354447528443 0.36210511988002547 -0.009822019526582954
0.6047383842963197 0.3485557698664315 -0.009822019526582954
0.6638719787794397 0.3137673519876625 -0.009234377332684824
0.7583900282237112 0.2924779147915818 -0.009234377332684824
0.6854636319609538 0.4379949117777264 -0.009234377332684824
0.36762475905842584 0.3652196235076855 -0.009234377332684824
0.15286672185411337 0.3180487451146345 -0.009234377332684824
0.11811188352928131 0.4523669608627776 -0.009234377332684824
0.0597590136751973 0.35632943660285527 -0.009234377332684824
-0.12328313483558483 0.3852078529887061 -0.009234377332684824
-0.1876215601789454 0.24722107097294174 -0.009234377332684824
-0.22590225166716613 0.37288415669381403 -0.009234377332684824
-0.278739679787092 0.4523669608627776 -0.009234377332684824
-0.4819799299910011 0.3180487451146345 -0.009234377332684824
0.35754249798883064 0.3399929836124874 -0.008814632908471872
0.48235769997279265 0.36210511988002547 -0.00814304182973117
0.6873440869814277 0.3581259427384867 -0.007555399635833042
0.7246845509594115 0.2684685337266012 -0.007555399635833042
0.7733497195026606 0.29853062938873254 -0.007555399635833042
0.5259859354254864 0.4069590090514211 -0.007555399635833042
0.3050240756313067 0.3510490517462564 -0.006464064132879387
0.6946644297397017 0.30682477921118034 -0.006464064132879387
0.4967801183887497 0.3931242328293622 -0.005876421938981258
0.6506920038591533 0.2791552267670628 -0.005876421938981258
0.7239793803267338 0.4272998238487805 -0.005876421938981258
0.7659874023019655 0.40040260114521475 -0.005876421938981258
0.371360484433921 0.3510490517462564 -0.004785086436027573
0.7030593182239606 0.3510490517462564 -0.004785086436027573
0.37389574075616716 0.36120686681220976 -0.004197444242129444
0.6501043616652552 0.29316629564729096 -0.004197444242129444
0.7166590375684601 0.2595363723793496 -0.004197444242129444
0.3603044163001519 0.3178808473449493 -0.003777699817916521
0.4844648169823417 0.3319506804445673 -0.0031061087391757894
0.7030593182239606 0.36210511988002547 -0.0031061087391757894
0.37282119503018213 0.36120686681220976 -0.0025184665452776607
0.6502386798810033 0.3982283250277917 -0.0025184665452776607
0.7402906486516491 0.2755790042727685 -0.0025184665452776607
0.371360484433921 0.3510490517462564 -0.0020987221210647072
0.5046797084524374 0.3609466252691977 -0.0014271310423240057
0.8136283944501351 0.3289369154787184 -0.0014271310423240057
0.49322068567142385 0.28833923476884205 -8.394888484258769E-4
0.6692531022978496 0.33879251455923837 -8.394888484258769E-4
0.7537224702264633 0.39964706118163146 -8.394888484258769E-4
0.3305613264004224 0.35556550175078777 2.5184665452777797E-4
0.6837930491525861 0.30682477921118034 2.5184665452777797E-4
0.49098764533461103 0.4055570626745498 8.394888484259068E-4
0.6157944524300887 0.2782317890337943 8.394888484259068E-4
0.7366808466034176 0.27731674618901014 8.394888484259068E-4
0.6730895663351562 0.3085541262389376 0.00125923327263886
0.4837092770187584 0.2979513820833186 0.0019308243513795616
0.36951360896738406 0.36120686681220976 0.00251846654527769
0.6161050633040064 0.40970413758577373 0.00251846654527769
0.6815600088157734 0.3557921637398628 0.00251846654527769
0.734682863144164 0.4266030481045869 0.00251846654527769
0.6019093068771244 0.42000466575595946 0.003609802048231375
0.35516674454778546 0.32594833517832217 0.004197444242129504
0.644588919931097 0.39560072493221865 0.004197444242129504
0.683104668296877 0.3609466252691977 0.004197444242129504
0.7643839786014722 0.39872362344836293 0.004197444242129504
0.35519192921323817 0.3355940620467357 0.005288779745083159
0.7915162581825972 0.3041635995616702 0.005288779745083159
0.7717211111367145 0.31978648703087614 0.005876421938981287
0.6884522122613499 0.3415880124244966 0.005876421938981287
0.5193959479653432 0.4082518218779969 0.005876421938981287
0.3390737433234611 0.35465885379448775 0.006967757441934942
0.7777402461799281 0.3157905201123689 0.007555399635833071
0.6501631258846448 0.39840461768596114 0.007555399635833071
0.6487527846192895 0.29061424954807624 0.007555399635833071
0.336546881889699 0.3632132451599477 0.007555399635833071
0.2939596126090535 0.3510490517462564 0.008646735138786726
0.638359912675777 0.3833609775221691 0.008646735138786726
0.743791317149585 0.2908073319832143 0.009234377332684856
0.6638719787794397 0.3287858074860018 0.009234377332684856
0.36096761249040843 0.3311615609270469 0.009234377332684856
0.3518675533734717 0.3365007100030357 0.010325712835638509
0.802572326316366 0.3178808473449493 0.010325712835638509
0.8039071135853634 0.34658297107263064 0.010913355029536638
0.6513803847148625 0.2771152688653879 0.010913355029536638
0.3288319793726652 0.36120686681220976 0.010913355029536638
0.35620771071983354 0.37316118801379444 0.012004690532490323
0.24863560968253945 0.34569311289329924 0.012592332726388452
0.6372769720613074 0.28359612277523577 0.012592332726388452
0.768363155743011 0.30611121369001826 0.012592332726388452
0.6901647695121388 0.34902588362154996 0.013012077150601375
0.35190952781589296 0.3192072397254622 0.013683668229342107
0.49028247470193326 0.39004330875563925 0.014271310423240235
0.6760781466355523 0.3287942023744859 0.014271310423240235
0.7817949773178252 0.3785171268667517 0.014271310423240235
0.343187238680748 0.3178808473449493 0.01536264592619389
0.33119933792522627 0.3632132451599477 0.01595028812009202
0.6137377047514453 0.4113915101711097 0.01595028812009202
0.7928846250055313 0.347405670144088 0.01595028812009202
0.343187238680748 0.37316118801379444 0.017041623623045673
0.5027404892125736 0.39227634909245207 0.017629265816943802
0.6906768577096787 0.35479317201023597 0.017629265816943802
0.34924834816638284 0.3708525936806233 0.018049010241156755
0.6019848608734827 0.29508872511018625 0.01872060131989746
